# .PCD v0.7 - Point Cloud Data file format
VERSION 0.7
FIELDS x y z
SIZE 4 4 4
TYPE F F F
COUNT 1 1 1
WIDTH 1627
HEIGHT 1
VIEWPOINT 0 0 0 1 0 0 0
POINTS 1627
DATA ascii
-2.1508651 -4.342762 -0.7513684
-2.2040744 -4.3823891 -0.76102328
-2.2044442 -4.3169198 -0.75152928
-2.2295284 -4.3006835 -0.75104654
-2.2544963 -4.2843022 -0.7505638
-2.2918992 -4.2912831 -0.75442576
-2.3195975 -4.2797427 -0.7549085
-2.337254 -4.2498622 -0.75201201
-2.3512659 -4.2138929 -0.74798918
-2.3921473 -4.2260141 -0.75297755
-2.3870757 -4.1573315 -0.74283987
-2.434391 -4.1801348 -0.74992013
-2.4650123 -4.1736178 -0.75152928
-2.4931102 -4.1626477 -0.75233388
-2.5196292 -4.1489592 -0.75265568
-2.5434871 -4.1308999 -0.75217295
-2.5609477 -4.1026559 -0.74975926
-2.5855451 -4.086031 -0.74959832
-2.5967155 -4.0484886 -0.74541456
-2.624197 -4.0366168 -0.7462191
-2.6402287 -4.0072517 -0.74364448
-2.6505194 -3.9696338 -0.73946071
-2.6720614 -3.9492083 -0.7386561
-2.6655519 -3.8879645 -0.72980577
-2.6944249 -3.8788314 -0.73125404
-2.703975 -3.8420465 -0.72723114
-2.7189047 -3.813328 -0.72481745
-2.7353177 -3.7869718 -0.72288644
-2.7503445 -3.7589648 -0.72063363
-2.7598422 -3.7237797 -0.71693259
-2.7690125 -3.6886201 -0.71323156
-2.785023 -3.6629174 -0.71146148
-2.79721 -3.6324654 -0.70872593
-2.8109493 -3.604337 -0.70647311
-2.8128273 -3.5614603 -0.70116293
-2.8259976 -3.5333426 -0.69891012
-2.8395503 -3.5059648 -0.69681823
-2.8315959 -3.4526052 -0.68925524
-2.8508358 -3.432888 -0.6887725
-2.8464408 -3.3851125 -0.68233591
-2.854363 -3.3525524 -0.67911762
-2.8845453 -3.3461895 -0.68153137
-2.9121611 -3.3366072 -0.68330139
-2.9195096 -3.3038828 -0.6800831
-2.9305151 -3.2756083 -0.67783028
-2.9585087 -3.2663441 -0.67976129
-2.9604864 -3.2284873 -0.67541659
-2.9694974 -3.1986871 -0.67284197
-2.9681165 -3.1581097 -0.66785359
-2.9813163 -3.1334023 -0.66640538
-2.9895322 -3.1036758 -0.6638307
-3.0043857 -3.0810339 -0.66286522
-3.0121412 -3.0513022 -0.6602906
-3.0133669 -3.0153081 -0.6562677
-3.0121593 -2.9773328 -0.65176213
-3.0077753 -2.9367282 -0.64661282
-3.0079799 -2.901087 -0.64258993
-3.0157206 -2.873044 -0.64033717
-3.0296991 -2.8511035 -0.63953257
-3.0420761 -2.8277557 -0.63840616
-3.0470119 -2.7976878 -0.6356706
-3.0524244 -2.7683291 -0.63309598
-3.0612671 -2.7423029 -0.6313259
-3.056602 -2.7044992 -0.62665939
-3.0775976 -2.6895905 -0.62762487
-3.0791013 -2.6577568 -0.62440658
-3.096102 -2.6394541 -0.62456751
-3.1009152 -2.6108708 -0.62215376
-3.1146002 -2.5899014 -0.62167102
-3.128145 -2.5688624 -0.62118828
-3.1354167 -2.5427809 -0.6194182
-3.1394053 -2.5142391 -0.61700451
-3.1539993 -2.4943163 -0.61684358
-3.1669111 -2.4730942 -0.61636084
-3.1804631 -2.4524102 -0.61603904
-3.1828876 -2.4232821 -0.61346436
-3.1842856 -2.3936236 -0.6107288
-3.1909878 -2.3681576 -0.60911965
-3.1982937 -2.3432829 -0.60767144
-3.2006168 -2.3149369 -0.60525769
-3.2099416 -2.2918134 -0.60429221
-3.214263 -2.2652507 -0.60236126
-3.2232409 -2.2421036 -0.60139579
-3.2247334 -2.2139034 -0.59898204
-3.2374399 -2.1935215 -0.5988211
-3.2434545 -2.1686776 -0.59737289
-3.2492864 -2.1438427 -0.59592468
-3.2508004 -2.1163254 -0.59367186
-3.2537603 -2.0899372 -0.59174085
-3.2681899 -2.0709898 -0.59206271
-3.2791622 -2.0498512 -0.59174085
-3.2857976 -2.0260653 -0.59061444
-3.2931082 -2.0027883 -0.58964896
-3.2757132 -1.9647731 -0.58401698
-3.2953522 -1.9491596 -0.58546519
-3.2859373 -1.9164698 -0.5814423
-3.30619 -1.9011925 -0.58305144
-3.3049152 -1.8735678 -0.58063775
-3.3129029 -1.8513278 -0.57999408
-3.3146911 -1.8257265 -0.578224
-3.3197596 -1.8020569 -0.57709759
-3.3290138 -1.7807221 -0.57677579
-3.3390043 -1.7598019 -0.57661486
-3.3339734 -1.7310928 -0.57371843
-3.3480473 -1.7124014 -0.57436204
-3.3637795 -1.6944907 -0.57532758
-3.3732295 -1.6733803 -0.57516664
-3.3710186 -1.6465853 -0.57291383
-3.3819478 -1.626298 -0.57307476
-3.3775904 -1.5987585 -0.57050014
-3.3882313 -1.5784208 -0.57066101
-3.3817039 -1.5501964 -0.56776458
-3.3929513 -1.5302292 -0.56808639
-0.28180838 -0.12462532 -0.011482006
-3.4024284 -1.4845294 -0.56647724
-3.4060314 -1.4612892 -0.56551176
-0.26223028 -0.11020916 -0.0076200501
-0.26654831 -0.11011037 -0.00826371
-0.25259513 -0.10251322 -0.0056890724
-0.26421446 -0.10536369 -0.0076200501
-0.26485598 -0.10374051 -0.0076200501
-0.26548752 -0.10211343 -0.0076200501
-0 -0 -0
-0 -0 -0
-0 -0 -0
-0 -0 -0
-0 -0 -0
-0 -0 -0
-0 -0 -0
-0 -0 -0
-0 -0 -0
-0 -0 -0
-0 -0 -0
-0 -0 -0
-0 -0 -0
-0 -0 -0
-0 -0 -0
-0 -0 -0
-0 -0 -0
-0 -0 -0
-0 -0 -0
-0 -0 -0
-0 -0 -0
-0 -0 -0
-0 -0 -0
-0 -0 -0
-0 -0 -0
-0 -0 -0
-0 -0 -0
-0 -0 -0
-0 -0 -0
-0 -0 -0
-0 -0 -0
-0 -0 -0
-0 -0 -0
-0 -0 -0
-0 -0 -0
-0 -0 -0
-0 -0 -0
-0 -0 -0
-0 -0 -0
-0 -0 -0
-0 -0 -0
-0 -0 -0
-0 -0 -0
-0 -0 -0
-0 -0 -0
-0 -0 -0
-0 -0 -0
-0 -0 -0
-0 -0 -0
-0 -0 -0
-0 -0 -0
-0 -0 -0
-0 -0 -0
-0 -0 -0
-0 -0 -0
-0.27137715 0.018947367 -0.0088233128
-0.27125579 0.020612149 -0.0088233128
-0 0 -0
-0 0 -0
-0 0 -0
-0.26479101 0.026645398 -0.0077855494
-0.26462254 0.028269622 -0.0077855494
-0 0 -0
-0 0 -0
-0 0 -0
-0 0 -0
-0 0 -0
-0.28386122 0.041032977 -0.011417722
-0 0 -0
-0 0 -0
-0.27722955 0.045274254 -0.010379958
-0.27500579 0.046636958 -0.010034037
-0.27471447 0.048323486 -0.010034037
-0 0 -0
-0 0 -0
-0.27571031 0.053756911 -0.010379958
-0 0 -0
-0 0 -0
-0 0 -0
-0.2570115 0.056616191 -0.0072666677
-0.26049757 0.059080306 -0.00795851
-0.26204655 0.061133441 -0.0083044311
-0 0 -0
-0.25936595 0.063865207 -0.00795851
-0 0 -0
-0.25475347 0.066037707 -0.0072666677
-0.25149122 0.066827953 -0.0067477855
-0 0 -0
-0 0 -0
-0 0 -0
-0.2582728 0.075503968 -0.0083044311
-0.26251671 0.078518577 -0.009169234
-0.26391125 0.080711946 -0.0095151551
-0.26434988 0.082627557 -0.0096881157
-0.26664886 0.085158691 -0.010206997
-0.26705641 0.087102517 -0.010379958
-0.26651692 0.088739507 -0.010379958
-0.2650362 0.090052396 -0.010206997
-0.26262015 0.091024011 -0.0098610763
-0.26391116 0.093298018 -0.010206997
-0.26425889 0.09525343 -0.010379958
-0.26366946 0.096873097 -0.010379958
-0.26307008 0.098489121 -0.010379958
-0.26246083 0.10010143 -0.010379958
-0.26275828 0.10207042 -0.010552919
-0.26121265 0.1033147 -0.010379958
-0.2596617 0.10454386 -0.010206997
-0.26083496 0.10688965 -0.010552919
-0.26198918 0.10925375 -0.010898841
-0.26674458 0.11318957 -0.011936604
-0.26604503 0.11482415 -0.011936604
-0.26803634 0.11765281 -0.012455486
-0.27090064 0.12091517 -0.013147328
-0.27194425 0.12339608 -0.013493249
-0.27118197 0.12506238 -0.013493249
-0.27129972 0.12714541 -0.01366621
-0.27051446 0.12880768 -0.01366621
-0.27060398 0.13089743 -0.01383917
-0.26803112 0.13167985 -0.013493249
-0.26545891 0.13243566 -0.013147328
-0.26376444 0.13361344 -0.012974367
-0.26119146 0.13432151 -0.012628446
-0.25949106 0.13546234 -0.012455486
-0.25691807 0.13612278 -0.012109565
-0.25780919 0.1386365 -0.012455486
-0.25695369 0.14021578 -0.012455486
-0.25694826 0.1422703 -0.012628446
-0.25778404 0.1448158 -0.012974367
-0.25945202 0.14786792 -0.013493249
-0.25853983 0.1494571 -0.013493249
-0.25846562 0.15154213 -0.01366621
-0.25584167 0.15211186 -0.013320289
-0.25406203 0.15316696 -0.013147328
-0.2522791 0.15420599 -0.012974367
-0.25132817 0.15575103 -0.012974367
-0.24870391 0.15623574 -0.012628446
-0.25188395 0.16042051 -0.013493249
-0.25254568 0.16303784 -0.01383917
-0.25236261 0.16512683 -0.014012131
-0.2546196 0.16886219 -0.014703974
-0.25520942 0.17152636 -0.015049895
-0.25415215 0.17308907 -0.015049895
-0.25551087 0.1763327 -0.015568777
-0.25200894 0.17619488 -0.015049895
-0.25332776 0.17945492 -0.015568777
-0.25381792 0.18216047 -0.015914697
-0.2511065 0.18255013 -0.015568777
-0.25235432 0.1858485 -0.016087659
-0.25042194 0.18680157 -0.015914697
-0.24770381 0.18714125 -0.015568777
-0.24655086 0.18865761 -0.015568777
-0.24538864 0.19016688 -0.015568777
-0.24421717 0.19166897 -0.015568777
-0.24534275 0.19501103 -0.016087659
-0.24414156 0.19651276 -0.016087659
-0.24445345 0.19925731 -0.01643358
-0.24171166 0.19949394 -0.016087659
-0.24048305 0.2009733 -0.016087659
-0.23849587 0.20180608 -0.015914697
-0 0 -0
-0.24045101 0.2086066 -0.016952462
-0.24432974 0.214647 -0.018163186
-0 0 -0
-0 0 -0
-0 0 -0
-0 0 -0
-0 0 -0
-0 0 -0
-0 0 -0
-0 0 -0
-0 0 -0
-0 0 -0
-0 0 -0
-0 0 -0
-0 0 -0
-0 0 -0
-0 0 -0
-0 0 -0
-0 0 -0
-0 0 -0
-0 0 -0
-0 0 -0
-0 0 -0
-0 0 -0
-0 0 -0
-0 0 -0
-0 0 -0
-0 0 -0
-0 0 -0
-0 0 -0
-0 0 -0
-2.8131731 3.6056056 -0.76414227
-2.7909966 3.6227989 -0.76414227
-2.769311 3.64064 -0.76431525
-2.7486942 3.6599269 -0.76483417
-2.7467105 3.7044199 -0.77088773
-2.7099714 3.702126 -0.76673669
-2.6854746 3.716289 -0.76621783
-2.6580472 3.7262809 -0.76483417
-2.6419351 3.7521858 -0.76690966
-2.602006 3.7440579 -0.76172084
-2.578984 3.759953 -0.76172084
-2.5823565 3.8148634 -0.77002293
-2.5742133 3.8535726 -0.77486587
-2.5694847 3.898082 -0.78091949
-2.5422974 3.9088199 -0.77988172
-2.5198605 3.9268329 -0.78040057
-2.4899256 3.9330649 -0.77849805
-2.4793053 3.9699926 -0.78299499
-2.4254658 3.9373238 -0.77313626
-2.4119968 3.9698114 -0.77676845
-2.4012563 4.0073509 -0.78143835
-2.3931503 4.0499959 -0.78714603
-2.3682549 4.0646038 -0.78714603
-2.3437607 4.0799131 -0.787319
-2.3094649 4.0779314 -0.78403276
-2.2843997 4.0920253 -0.78403276
-2.2606723 4.1085539 -0.78455162
-2.2523148 4.1535215 -0.79077822
-2.2193632 4.1533628 -0.78801084
-2.2002578 4.1791048 -0.79043233
-2.1605222 4.1654196 -0.78507054
-2.1425374 4.1935101 -0.78801084
-2.1118987 4.1968985 -0.78610831
-2.0904782 4.2186041 -0.78783792
-2.0662806 4.2348928 -0.78852975
-2.0372734 4.2412758 -0.787319
-2.0019538 4.2341051 -0.7835139
-1.978428 4.2516675 -0.78455162
-1.9613191 4.2834306 -0.78835678
-1.9366168 4.2989769 -0.78904861
-1.9161843 4.3242874 -0.79164302
-1.8817495 4.3179035 -0.78818381
-1.8548323 4.3284631 -0.78801084
-1.8301492 4.3443012 -0.78887564
-1.807601 4.3654604 -0.79077822
-1.7741032 4.3600464 -0.78766495
-1.7381825 4.3479838 -0.78334093
-1.7107515 4.3567333 -0.78299499
-1.6850493 4.3699055 -0.7835139
-1.656462 4.3755565 -0.7826491
-1.6343824 4.3985648 -0.78507054
-1.6225344 4.4501543 -0.79285377
-1.5985129 4.4693012 -0.79458338
-1.5769236 4.4957561 -0.79769665
-1.5601906 4.5370173 -0.8035773
-1.5184916 4.5054345 -0.79596704
-1.4923613 4.5193439 -0.79683185
-1.4546086 4.497488 -0.79112417
-1.4281735 4.5100846 -0.791816
-1.3987253 4.5131178 -0.79077822
-1.3658669 4.5046477 -0.78766495
-1.3256115 4.470448 -0.77988172
-1.3151425 4.5371532 -0.79060525
-1.2757474 4.504385 -0.78316796
-1.2562176 4.5415578 -0.78852975
-1.229097 4.5520334 -0.78904861
-1.2074099 4.5833015 -0.79337263
-1.1728991 4.5658193 -0.78887564
-1.1441449 4.5700636 -0.78835678
-1.1221424 4.6018786 -0.79285377
-1.0895675 4.5904684 -0.78956753
-1.0576178 4.5807524 -0.78662717
-1.0297062 4.5881166 -0.78680015
-1.0036302 4.603972 -0.78852975
-0.98228532 4.6428075 -0.79441041
-0.9436956 4.5995383 -0.7855894
-0.91756535 4.615869 -0.78749198
-0.88049018 4.5759525 -0.77936286
-0.85455513 4.5928888 -0.78143835
-0.82531375 4.5922294 -0.78040057
-0.79628068 4.5923543 -0.77953577
-0.77084267 4.6136694 -0.78247613
-0.7404899 4.6056705 -0.78022766
-0.71641982 4.637383 -0.78507054
-0.68362719 4.6124616 -0.77988172
-0.65324014 4.6019416 -0.7772873
-0.62366891 4.5961032 -0.7755577
-0.59810621 4.6203566 -0.77918988
-0.56289339 4.5682182 -0.7693311
-0.54067707 4.6214786 -0.77815211
-0.50906408 4.5953398 -0.77296329
-0.4812668 4.6022954 -0.77365512
-0.452153 4.5963397 -0.77209848
-0.42015517 4.5578341 -0.76483417
-0.39310646 4.5711212 -0.76673669
-0.36622295 4.5881743 -0.7693311
-0.33683798 4.5736365 -0.7663908
-0.30942896 4.5854445 -0.76812041
-0.28278819 4.611834 -0.77244443
-0.25259522 4.5790615 -0.7663908
-0.22377442 4.5657687 -0.76379639
-0.19663563 4.5877209 -0.76742858
-0.16794389 4.5740767 -0.76483417
-0.14044182 4.5937262 -0.76812041
-0.11144319 4.5610237 -0.76223975
-0.083472937 4.5626063 -0.76241267
-0.055381972 4.5551538 -0.76102901
-0.027504846 4.568212 -0.76327747
0.00052715384 4.5722342 -0.76396936
0.028498532 4.559341 -0.76172084
0.056324165 4.5472622 -0.75964534
0.084261574 4.5488005 -0.75999123
0.11195007 4.5393362 -0.75843459
0.13958676 4.531673 -0.75722384
0.16735335 4.5297465 -0.75705093
0.1948456 4.5217466 -0.75584018
0.22278163 4.5244007 -0.75653201
0.25037444 4.5199986 -0.75601315
0.27822545 4.5203433 -0.75635904
0.30642405 4.5254297 -0.75756979
0.33404016 4.5214996 -0.75722384
0.36193496 4.5213284 -0.75756979
0.39034945 4.5268726 -0.75895345
0.41675517 4.5096817 -0.75635904
0.44538724 4.5168409 -0.75808865
0.47113827 4.4954119 -0.75480241
0.49718779 4.4787321 -0.75238097
0.52155632 4.4491854 -0.74771106
0.54618579 4.424397 -0.7439059
0.57421154 4.4277997 -0.74511665
0.60495794 4.4505429 -0.74978656
0.63197672 4.4447966 -0.74944067
0.66184545 4.4583712 -0.75255394
0.68888736 4.4522796 -0.75220799
0.71729082 4.4547753 -0.75341874
0.74363458 4.4444623 -0.75238097
0.77207249 4.4466081 -0.75359172
0.79584789 4.422401 -0.7501325
0.82043928 4.4038792 -0.74771106
0.84408718 4.3813543 -0.74459773
0.87230229 4.3828545 -0.74580848
0.89342409 4.3494425 -0.74079263
0.91662103 4.3274989 -0.73785228
0.95324904 4.36798 -0.74615437
0.98997569 4.406251 -0.75411057
1.0094436 4.3674684 -0.74822992
1.0309806 4.3391538 -0.74425185
1.0496362 4.3002157 -0.73837119
1.069531 4.2679005 -0.73370123
1.0858771 4.2231045 -0.7267828
1.1095066 4.2077913 -0.72522616
1.1288738 4.1771355 -0.72090214
1.1486961 4.1492491 -0.71709698
1.1684875 4.1222243 -0.71346486
1.1866176 4.090385 -0.70896786
1.2058035 4.0632 -0.70533568
1.2269907 4.0434732 -0.70308721
1.2482735 4.024581 -0.70101166
1.2693708 4.0055799 -0.69893616
1.2893713 3.9836612 -0.69634175
1.3097694 3.9635184 -0.69409323
1.329654 3.9423425 -0.69167179
1.3512527 3.9266598 -0.69028813
1.3723826 3.9099314 -0.68873149
1.3956833 3.8995826 -0.68838555
1.4239763 3.9029727 -0.69063401
1.4499588 3.8997004 -0.69167179
1.4717646 3.8852046 -0.69063401
1.4966406 3.8788571 -0.69115293
1.5189707 3.8659346 -0.6904611
1.5397346 3.8492265 -0.68907738
1.5644391 3.8424428 -0.6895963
1.5887409 3.8345909 -0.68994218
1.613771 3.8284004 -0.69063401
1.6368427 3.8175211 -0.6904611
1.6606297 3.8083086 -0.69063401
1.6851642 3.8007483 -0.69115293
1.7096684 3.7930303 -0.69167179
1.7353728 3.7878404 -0.69270957
1.7619096 3.7842631 -0.69409323
1.7888892 3.7813931 -0.69564992
1.8188881 3.7845471 -0.69841725
1.8489927 3.7874749 -0.70118463
1.8774505 3.7866459 -0.70326018
1.9033085 3.7803326 -0.7042979
1.9296082 3.7747209 -0.70550865
1.9581802 3.773299 -0.7075842
1.9900222 3.7777674 -0.71087044
2.0173461 3.7733018 -0.71242708
2.0451601 3.7695086 -0.71415669
2.0696766 3.7594767 -0.71467555
2.0927052 3.7467067 -0.71467555
2.1273141 3.7543585 -0.71882659
2.1616042 3.7608724 -0.72280473
2.1881137 3.7534935 -0.72401541
2.221133 3.7569511 -0.72747463
2.2583301 3.7669008 -0.73231757
2.2839601 3.7571805 -0.73318237
2.3193786 3.7632158 -0.73733342
2.3486912 3.7589352 -0.73940891
2.3870013 3.768579 -0.74442476
2.4201944 3.7696064 -0.74771106
2.4336052 3.7398283 -0.74459773
2.4331806 3.6894763 -0.73716044
2.4283979 3.6335402 -0.72851241
2.420259 3.5737267 -0.71899956
2.4800518 3.614022 -0.73076087
2.4594319 3.5372891 -0.7176159
2.5531535 3.6243734 -0.73958188
2.5948043 3.6358922 -0.74546254
2.6147559 3.6167102 -0.74477071
2.6223445 3.5807364 -0.74044669
2.6407442 3.5598333 -0.73940891
2.6660883 3.5482867 -0.74044669
2.6872132 3.5310774 -0.74027371
2.6883788 3.4880044 -0.73439306
2.6909366 3.4473798 -0.72903126
2.7132607 3.4323485 -0.72937721
2.7355015 3.4171731 -0.72972316
2.742768 3.3834953 -0.72591799
2.7559757 3.3574686 -0.7238425
2.7903798 3.3571553 -0.7276476
2.8299587 3.3625727 -0.73283643
2.8447866 3.3383996 -0.73127979
2.873584 3.3305738 -0.73352826
2.8693354 3.2846985 -0.72695577
2.9220712 3.303911 -0.73560381
2.9094276 3.2492399 -0.72695577
2.9372504 3.2400813 -0.72903126
2.9597406 3.2248995 -0.72972316
2.9761193 3.2030714 -0.72885835
3.0152929 3.2055497 -0.7338742
3.0342255 3.186275 -0.73370123
3.0557704 3.169724 -0.73422009
3.0875478 3.1635988 -0.73733342
3.1145179 3.1522994 -0.739236
3.1198673 3.119206 -0.73577678
3.1347418 3.0958526 -0.73473901
3.1494474 3.0724344 -0.73370123
3.1902318 3.0742326 -0.73906302
3.1954768 3.0417011 -0.73577678
3.2119269 3.0200133 -0.73525786
3.2513309 3.0196805 -0.74027371
3.2596347 2.990355 -0.73785228
3.2990925 2.9894719 -0.74286813
3.3298528 2.9803362 -0.74580848
3.3148632 2.9305015 -0.73802525
3.3379765 2.9146399 -0.739236
3.3408768 2.8812425 -0.73577678
3.3667426 2.8677123 -0.7376793
3.3978448 2.8584096 -0.74079263
3.4160774 2.8381362 -0.74096555
3.42505 2.8102522 -0.73906302
3.4705491 2.8121185 -0.74546254
3.4654319 2.7729311 -0.74044669
3.5310774 2.7900722 -0.75134319
3.5527906 2.7719874 -0.75238097
3.5541246 2.7381179 -0.74892175
3.5716424 2.7168548 -0.74909472
3.5677652 2.6795154 -0.74459773
3.6213312 2.6851356 -0.75272691
3.6011732 2.6361132 -0.74477071
3.6404355 2.6306906 -0.74978656
3.6565087 2.6083038 -0.74978656
3.6780825 2.5897865 -0.7509973
3.6882412 2.5632365 -0.74978656
3.691714 2.5322039 -0.74719214
3.7145238 2.5144715 -0.74874878
3.7429886 2.5003827 -0.75151616
3.7393432 2.4649062 -0.74753809
3.7709129 2.4526517 -0.7509973
3.7792585 2.4252138 -0.74961358
3.7874098 2.3977661 -0.74822992
3.8179259 2.3843906 -0.75151616
3.8190649 2.3526573 -0.74874878
3.8292193 2.3266237 -0.74788398
3.864548 2.3157353 -0.75220799
3.885469 2.2959859 -0.75359172
3.9088461 2.277554 -0.75549424
3.9218931 2.2530365 -0.75532132
3.9339294 2.2279594 -0.75497538
3.9423652 2.2009001 -0.7539376
3.9713302 2.1852114 -0.75705093
3.9837978 2.1603334 -0.75687796
3.9978471 2.1363127 -0.75705093
4.01088 2.111742 -0.75705093
3.997529 2.0734937 -0.75186211
4.0207028 2.0543013 -0.7539376
4.0305924 2.0282645 -0.75341874
4.0429616 2.003495 -0.75341874
4.0640316 1.9829669 -0.75514835
4.0770102 1.9584194 -0.75532132
4.1005268 1.9388366 -0.75756979
4.1016293 1.908656 -0.75549424
4.1240106 1.8883709 -0.75756979
4.1265388 1.8589877 -0.75584018
4.1306629 1.8304423 -0.75445652
4.1526527 1.8097818 -0.75653201
4.1528144 1.7796149 -0.75445652
4.1563935 1.751043 -0.7530728
4.1679697 1.7258835 -0.75324577
4.1803055 1.7010187 -0.75359172
4.1897497 1.6749715 -0.75341874
4.1916962 1.6459942 -0.75186211
4.200798 1.6198894 -0.75168914
4.195919 1.5885075 -0.74892175
4.2074332 1.5634176 -0.7492677
4.2317538 1.5429662 -0.75203508
4.2253747 1.5113367 -0.74909472
4.2327094 1.4847304 -0.74874878
4.263164 1.4660923 -0.75272691
4.2730126 1.4402208 -0.75289989
4.2752223 1.4118147 -0.75168914
4.2959881 1.3894931 -0.7539376
4.2931643 1.359542 -0.75186211
4.2938986 1.3308433 -0.75047839
4.3000984 1.3039002 -0.7501325
4.3070736 1.2772111 -0.74995953
4.3176675 1.2515812 -0.75047839
4.3404293 1.2293556 -0.75324577
4.3364987 1.1995519 -0.75117028
4.3523359 1.1752297 -0.75272691
4.3527975 1.1467475 -0.75151616
4.3549819 1.1187935 -0.75065136
4.3713198 1.0944403 -0.75238097
4.3923068 1.0710943 -0.75497538
4.3959212 1.0434418 -0.75445652
4.4079995 1.0177773 -0.75549424
4.4132004 0.99049574 -0.75532132
4.4201574 0.96360773 -0.75549424
4.4230957 0.93585712 -0.75497538
4.4181409 0.90652502 -0.7530728
4.4149256 0.87767261 -0.75151616
4.4357033 0.85354042 -0.75428355
4.4466672 0.82738692 -0.75532132
4.4439049 0.79869527 -0.7539376
4.4458103 0.77090889 -0.75341874
4.4057679 0.73616028 -0.74546254
4.452991 0.71598166 -0.7530728
4.4709282 0.69074702 -0.75549424
4.4672875 0.66214764 -0.75411057
4.4790678 0.63582987 -0.75549424
4.489717 0.6092602 -0.75670499
4.4914174 0.5814479 -0.75635904
4.5105414 0.55580139 -0.75912642
4.5021276 0.52674437 -0.75705093
4.52877 0.50170666 -0.76120198
4.5288243 0.47360262 -0.76068306
4.5012584 0.44282389 -0.75532132
4.517622 0.41645861 -0.75774276
4.5004654 0.38704833 -0.75428355
4.5214105 0.36091095 -0.75756979
4.52354 0.33316129 -0.75756979
4.514689 0.30467242 -0.75566721
4.5282707 0.27768546 -0.75774276
4.5348067 0.25016528 -0.75860757
4.5313373 0.22209571 -0.75774276
4.5572157 0.19533591 -0.76206678
4.5268316 0.16622129 -0.75653201
4.5346575 0.13865097 -0.75774276
4.5610237 0.11144319 -0.76223975
4.5498047 0.083242007 -0.7601642
4.5423508 0.055229593 -0.75878054
4.5396495 0.027340181 -0.75826162
4.5485959 -0.00051838683 -0.75981826
4.5445676 -0.028402403 -0.75912642
4.5561261 -0.056436233 -0.76120198
4.5665264 -0.084594473 -0.76310456
4.5708442 -0.11273524 -0.76396936
4.5612063 -0.14050409 -0.76241267
4.5533686 -0.16823216 -0.76120198
4.5424109 -0.19574139 -0.75947237
4.5352216 -0.22331725 -0.75843459
4.523932 -0.25059336 -0.75670499
4.5242753 -0.27846849 -0.75705093
4.5077419 -0.3052218 -0.75445652
4.5283756 -0.3345499 -0.75843459
4.5390005 -0.36335418 -0.76068306
4.5160789 -0.38941589 -0.75705093
4.5057588 -0.41639161 -0.75566721
4.5139003 -0.44509652 -0.75756979
4.5022688 -0.47185868 -0.75601315
4.5169086 -0.50143582 -0.75912642
4.496139 -0.52707291 -0.75601315
4.5162802 -0.55755305 -0.7601642
4.5166807 -0.58576161 -0.76085603
4.5169053 -0.61399609 -0.76154786
4.5130529 -0.64169973 -0.76154786
4.507082 -0.6690895 -0.76120198
4.4824524 -0.69356382 -0.75756979
4.4956145 -0.72387743 -0.76068306
4.4813747 -0.74982053 -0.75895345
4.4504895 -0.77274746 -0.75428355
4.4524493 -0.80126351 -0.75549424
4.454227 -0.82983261 -0.75670499
4.4451828 -0.85640132 -0.75601315
4.444674 -0.88462287 -0.75687796
4.4314446 -0.91029072 -0.75549424
4.4296298 -0.93828183 -0.75618613
4.4209023 -0.96481311 -0.75566721
4.416821 -0.99235338 -0.75601315
4.4164062 -1.020768 -0.75705093
4.4043107 -1.0464798 -0.75601315
4.4025908 -1.0746535 -0.75687796
4.3911371 -1.1004487 -0.75601315
4.3871636 -1.1281081 -0.75653201
4.3763499 -1.1540005 -0.75584018
4.3511229 -1.1759444 -0.75255394
4.3523679 -1.2049876 -0.75411057
4.3524723 -1.2338215 -0.75549424
4.3391447 -1.2588565 -0.75445652
4.3539982 -1.2921886 -0.75860757
4.3290243 -1.3137273 -0.75549424
4.3265257 -1.3420172 -0.75653201
4.3031883 -1.3637742 -0.75376469
4.2938027 -1.3898488 -0.75359172
4.2823887 -1.415241 -0.7530728
4.2885551 -1.4465312 -0.75584018
4.2833238 -1.4741009 -0.75653201
4.2714105 -1.4993758 -0.75601315
4.2612028 -1.5252243 -0.75584018
4.2406616 -1.5472878 -0.75376469
4.2467804 -1.5791185 -0.75670499
4.2416158 -1.6068925 -0.75756979
4.232595 -1.6332431 -0.75774276
4.2353268 -1.6642292 -0.7601642
4.206748 -1.6828642 -0.75670499
4.1972547 -1.7090162 -0.75687796
4.1830502 -1.7332289 -0.75618613
4.1696143 -1.7577145 -0.75566721
4.1768527 -1.7910335 -0.75912642
4.1865473 -1.8256891 -0.76310456
4.1608615 -1.8449514 -0.76033717
4.1413827 -1.8668023 -0.75878054
4.1226878 -1.8888943 -0.75739682
4.1422672 -1.9287142 -0.76345044
4.1170015 -1.9477726 -0.76085603
4.096097 -1.9687284 -0.75912642
4.0688953 -1.9864749 -0.75618613
4.0681 -2.0170946 -0.75843459
4.041573 -2.0349274 -0.75566721
4.0439177 -2.0673132 -0.75860757
4.0154228 -2.0839167 -0.75549424
4.0382838 -2.127346 -0.76258564
3.973047 -2.1242075 -0.75220799
4.015336 -2.1786215 -0.76327747
3.9561701 -2.1780305 -0.75411057
3.94789 -2.2051473 -0.75514835
3.9694138 -2.2492468 -0.76223975
3.9529765 -2.2720873 -0.76172084
3.9364085 -2.2948108 -0.76120198
3.9425988 -2.3309562 -0.76535302
3.9028838 -2.3399036 -0.7601642
3.8951848 -2.367902 -0.76154786
3.884774 -2.3943429 -0.76241267
3.8658335 -2.4155235 -0.76154786
3.8517714 -2.4397256 -0.76172084
3.8491592 -2.4712989 -0.76431525
3.8306215 -2.4927206 -0.76362342
3.8037453 -2.5085835 -0.76120198
3.7923748 -2.5346131 -0.76206678
3.7628903 -2.5484421 -0.75912642
3.7520542 -2.5748279 -0.7601642
3.7329507 -2.5955517 -0.75947237
3.726615 -2.625217 -0.76154786
3.7296741 -2.6617701 -0.76569897
3.6829467 -2.6626689 -0.75912642
3.6697173 -2.6875455 -0.75981826
3.6405036 -2.7006197 -0.75705093
3.6199281 -2.7199471 -0.75618613
3.58358 -2.7271905 -0.75186211
3.5854976 -2.7635629 -0.75601315
3.5785644 -2.7933924 -0.75826162
3.5320017 -2.7920794 -0.75168914
3.5132658 -2.8124676 -0.75134319
3.4775841 -2.8190811 -0.74719214
3.4853382 -2.8609948 -0.75289989
3.4730189 -2.8867352 -0.75411057
3.476336 -2.9257543 -0.75895345
3.4838014 -2.9687562 -0.76483417
3.4319696 -2.9611142 -0.75705093
3.4144776 -2.9827647 -0.75722384
3.4020121 -3.0088811 -0.75860757
3.3805516 -3.02707 -0.75791574
3.4005799 -3.0828261 -0.76708263
3.3591106 -3.0829825 -0.76172084
3.3754773 -3.1363955 -0.7701959
3.328197 -3.130722 -0.76345044
3.3082116 -3.1504052 -0.76327747
3.2831476 -3.1651742 -0.76189381
3.2425239 -3.1646163 -0.75670499
3.2174416 -3.1789131 -0.75532132
3.2055337 -3.206259 -0.75722384
3.1844163 -3.2244656 -0.75687796
3.1487567 -3.2277246 -0.75289989
3.1370916 -3.255497 -0.75497538
3.1163783 -3.2739708 -0.75480241
3.1211872 -3.3195872 -0.76120198
3.094059 -3.3314574 -0.75947237
3.0502622 -3.324971 -0.75341874
3.0476546 -3.3633351 -0.75808865
3.0302436 -3.3856423 -0.75895345
3.0348468 -3.4329572 -0.76569897
3.0124302 -3.4500299 -0.76535302
2.9931338 -3.4706869 -0.76587188
2.9717815 -3.4889872 -0.76587188
2.9243298 -3.4762473 -0.75878054
2.8922484 -3.4812436 -0.75584018
2.8552196 -3.4798846 -0.75151616
2.8486905 -3.5157084 -0.75566721
2.8030739 -3.5031226 -0.74892175
2.8236456 -3.5735903 -0.76085603
2.8501191 -3.6529837 -0.77469289
2.8294537 -3.672744 -0.77521175
2.7794447 -3.6539693 -0.7672556
2.7516506 -3.6638653 -0.76569897
2.7261856 -3.6767237 -0.76483417
2.7000849 -3.6886125 -0.76379639
2.6756711 -3.7027152 -0.76327747
2.6574755 -3.7254789 -0.76466119
2.6368337 -3.7449367 -0.76535302
2.6121199 -3.7586186 -0.76483417
2.5750856 -3.7542663 -0.76051015
2.5393076 -3.7512333 -0.75653201
2.5353837 -3.7954137 -0.76258564
2.5662336 -3.8931472 -0.77988172
2.5519598 -3.9236841 -0.78299499
2.5044405 -3.9027898 -0.77538472
2.4867659 -3.928071 -0.77746028
2.4839988 -3.9775124 -0.78455162
2.4672921 -4.00526 -0.78714603
2.4089296 -3.9647601 -0.77573067
2.3688695 -3.9532719 -0.77036887
2.3455698 -3.9694285 -0.77071482
2.3147266 -3.9726813 -0.76846629
2.2957015 -3.9962051 -0.77036887
2.2696824 -4.0076447 -0.76985002
2.2604055 -4.0490193 -0.77538472
2.2250776 -4.0438256 -0.77157962
2.1908374 -4.0400839 -0.76812041
2.1794617 -4.0786457 -0.77313626
2.1374254 -4.0596914 -0.76673669
2.1129286 -4.0736046 -0.76690966
2.0905812 -4.0917554 -0.76794744
2.0694177 -4.1124253 -0.76950407
2.0354035 -4.1073933 -0.76604486
2.0002341 -4.0994434 -0.76206678
1.988256 -4.1391649 -0.76742858
1.9569302 -4.1388192 -0.76500708
1.9314981 -4.1507487 -0.76500708
1.9084522 -4.1678958 -0.76604486
1.8812252 -4.1759353 -0.76535302
1.8695247 -4.2189198 -0.77140665
1.8451757 -4.2339234 -0.77209848
1.8199376 -4.2469764 -0.77244443
1.785437 -4.2380924 -0.76863927
1.7556331 -4.2398672 -0.76690966
1.7447952 -4.2879677 -0.77400106
1.7228365 -4.3095684 -0.77607656
1.6992391 -4.3273935 -0.77746028
1.6276802 -4.2210174 -0.75549424
1.6237044 -4.2889619 -0.7663908
1.5977001 -4.2997675 -0.76656377
1.57095 -4.3085642 -0.7663908
1.5259213 -4.2661839 -0.75670499
1.4016587 -3.9956887 -0.70464385
0 -0 -0
1.3575493 -4.027523 -0.70741123
1.329108 -4.0245533 -0.70533568
1.312869 -4.0588746 -0.71017861
1.2846713 -4.0565243 -0.70827603
1.2690796 -4.0944376 -0.71381074
1.2576395 -4.1473932 -0.72211289
1.2427993 -4.1909175 -0.72868538
1.2430881 -4.2883401 -0.74511665
1.2513448 -4.4181428 -0.76742858
1.2247367 -4.4276361 -0.76777446
1.2034459 -4.4569392 -0.77175254
1.1755747 -4.4623346 -0.77140665
1.1498859 -4.4761419 -0.77261734
1.1212044 -4.4783359 -0.77175254
1.0932385 -4.4832172 -0.77140665
1.0704811 -4.5099664 -0.77503884
1.0374762 -4.4934163 -0.77088773
1.0109627 -4.5045028 -0.77175254
0.9795329 -4.4932981 -0.76863927
0.95153683 -4.4972968 -0.76829338
0.9223423 -4.4953313 -0.76690966
0.89704359 -4.5124993 -0.76898521
0.87138301 -4.5285578 -0.77088773
0.841061 -4.5202622 -0.76846629
0.81383127 -4.5282464 -0.76898521
0.7865352 -4.5360661 -0.76950407
0.76598066 -4.5845246 -0.7772873
0.73627514 -4.5794134 -0.7755577
0.70726168 -4.5780044 -0.77451992
0.67497772 -4.5540023 -0.76950407
0.65061474 -4.5834131 -0.77400106
0.61930662 -4.5638947 -0.76985002
0.59886342 -4.6262174 -0.78022766
0.56373483 -4.5750608 -0.77054185
0.53599477 -4.5813689 -0.77106071
0.50679195 -4.5747814 -0.7693311
0.47973397 -4.5876012 -0.77106071
0.44917154 -4.5659528 -0.76673669
0.41925356 -4.5480266 -0.76310456
0.39445269 -4.5868225 -0.76950407
0.36169213 -4.5312285 -0.7592994
0.33640543 -4.5677428 -0.76535302
0.30850407 -4.5716863 -0.76569897
0.27960649 -4.5597296 -0.76327747
0.25092125 -4.5485749 -0.76102901
0.2240622 -4.5716715 -0.76483417
0.19600673 -4.5729604 -0.76483417
0.1687693 -4.596715 -0.76881224
0.14065075 -4.6006174 -0.7693311
0.11272872 -4.6141944 -0.77157962
0.084023625 -4.5931344 -0.76777446
0.055968039 -4.6043968 -0.76967704
0.027743327 -4.6095781 -0.77054185
-0.00053299853 -4.5879931 -0.76673669
-0.028703611 -4.5908585 -0.7672556
-0.05683469 -4.5876412 -0.76673669
-0.084834903 -4.5793281 -0.76535302
-0.11342227 -4.5984139 -0.76881224
-0.1410545 -4.5789266 -0.765526
-0.16900113 -4.574038 -0.76483417
-0.19672248 -4.565043 -0.76345044
-0.22419372 -4.5529289 -0.76154786
-0.25141427 -4.5386834 -0.7592994
-0.27919763 -4.5360723 -0.75912642
-0.30649084 -4.5264125 -0.75774276
-0.33549657 -4.5411444 -0.76068306
-0.36327535 -4.5380187 -0.76051015
-0.39094353 -4.5337415 -0.7601642
-0.41902733 -4.5341997 -0.76068306
-0.44606555 -4.5237021 -0.7592994
-0.47525489 -4.5345936 -0.76172084
-0.50078225 -4.5110354 -0.75808865
-0.52810729 -4.5049429 -0.75756979
-0.55561823 -4.5006404 -0.75739682
-0.585127 -4.511797 -0.75999123
-0.61160362 -4.4993386 -0.75843459
-0.63864392 -4.491601 -0.75774276
-0.6653226 -4.4817524 -0.75670499
-0.69627923 -4.4999719 -0.76068306
-0.72105461 -4.4781122 -0.75756979
-0.75030887 -4.4842887 -0.75947237
-0.77240998 -4.4485488 -0.7539376
-0.80073941 -4.4495416 -0.75497538
-0.82712299 -4.4397035 -0.75411057
-0.85285634 -4.4268079 -0.75272691
-0.88289028 -4.4359808 -0.75532132
-0.908108 -4.4208326 -0.75359172
-0.93644273 -4.420958 -0.75462943
-0.96250027 -4.4103179 -0.75376469
-0.99235338 -4.416821 -0.75601315
-1.0192138 -4.4096894 -0.75584018
-1.0446564 -4.3966451 -0.75462943
-1.0697436 -4.3824983 -0.75324577
-1.0939776 -4.3653436 -0.75134319
-1.1322821 -4.403379 -0.75947237
-1.1469619 -4.3496852 -0.7509973
-1.1738868 -4.3435168 -0.75117028
-1.1997268 -4.3333845 -0.75065136
-1.2287132 -4.3344693 -0.75220799
-1.2563845 -4.3306317 -0.75289989
-1.279287 -4.3105674 -0.75065136
-1.303422 -4.2950974 -0.7492677
-1.3329641 -4.2973657 -0.75117028
-1.3676456 -4.3153934 -0.75601315
-1.3877239 -4.2872438 -0.75238097
-1.4248294 -4.3113766 -0.75843459
-1.4553521 -4.3146844 -0.76068306
-1.4712142 -4.2749424 -0.75497538
-1.5091697 -4.2992878 -0.76120198
-1.5345247 -4.2871652 -0.76068306
-1.5523554 -4.2545395 -0.75635904
-1.5743093 -4.2338572 -0.75428355
-1.5964174 -4.2139874 -0.75238097
-1.635017 -4.2371893 -0.75860757
-1.6671127 -4.2426596 -0.76154786
-1.6945781 -4.2360077 -0.76223975
-1.7153345 -4.2127609 -0.75981826
-1.7419058 -4.2039762 -0.7601642
-1.7653711 -4.1877637 -0.75912642
-1.7887032 -4.171422 -0.75808865
-1.8036286 -4.1359949 -0.75341874
-1.8425546 -4.1554599 -0.7592994
-1.8744971 -4.1584411 -0.76206678
-1.911471 -4.1719298 -0.76690966
-1.9370335 -4.1601229 -0.76690966
-1.9692662 -4.1624022 -0.76967704
-2.0007458 -4.1626673 -0.77209848
-2.0063622 -4.1096039 -0.76414227
-2.0311029 -4.0963335 -0.76396936
-2.0663919 -4.1040244 -0.76794744
-2.083461 -4.0754848 -0.76483417
-2.1084285 -4.062624 -0.76483417
-2.1314795 -4.0461254 -0.76414227
-2.1455798 -4.0129962 -0.7601642
-2.1800313 -4.0179329 -0.76379639
-2.1960895 -3.9889524 -0.76068306
-2.2065887 -3.9504695 -0.75566721
-2.2327302 -3.9402828 -0.75635904
-2.2706141 -3.9504151 -0.76120198
-2.2933218 -3.9338562 -0.76068306
-2.326443 -3.9349694 -0.76379639
-2.3449702 -3.9113297 -0.76189381
-2.3684139 -3.8960261 -0.76172084
-2.3979619 -3.8906422 -0.76362342
-2.4243999 -3.8800311 -0.76448822
-2.4413073 -3.8542671 -0.76223975
-2.4686372 -3.8450158 -0.76345044
-2.5013192 -3.8438277 -0.7663908
-2.5281122 -3.8333402 -0.76742858
-2.5242105 -3.776819 -0.75878054
-2.5407071 -3.7514753 -0.75670499
-2.579288 -3.7585499 -0.76154786
-2.5961142 -3.7337592 -0.75964534
-2.5798228 -3.6622109 -0.74771106
-2.5982385 -3.6407015 -0.74650031
-2.6228375 -3.6278827 -0.74719214
-2.6240911 -3.5831199 -0.74096555
-2.6254818 -3.5392704 -0.73491198
-2.6459651 -3.5215197 -0.73456603
-2.6537995 -3.4871948 -0.73058796
-2.6697333 -3.4638262 -0.72903126
-2.684268 -3.4388411 -0.72712874
-2.6949308 -3.4091735 -0.72418839
-2.7133353 -3.3894985 -0.72349656
-2.7353227 -3.3743157 -0.7238425
-2.7397227 -3.3376794 -0.71934551
-2.7588911 -3.3192914 -0.71899956
-2.7722275 -3.2940133 -0.71709698
-2.792387 -3.2769411 -0.71709698
-2.8008566 -3.2463257 -0.71398371
-2.8148894 -3.2224045 -0.71242708
-2.8319979 -3.2021215 -0.71173525
-2.8338475 -3.1648777 -0.70706528
-2.8327005 -3.1248143 -0.70170349
-2.8484898 -3.1037469 -0.70083869
-2.8681509 -3.0869319 -0.70101166
-2.8370862 -3.0161996 -0.68821257
-2.86709 -3.0108573 -0.69115293
-2.867732 -2.974777 -0.68665594
-2.8893716 -2.9606485 -0.68752074
-2.8728621 -2.9078412 -0.6788727
-2.8760195 -2.8755388 -0.67524052
-2.8788888 -2.843308 -0.67160839
-2.8920498 -2.8214643 -0.67057061
-2.8972476 -2.7920506 -0.66763026
-2.9029074 -2.7633588 -0.66486293
-2.912631 -2.73875 -0.66313332
-2.9178312 -2.7101057 -0.66036594
-2.9285975 -2.686826 -0.65898222
-2.9435682 -2.6674836 -0.65863633
-2.9525394 -2.6428053 -0.65690672
-2.9568906 -2.6142044 -0.65413934
-2.9469028 -2.5733454 -0.64808571
-2.9507003 -2.5449264 -0.64531833
-2.9647603 -2.5254965 -0.64497244
-2.977185 -2.5047221 -0.64428061
-2.9955287 -2.488924 -0.64497244
-2.9985585 -2.4605043 -0.64220506
-3.0028839 -2.4333811 -0.63978362
-3.0039127 -2.403837 -0.63667035
-3.0178328 -2.3847497 -0.63649738
-3.0285251 -2.3631594 -0.63563257
-3.040627 -2.3427296 -0.63511366
-3.0596488 -2.327605 -0.63615143
-3.0675716 -2.3040574 -0.63476777
-3.0721555 -2.2781546 -0.63269222
-3.0924354 -2.2639139 -0.63407594
-3.0775237 -2.2241361 -0.62784934
-3.0822911 -2.1989214 -0.62594676
-3.0836432 -2.1714652 -0.62335235
-3.0961001 -2.1519415 -0.62317938
-3.1043718 -2.1295621 -0.62214166
-3.1084065 -2.104403 -0.62023908
-3.1253562 -2.0880251 -0.62110388
-3.1183696 -2.0558045 -0.61695284
-3.1375315 -2.0409262 -0.6183365
-3.1408756 -2.0157871 -0.61643392
-3.1523526 -1.9959506 -0.61626095
-3.1603625 -1.973963 -0.6153962
-3.1573181 -1.9452395 -0.61228287
-3.1691945 -1.92583 -0.61228287
-3.1792617 -1.9053358 -0.61193699
-3.1849561 -1.8822864 -0.61072624
-3.1887853 -1.8582478 -0.6091696
-3.1958566 -1.8361948 -0.6083048
-3.2010629 -1.8131547 -0.60709405
-3.2095478 -1.7920396 -0.60657519
-3.2118526 -1.7675664 -0.60484558
-3.2148442 -1.743602 -0.60328895
-3.2159255 -1.7187396 -0.60138637
-3.2203095 -1.6957643 -0.60017562
-3.2236586 -1.6723467 -0.59879196
-3.2312276 -1.6511916 -0.5982731
-3.2360187 -1.628679 -0.59723532
-3.2406554 -1.6061699 -0.59619755
-3.2460232 -1.584097 -0.59533274
-3.2583456 -1.5654286 -0.5958516
-3.2589846 -1.5411985 -0.59412199
-3.271059 -1.5224187 -0.59464091
-3.2713826 -1.4982209 -0.5929113
-3.2751253 -1.4756941 -0.59187353
-3.2724109 -1.450386 -0.58962506
-3.2803454 -1.4298863 -0.58945209
-3.2854357 -1.4081807 -0.58876026
-3.2994609 -1.3902881 -0.58979797
-3.3088396 -1.3703934 -0.58997095
-3.3180983 -1.350436 -0.59014392
-3.3254073 -1.3296857 -0.58997095
-3.3335035 -1.3092563 -0.58997095
-0.24239433 -0.094650909 -0.0067477855
-0.26784343 -0.1025709 -0.011417722
-0.27123776 -0.10195398 -0.011936604
-0.27370909 -0.10096209 -0.012282525
-0.27525091 -0.099612206 -0.012455486
-0.27678645 -0.098247193 -0.012628446
-0 -0 -0
-0.27610439 -0.094214521 -0.012282525
-0.27012995 -0.090358354 -0.011071801
-0.27349094 -0.089607753 -0.011590683
-0.27497464 -0.088225067 -0.011763643
-0.27833337 -0.087410204 -0.012282525
-0.28169236 -0.086557418 -0.012801407
-0.28410688 -0.085386902 -0.013147328
-0.28273332 -0.083094105 -0.012801407
-0.28229013 -0.081089556 -0.012628446
-0.2808837 -0.078831248 -0.012282525
-0.27946022 -0.076593272 -0.011936604
-0.27516246 -0.073623739 -0.011071801
-0 -0 -0
-0.2731787 -0.069524638 -0.010552919
-0.27264321 -0.067614041 -0.010379958
-0.2768864 -0.06684874 -0.011071801
-0.27825108 -0.065369874 -0.011244762
-0.27960804 -0.06387677 -0.011417722
-0.27806994 -0.061740842 -0.011071801
-0.27747989 -0.059829842 -0.010898841
-0.27494714 -0.057532985 -0.010379958
-0.27239677 -0.055269483 -0.0098610763
-0 -0 -0
-0.27305448 -0.051922593 -0.0098610763
-0.27530682 -0.05059414 -0.010206997
-0.27949405 -0.049576037 -0.010898841
-0.27882147 -0.047698092 -0.01072588
-0.27716392 -0.045674171 -0.010379958
-0 -0 -0
-0.27867788 -0.042413663 -0.010552919
-0.27893287 -0.040702928 -0.010552919
-0.27820137 -0.038858473 -0.010379958
-0.27941138 -0.037276927 -0.010552919
-0 -0 -0
-0 -0 -0
-0 -0 -0
-0.27142552 -0.029488903 -0.0089962734
-0 -0 -0
-0.27372855 -0.026336193 -0.0093421945
-0.27584764 -0.024824411 -0.0096881157
-0 -0 -0
-0.28006065 -0.021725833 -0.010379958
-0.28411952 -0.020271257 -0.011071801
-0 -0 -0
-0 -0 -0
-0 -0 -0
-0 -0 -0
-0.27673343 -0.011259307 -0.0096881157
-0 -0 -0
-0.27488148 -0.0078149019 -0.0093421945
-0 -0 -0
-0.2749567 -0.0044410946 -0.0093421945
-0.27202404 -0.0027368742 -0.0088233128
-0 0 -0
-0 0 -0
-0.27793741 0.0023453736 -0.0098610763
-0 0 -0
-0.28281084 0.0058785994 -0.01072588
-0.28473833 0.0076749385 -0.011071801
-0.28665438 0.0094951512 -0.011417722
-0.28560671 0.011211194 -0.011244762
-0.2835651 0.012866047 -0.010898841
-0 0 -0
-0.28240281 0.016284097 -0.01072588
-0 0 -0
-0 -0 -0
-0 -0 -0
-0 -0 -0
-0 -0 -0
-0 -0 -0
-0 0 -0
-0 0 -0
-0 0 -0
-0 0 -0
-0 0 -0
-0 0 -0
-0 0 -0
-0 0 -0
-0 0 -0
-0 0 -0
-0 0 -0
-0 0 -0
-0 0 -0
-0 0 -0
-0 0 -0
-0 0 -0
-0 0 -0
-0 0 -0
-0 0 -0
-0 0 -0
-0 0 -0
-0 0 -0
-0 0 -0
-0 0 -0
-0 0 -0
-0 0 -0
-0 0 -0
-0 0 -0
-0 0 -0
-0 0 -0
-0 0 -0
-0 0 -0
-0 0 -0
-0 0 -0
-0 0 -0
-0 0 -0
-0 0 -0
-0 0 -0
-0 0 -0
-0 0 -0
-0 0 -0
-0 0 -0
-0 0 -0
-0 0 -0
-0 0 -0
-0 0 -0
-0 0 -0
-0 0 -0
-0 0 -0
-0 0 -0
-0 0 -0
-0 0 -0
-0 0 -0
-0 0 -0
-0 0 -0
-0 0 -0
-0 0 -0
-0 0 -0
-0 0 -0
-0 0 -0
-0 0 -0
-0 0 -0
-0 0 -0
-0 0 -0
-0 0 -0
-0 0 -0
-0 0 -0
-0 0 -0
-0 0 -0
-0 0 -0
-0 0 -0
-0 0 -0
-0 0 -0
-0 0 -0
-0 0 -0
-0 0 -0
-0 0 -0
-0 0 -0
-0 0 -0
-0 0 -0
-0 0 -0
-0 0 -0
-0 0 -0
-0 0 -0
-0 0 -0
-0 0 -0
-0 0 -0
-0 0 -0
-0 0 -0
-0 0 -0
-0 0 -0
-0 0 -0
-0 0 -0
-0 0 -0
-0 0 -0
-0 0 -0
-0 0 -0
-0 0 -0
-0 0 -0
-0 0 -0
-0 0 -0
-0 0 -0
-0 0 -0
-0 0 -0
-0 0 -0
-0 0 -0
-0 0 -0
-0.24173374 0.18911874 -0.018406911
-0.25984773 0.20583308 -0.023014272
-0.25704506 0.20619538 -0.022645682
-0.24737519 0.20096186 -0.020618442
-0.27652988 0.22741503 -0.027990222
-0.26076585 0.21717308 -0.024488626
-0.26243678 0.22130004 -0.025225805
-0.26182219 0.22354351 -0.025410099
-0.26118991 0.22578774 -0.025594393
-0.2583189 0.22609314 -0.025225805
-0.24146348 0.21400246 -0.021355622
-0.27236873 0.24432322 -0.029464576
-0.25848332 0.2347697 -0.026331572
-0.23965621 0.22040416 -0.021908505
-0.26350451 0.24528186 -0.02835881
-0.26199454 0.24689408 -0.02835881
-0.26474601 0.25256309 -0.029464576
-0.28017646 0.27055171 -0.033887643
-0.27429003 0.26814756 -0.032781877
-0.26424804 0.26153746 -0.030570343
-0.25012758 0.25064483 -0.027253043
-0.24236807 0.24588206 -0.025594393
-0.26007569 0.26706052 -0.030754639
-0.27616754 0.28704953 -0.035546295
-0 0 -0
-0.24703516 0.2632111 -0.028543105
-0.27284408 0.29424441 -0.036099177
-0.27502084 0.30025792 -0.037204944
-0.24016814 0.26552898 -0.027990222
-0 0 -0
-0 0 -0
-0 0 -0
-0 0 -0
-0 0 -0
-0 0 -0
-0 0 -0
-0 0 -0
-0 0 -0
-0 0 -0
-0 0 -0
-0 0 -0
-0 0 -0
-0 0 -0
-0 0 -0
-0 0 -0
-2.5368891 3.4650137 -0.7660895
-2.5063672 3.4677701 -0.7631408
-0 0 -0
-2.4902256 3.5360324 -0.7718026
-2.4550166 3.5318775 -0.76737952
-2.4366357 3.5517373 -0.76848531
-2.4351881 3.5967331 -0.7753042
-2.4097962 3.6067042 -0.77419847
-2.3876207 3.6214225 -0.77419847
-2.3712516 3.6450667 -0.77622569
-2.3493721 3.6603749 -0.77640998
-2.341593 3.6979711 -0.7815702
-2.3183379 3.7114358 -0.7813859
-2.3017092 3.7356317 -0.78359747
-2.2823181 3.7555637 -0.78488749
-2.25721 3.766125 -0.78415036
-2.2230554 3.7612901 -0.78009588
-2.1895404 3.7570279 -0.77622569
-2.1708541 3.7780614 -0.7778843
-2.1548991 3.8041375 -0.78064877
-2.1535625 3.8567612 -0.78912628
-2.1227477 3.856987 -0.78636187
-2.0817003 3.8379741 -0.77954298
-2.0562582 3.8472078 -0.77880579
-2.029407 3.8536651 -0.77751577
-2.0043652 3.8634276 -0.77696288
-1.9765958 3.8677769 -0.7753042
-1.9515004 3.8771985 -0.77475131
-1.9385879 3.9111145 -0.77935869
-1.9171402 3.9282353 -0.78046447
-1.8840605 3.9213212 -0.77659428
-1.8578628 3.9283655 -0.77567279
-1.8312349 3.9343448 -0.77456701
-1.8082879 3.9481878 -0.7751199
-1.7799895 3.9502482 -0.77327698
-1.7565144 3.9628928 -0.77364558
-1.7388438 3.9889121 -0.77677858
-1.7220815 4.0175734 -0.78046447
-1.6985431 4.0307813 -0.78101736
-1.6711453 4.034771 -0.77972728
-1.6459864 4.0440388 -0.77954298
-1.629172 4.0741391 -0.78359747
-1.6037835 4.0831442 -0.78341317
-1.58153 4.1002436 -0.78488749
-1.5476376 4.0868921 -0.78028017
-1.528697 4.1128941 -0.78359747
-1.4842314 4.0695658 -0.77309269
-1.4549277 4.066566 -0.77069688
-1.4517566 4.1375532 -0.78304458
-1.4042755 4.0822554 -0.77032828
-1.3845404 4.1066275 -0.77346128
-1.3611668 4.120645 -0.77456701
-1.3525025 4.1803508 -0.78470325
-1.3185138 4.1623363 -0.77954298
-1.2906202 4.162838 -0.7780686
-1.2716168 4.1923108 -0.78230739
-1.2478266 4.2066302 -0.78359747
-1.2219917 4.2142076 -0.78359747
-1.1939666 4.2140613 -0.78212309
-1.170447 4.2298336 -0.78378177
-1.1424202 4.2293448 -0.78230739
-1.1182017 4.2429276 -0.78359747
-1.0926361 4.2516127 -0.78396606
-1.062706 4.2429829 -0.78101736
-1.0336221 4.2370105 -0.77862149
-1.0060148 4.2365789 -0.77733147
-0.98354137 4.2579942 -0.78028017
-0.94856441 4.2246308 -0.77272409
-0.93058658 4.2668624 -0.77972728
-0.90642434 4.2821074 -0.7815702
-0.87696922 4.2721839 -0.77862149
-0.85361624 4.291944 -0.7813859
-0.82577819 4.2893801 -0.77991158
-0.79872364 4.2905011 -0.77917439
-0.77151239 4.2904844 -0.7782529
-0.74416333 4.2893276 -0.77714717
-0.71637118 4.2850881 -0.7754885
-0.68990868 4.2884326 -0.7753042
-0.6617794 4.2809291 -0.77309269
-0.63622111 4.2897706 -0.77401417
-0.61113238 4.3023515 -0.77567279
-0.58300173 4.2933593 -0.77327698
-0.55740535 4.3027039 -0.77438271
-0.52979022 4.2962885 -0.77253979
-0.50284678 4.2945771 -0.77161831
-0.47616106 4.294651 -0.77106541
-0.4485718 4.2857618 -0.7688539
-0.42159158 4.2815866 -0.76756382
-0.39558354 4.2870288 -0.76811671
-0.37019968 4.3001471 -0.77014399
-0.34286693 4.2905807 -0.76793242
-0.31783661 4.3102474 -0.77124971
-0.29271048 4.3317289 -0.7749356
-0.26365227 4.293222 -0.76737952
-0.23725028 4.2937775 -0.76719522
-0.20998216 4.2765002 -0.76369363
-0.18348449 4.2718163 -0.7625879
-0.15748711 4.2787552 -0.76369363
-0.13104892 4.2737465 -0.7625879
-0.10475068 4.2715225 -0.76203501
-0.078593604 4.275033 -0.7625879
-0.052215509 4.2636409 -0.76037633
-0.026059411 4.264864 -0.76056063
0.00010953563 4.2688751 -0.76129782
0.026219329 4.255034 -0.75871772
0.052327234 4.2547932 -0.75871772
0.078433171 4.2543921 -0.75871772
0.1041753 4.2390919 -0.75595331
0.13045469 4.2472148 -0.75761193
0.15633209 4.2414231 -0.75669044
0.18222761 4.2374382 -0.75613761
0.20769481 4.2254419 -0.75411034
0.23296751 4.2123113 -0.75189883
0.25838792 4.2039351 -0.75060874
0.28351569 4.1924644 -0.74876583
0.30945155 4.1935863 -0.74931872
0.33658564 4.2092443 -0.75263602
0.36265954 4.2100377 -0.75318885
0.38803366 4.2028394 -0.75226742
0.41342941 4.1964669 -0.75153023
0.4389661 4.191896 -0.75116163
0.46348786 4.1783781 -0.74913442
0.48888865 4.1735029 -0.74876583
0.51556987 4.179204 -0.75042444
0.53943598 4.1623154 -0.74784434
0.56509751 4.1599011 -0.74802864
0.59475714 4.1855488 -0.75355744
0.61999553 4.1789041 -0.75300461
0.64532489 4.1730785 -0.75263602
0.66857713 4.1544843 -0.74987155
0.69275981 4.1425481 -0.74839723
0.71732509 4.1333776 -0.74747574
0.7421518 4.1259961 -0.74692285
0.7652964 4.1097693 -0.74471134
0.79309976 4.1185083 -0.74729145
0.81797218 4.1116366 -0.74692285
0.84397566 4.1103916 -0.74766004
0.86551768 4.0878272 -0.74434274
0.892259 4.0901222 -0.74581712
0.91109544 4.0567589 -0.74047256
0 0 -0
0.95876616 4.0366664 -0.73881394
0.98281795 4.027843 -0.73826104
1.0168253 4.0589204 -0.74544853
1.0292366 4.0040555 -0.73604947
1.0665579 4.0461369 -0.74544853
1.0908519 4.0376186 -0.74507993
1.1114124 4.0156927 -0.74213123
1.1250479 3.9700258 -0.73457515
1.1633444 4.0111918 -0.74397415
1.1840221 3.9907858 -0.74139404
1.2073457 3.9796834 -0.74065685
1.2308688 3.969384 -0.74010396
1.253124 3.9551978 -0.73881394
1.2770665 3.9464991 -0.73862964
1.3043402 3.9479218 -0.74047256
1.324458 3.9277363 -0.73807675
1.3482136 3.918606 -0.73789245
1.3699547 3.9037678 -0.73660237
1.394213 3.8962138 -0.73678666
1.4184302 3.888509 -0.73697096
1.4415781 3.8778899 -0.73660237
1.4656934 3.8698909 -0.73678666
1.4890573 3.8599076 -0.73660237
1.5166655 3.8607616 -0.73862964
1.5414207 3.8541207 -0.73918247
1.5628172 3.839128 -0.73807675
1.590481 3.8394554 -0.74010396
1.6113381 3.8232837 -0.73881394
1.6316695 3.8060975 -0.73733956
1.6573489 3.8014202 -0.73844534
1.6754656 3.7794979 -0.73604947
1.7002397 3.7727308 -0.73678666
1.7254028 3.7666953 -0.73770815
1.7393587 3.7364335 -0.73365366
1.7702355 3.7425728 -0.73715526
1.7965711 3.7387278 -0.73862964
1.822064 3.7329338 -0.73973536
1.8418794 3.715519 -0.73844534
1.8748053 3.7243404 -0.74268407
1.8448489 3.6094902 -0.72093737
1.8628882 3.5902503 -0.71927869
1.8853405 3.5796218 -0.71946299
1.9179242 3.5879235 -0.72370178
1.9347489 3.5665841 -0.7216745
1.9608614 3.5623953 -0.72333318
1.9970572 3.5760419 -0.72886199
2.0097582 3.5474718 -0.72536039
2.0363836 3.5435956 -0.72720337
2.0600679 3.5344307 -0.72794056
2.0842161 3.5259545 -0.72886199
2.1133904 3.5257456 -0.73162645
2.141109 3.5227914 -0.73383796
2.1668086 3.5162818 -0.73531234
2.1867814 3.5004194 -0.73475945
2.2040122 3.4802923 -0.73328507
2.2210784 3.4600859 -0.73181075
2.2476265 3.4546316 -0.73365366
2.2595849 3.426825 -0.73052067
2.2871208 3.4227033 -0.73273218
2.3003652 3.3972108 -0.73015207
2.3128269 3.3708744 -0.72738767
2.3256133 3.3453207 -0.72480756
2.3438325 3.3277736 -0.72407037
2.371057 3.3229311 -0.72628188
2.3919771 3.3091166 -0.72646618
2.4110754 3.2927914 -0.72609758
2.4294777 3.2755668 -0.72554469
2.4636972 3.2794592 -0.72996777
2.4766321 3.2548935 -0.72775626
2.5013561 3.2458646 -0.72923058
2.5169928 3.2250314 -0.72794056
2.5422184 3.2164669 -0.72959918
2.5299728 3.1609027 -0.72001588
2.5641713 3.1636465 -0.72443897
2.5854053 3.1501329 -0.7249918
2.6009169 3.129674 -0.72388607
2.6238678 3.1181688 -0.7249918
2.6435883 3.1027586 -0.7251761
2.67028 3.0954108 -0.72738767
2.6834044 3.072305 -0.72572899
2.7028563 3.0565186 -0.72591329
2.7340147 3.053791 -0.72941488
2.7566612 3.0413277 -0.73052067
2.7653034 3.0134923 -0.72775626
2.7977886 3.0115912 -0.73162645
2.8317008 3.0108361 -0.73586518
2.8203034 2.9620817 -0.72775626
2.8643429 2.9716139 -0.73475945
2.8811498 2.9525757 -0.73439085
2.9081907 2.9439325 -0.73678666
2.9352341 2.9350681 -0.73918247
2.9580824 2.921838 -0.74047256
2.9661069 2.8940222 -0.73789245
2.9965456 2.8880463 -0.74120975
2.9665196 2.8241944 -0.72886199
3.004555 2.8254676 -0.73420656
3.0484774 2.8317316 -0.74102545
3.0549328 2.8030047 -0.73826104
3.0895514 2.8000495 -0.74268407
3.1000838 2.7751391 -0.74102545
3.1133721 2.7528095 -0.74010396
3.1427886 2.7446465 -0.74323696
3.1536167 2.7201748 -0.74176264
3.1493006 2.6829245 -0.73660237
3.1717196 2.6686132 -0.73807675
3.1782076 2.6409347 -0.73568088
3.2110662 2.6351025 -0.73973536
3.2195392 2.6091611 -0.73789245
3.2523692 2.60287 -0.74194694
3.2528572 2.5706749 -0.73826104
3.2770922 2.5573196 -0.74028826
3.2841585 2.5305638 -0.73826104
3.3113563 2.5192928 -0.74102545
3.3408966 2.5095541 -0.74434274
3.3601792 2.4919353 -0.74526423
3.3595462 2.459657 -0.74157834
3.3705926 2.4361176 -0.74065685
3.3822765 2.4131067 -0.73991966
3.3592529 2.365706 -0.73125786
3.3720913 2.3439274 -0.73088926
3.3977559 2.3309779 -0.73346937
3.4673347 2.3475614 -0.74600142
3.4424486 2.3000288 -0.73715526
3.4573171 2.2794042 -0.73733956
3.477005 2.2618997 -0.73862964
3.5114958 2.2537971 -0.74323696
3.5269196 2.2332602 -0.74360555
3.5322206 2.2063696 -0.74176264
