# .PCD v0.7 - Point Cloud Data file format
VERSION 0.7
FIELDS x y z
SIZE 4 4 4
TYPE F F F
COUNT 1 1 1
WIDTH 1612
HEIGHT 1
VIEWPOINT 0 0 0 1 0 0 0
POINTS 1612
DATA ascii
-0.61160362 -4.4993386 -0.75843459
-0.63808835 -4.4877005 -0.75705093
-0.66561234 -4.4837008 -0.75705093
-0.69386554 -4.4843988 -0.75791574
-0.72246605 -4.4868636 -0.75912642
-0.75063443 -4.4862318 -0.75981826
-0.78000349 -4.4922152 -0.76172084
-0.80475742 -4.4718356 -0.75895345
-0.83181965 -4.4648771 -0.75860757
-0.85864025 -4.4567881 -0.75808865
-0.88577789 -4.4504695 -0.75791574
-0.91485465 -4.4536333 -0.75947237
-0.94073403 -4.4411917 -0.75826162
-0.96712589 -4.4314871 -0.75756979
-0.99818957 -4.4427657 -0.76068306
-1.0192138 -4.4096894 -0.75584018
-1.0446564 -4.3966451 -0.75462943
-1.0713803 -4.3891959 -0.75445652
-1.0949363 -4.3691649 -0.75203508
-1.1244252 -4.3728561 -0.7539376
-1.1487216 -4.3563514 -0.75220799
-1.1684852 -4.3235507 -0.74753809
-1.2015681 -4.3400288 -0.75186211
-1.2273688 -4.3297319 -0.75134319
-1.2495177 -4.3069854 -0.74857587
-1.2753603 -4.2973495 -0.74822992
-1.3077159 -4.3092337 -0.75186211
-1.3358845 -4.3067722 -0.75289989
-1.3604983 -4.2928615 -0.75186211
-1.3901523 -4.2947397 -0.75376469
-1.4198805 -4.2964149 -0.75566721
-1.4433808 -4.2792234 -0.75411057
-1.4769877 -4.2917047 -0.75808865
-1.5176576 -4.3234482 -0.76569897
-1.5405035 -4.3038554 -0.76379639
-1.5645176 -4.2878456 -0.76258564
-1.5822102 -4.2550883 -0.75826162
-1.6156216 -4.2646399 -0.76189381
-1.6289853 -4.2215695 -0.75566721
-1.6498115 -4.1986623 -0.75324577
-1.6729805 -4.1820598 -0.75203508
-1.7160779 -4.2145848 -0.7601642
-1.7249293 -4.1630344 -0.75238097
-1.7665195 -4.1904864 -0.75964534
-1.7995781 -4.1967654 -0.76293159
-1.8166285 -4.1657848 -0.75912642
-1.8449514 -4.1608615 -0.76033717
-1.8935313 -4.2006383 -0.7701959
-1.9221437 -4.1952081 -0.77140665
-1.9362016 -4.1583371 -0.76656377
-1.9680018 -4.1597319 -0.76915812
-1.9875119 -4.1351514 -0.76673669
-2.0102532 -4.1175685 -0.76569897
-2.0280385 -4.0901575 -0.76275861
-2.0393591 -4.0503693 -0.75739682
-2.0830123 -4.0746078 -0.76466119
-2.098896 -4.0442681 -0.76120198
-2.1278052 -4.039155 -0.76275861
-2.1358228 -3.9947586 -0.75653201
-2.1588843 -3.9789813 -0.75601315
-2.1903868 -3.9786 -0.75860757
-2.2161992 -3.9676645 -0.75912642
-2.2502184 -3.9711275 -0.76258564
-2.2779796 -3.963222 -0.76379639
-2.3037434 -3.9517224 -0.76431525
-2.3174164 -3.9197106 -0.76068306
-2.3444636 -3.9104853 -0.76172084
-2.3714848 -3.9010751 -0.76275861
-2.3964107 -3.8881273 -0.76310456
-2.4176121 -3.8691742 -0.76223975
-2.4391985 -3.8509395 -0.76154786
-2.4638462 -3.8375578 -0.76189381
-2.493258 -3.8314469 -0.76379639
-2.5047863 -3.7979906 -0.75999123
-2.5296855 -3.7850063 -0.76051015
-2.5545199 -3.7718592 -0.76102901
-2.5698104 -3.7447467 -0.75860757
-2.5747399 -3.7030356 -0.7530728
-2.5917387 -3.679117 -0.75134319
-2.6211329 -3.6727638 -0.75341874
-2.6320739 -3.640651 -0.74995953
-2.6322412 -3.5942426 -0.74338704
-2.6331129 -3.549552 -0.73716044
-2.6447814 -3.5199451 -0.73422009
-2.6609595 -3.496598 -0.73266345
-2.6715376 -3.466166 -0.72955018
-2.6727493 -3.4240925 -0.7238425
-2.6979856 -3.4130359 -0.72505319
-2.7145669 -3.391036 -0.7238425
-2.7365637 -3.3758457 -0.72418839
-2.7566009 -3.3582299 -0.72401541
-2.7664485 -3.3283787 -0.72107512
-2.7658834 -3.2864792 -0.71536738
-2.7866359 -3.2701957 -0.71554035
-2.7957077 -3.2403612 -0.71260005
-2.8103521 -3.2172134 -0.71121633
-2.8176384 -3.1858943 -0.70793009
-2.8226748 -3.1524067 -0.70412499
-2.831377 -3.1233552 -0.7013576
-2.8584824 -3.1146288 -0.7034331
-2.8399854 -3.0566347 -0.69374734
-2.832361 -3.011179 -0.68700188
-2.8602958 -3.0037265 -0.68942332
-2.8684158 -2.975486 -0.68682891
-2.8645995 -2.9352796 -0.68129414
-2.8694 -2.9043391 -0.6780079
-2.8739293 -2.8734503 -0.67472166
-2.8858986 -2.8502269 -0.673338
-2.8828821 -2.8125257 -0.66832215
-2.8823502 -2.7777023 -0.66399813
-2.8793592 -2.7409556 -0.65915519
-2.8975587 -2.7245855 -0.65950114
-2.9098907 -2.7027347 -0.65846336
-2.9235158 -2.6821666 -0.65777153
-2.9428382 -2.6668224 -0.65846336
-2.9562099 -2.6460886 -0.65777153
-2.9443431 -2.6031177 -0.65119904
-2.9558074 -2.5811169 -0.65016127
-2.9715893 -2.5629318 -0.65016127
-2.9752598 -2.5344348 -0.64739388
-2.9719081 -2.5002851 -0.64306986
-2.9841626 -2.479486 -0.64237803
-2.9833269 -2.4480133 -0.63874584
-3.0097725 -2.4389598 -0.64134026
-3.0177581 -2.4149098 -0.63978362
-3.0417945 -2.4036729 -0.64185917
-3.0269718 -2.361948 -0.63528663
-3.0460896 -2.3469357 -0.63632441
-3.0463197 -2.3174715 -0.63321114
-3.0526052 -2.2928231 -0.63148153
-3.0658247 -2.2734632 -0.63130856
-3.0805118 -2.2551904 -0.63148153
-3.0871053 -2.2310562 -0.62992483
-3.0959246 -2.2086415 -0.62888712
-3.0941143 -2.178834 -0.62560087
-3.1009538 -2.1553128 -0.62421715
-3.109246 -2.1329036 -0.62317938
-3.110038 -2.1055069 -0.62058496
-3.1089733 -2.0770872 -0.61764467
-3.117547 -2.0552626 -0.61677986
-3.1317508 -2.0371685 -0.61712575
-3.1408756 -2.0157871 -0.61643392
-3.1382034 -1.986998 -0.61332065
-3.157856 -1.9723985 -0.61487728
-3.1799636 -1.9591815 -0.61695284
-3.1691945 -1.92583 -0.61228287
-3.1775715 -1.9043237 -0.61159104
-3.1824119 -1.8807839 -0.61020738
-3.1896365 -1.8587434 -0.60934258
-3.1975648 -1.8371756 -0.60865068
-3.2002058 -1.8126696 -0.60692108
-3.2095478 -1.7920396 -0.60657519
-3.2153049 -1.7694649 -0.60553741
-3.2269673 -1.7501721 -0.60571039
-3.2298265 -1.7261631 -0.60415375
-3.2307692 -1.7012678 -0.60225117
-3.2350261 -1.6782393 -0.60104042
-3.2321048 -1.6516395 -0.59844601
-3.2395384 -1.6304491 -0.59792715
-3.2644863 -1.6179717 -0.60086751
-3.2557614 -1.5888454 -0.59723532
-3.265449 -1.5688386 -0.59723532
-3.261656 -1.5424609 -0.59464091
-3.261235 -1.5178503 -0.59273833
-3.2633221 -1.4945326 -0.59135467
-3.2679403 -1.4724594 -0.59048986
-3.2688084 -1.4487909 -0.58893317
-3.2776365 -1.4287065 -0.58893317
-3.2845304 -1.407793 -0.58858728
-3.2822134 -1.3830272 -0.58651173
-3.2833569 -1.3598492 -0.58512807
-3.2816026 -1.3355964 -0.58322549
-3.305285 -1.3216473 -0.58616585
-3.315166 -1.3020611 -0.58651173
-0.27088529 -0.10562894 -0.012109565
-0.2715283 -0.10396484 -0.012109565
-0.27770114 -0.10435376 -0.013147328
-0.28111249 -0.10365931 -0.01366621
-0.28359821 -0.10259543 -0.014012131
-0.27864543 -0.098898739 -0.012974367
-0.28110996 -0.097827263 -0.013320289
-0.27797124 -0.094843201 -0.012628446
-0.27480662 -0.091901392 -0.011936604
-0.27536535 -0.090213478 -0.011936604
-0.27497464 -0.088225067 -0.011763643
-0.2736291 -0.085953511 -0.011417722
-0.27415136 -0.084272936 -0.011417722
-0 -0 -0
-0.26665035 -0.078436591 -0.0098610763
-0 -0 -0
-0.26379544 -0.074109115 -0.009169234
-0 -0 -0
-0.26563749 -0.071117029 -0.0093421945
-0.26893091 -0.070220232 -0.0098610763
-0.27031219 -0.068807751 -0.010034037
-0.27264321 -0.067614041 -0.010379958
-0.27592802 -0.06662152 -0.010898841
-0.27633163 -0.064927205 -0.010898841
-0 -0 -0
-0.27903232 -0.061950386 -0.011244762
-0.28037086 -0.060440741 -0.011417722
-0.28073642 -0.058719281 -0.011417722
-0.28205752 -0.057187401 -0.011590683
-0.28046864 -0.05508393 -0.011244762
-0.28176969 -0.053541891 -0.011417722
-0.28403181 -0.052159932 -0.011763643
-0.28240553 -0.050080113 -0.011417722
-0.28173599 -0.048184294 -0.011244762
-0.28008136 -0.046142481 -0.010898841
-0.27743897 -0.043972667 -0.010379958
-0 -0 -0
-0.27503213 -0.040150221 -0.0098610763
-0 -0 -0
-0.27257368 -0.036393534 -0.0093421945
-0.27376944 -0.034840573 -0.0095151551
-0.27789119 -0.033616908 -0.010206997
-0.27907121 -0.032019366 -0.010379958
-0.27632359 -0.029999847 -0.0098610763
-0.28140357 -0.028784676 -0.01072588
-0 -0 -0
-0.28271693 -0.025413394 -0.010898841
-0.28188571 -0.023600079 -0.01072588
-0 -0 -0
-0 -0 -0
-0 -0 -0
-0 -0 -0
-0.27952573 -0.014798294 -0.010206997
-0.27764317 -0.012999026 -0.0098610763
-0 -0 -0
-0.27384388 -0.0094715487 -0.009169234
-0 -0 -0
-0.27492428 -0.0061281137 -0.0093421945
-0 -0 -0
-0.27497876 -0.0027539085 -0.0093421945
-0.27696034 -0.0010658881 -0.0096881157
-0 0 -0
-0.28089198 0.0023827292 -0.010379958
-0 0 -0
-0.27591845 0.0057068435 -0.0095151551
-0 0 -0
-0.27484342 0.0090557402 -0.0093421945
-0.27478269 0.010741977 -0.0093421945
-0 0 -0
-0.27659696 0.014222631 -0.0096881157
-0.27650449 0.015919531 -0.0096881157
-0.27836692 0.017749414 -0.010034037
-0 -0 -0
-0 -0 -0
-0 -0 -0
-0 -0 -0
-0 -0 -0
-0 0 -0
-0 0 -0
-0 0 -0
-0 0 -0
-0 0 -0
-0 0 -0
-0 0 -0
-0 0 -0
-0 0 -0
-0 0 -0
-0 0 -0
-0 0 -0
-0 0 -0
-0 0 -0
-0 0 -0
-0 0 -0
-0 0 -0
-0 0 -0
-0 0 -0
-0 0 -0
-0 0 -0
-0 0 -0
-0 0 -0
-0 0 -0
-0 0 -0
-0 0 -0
-0 0 -0
-0 0 -0
-0 0 -0
-0 0 -0
-0 0 -0
-0 0 -0
-0 0 -0
-0 0 -0
-0 0 -0
-0 0 -0
-0 0 -0
-0 0 -0
-0 0 -0
-0 0 -0
-0 0 -0
-0 0 -0
-0 0 -0
-0 0 -0
-0 0 -0
-0 0 -0
-0 0 -0
-0 0 -0
-0 0 -0
-0 0 -0
-0 0 -0
-0 0 -0
-0 0 -0
-0 0 -0
-0 0 -0
-0 0 -0
-0 0 -0
-0 0 -0
-0 0 -0
-0 0 -0
-0 0 -0
-0 0 -0
-0 0 -0
-0 0 -0
-0 0 -0
-0 0 -0
-0 0 -0
-0 0 -0
-0 0 -0
-0 0 -0
-0 0 -0
-0 0 -0
-0 0 -0
-0 0 -0
-0 0 -0
-0 0 -0
-0 0 -0
-0 0 -0
-0 0 -0
-0 0 -0
-0 0 -0
-0 0 -0
-0 0 -0
-0 0 -0
-0 0 -0
-0 0 -0
-0 0 -0
-0 0 -0
-0 0 -0
-0 0 -0
-0 0 -0
-0 0 -0
-0 0 -0
-0 0 -0
-0 0 -0
-0 0 -0
-0 0 -0
-0 0 -0
-0 0 -0
-0 0 -0
-0 0 -0
-0 0 -0
-0 0 -0
-0 0 -0
-0 0 -0
-0.26593915 0.20280051 -0.023567155
-0.23354667 0.18043341 -0.016195377
-0 0 -0
-0.26447469 0.20948939 -0.024120038
-0 0 -0
-0 0 -0
-0.23701973 0.19499423 -0.018406911
-0.25849792 0.2152887 -0.023935743
-0.25717208 0.21687075 -0.023935743
-0.25059909 0.21398316 -0.022645682
-0.25672421 0.22193614 -0.024488626
-0.25165597 0.22027473 -0.023567155
-0.25398138 0.22506982 -0.024488626
-0.24161051 0.21679108 -0.021724209
-0.2548418 0.23146966 -0.025410099
-0.28166208 0.25894311 -0.032597583
-0.23901947 0.22253941 -0.022092799
-0.27488309 0.25901353 -0.03167611
-0.26901731 0.2566292 -0.030570343
-0.26672989 0.25759298 -0.030386049
-0.27006891 0.26402932 -0.03167611
-0.26354876 0.26084676 -0.030386049
-0.25846806 0.25898424 -0.029464576
-0 0 -0
-0.27998301 0.28745988 -0.036099177
-0.25365722 0.26369789 -0.029464576
-0.25203443 0.26524934 -0.029464576
-0.25040215 0.26679081 -0.029464576
-0.26481619 0.2856037 -0.033887643
-0.24112831 0.26332617 -0.027805926
-0.25931114 0.28664723 -0.033334762
-0.25164682 0.28164268 -0.03167611
-0 0 -0
-0 0 -0
-0 0 -0
-0 0 -0
-0 0 -0
-0 0 -0
-0 0 -0
-0 0 -0
-0 0 -0
-0 0 -0
-2.6087229 3.3429506 -0.75595331
-2.6007614 3.3752429 -0.7598235
-2.588335 3.4020877 -0.76240361
-2.569773 3.4210486 -0.7631408
-2.5563455 3.4470143 -0.76553661
-0 0 -0
-0 0 -0
-2.5244355 3.5382874 -0.77585709
-2.4856975 3.5296042 -0.77032828
-2.4875579 3.5786836 -0.7780686
-2.4655528 3.5938797 -0.7780686
-2.4440057 3.6097541 -0.7782529
-2.4108887 3.6083386 -0.77456701
-2.4006066 3.6411152 -0.77862149
-2.3696434 3.6425951 -0.77567279
-2.3467174 3.6562393 -0.7754885
-2.3310754 3.6813643 -0.7778843
-2.2896948 3.66559 -0.77124971
-2.2934587 3.722244 -0.78064877
-2.2721078 3.738766 -0.78120166
-2.2359853 3.7307189 -0.77640998
-2.2270567 3.7680588 -0.7815702
-2.1890454 3.7561786 -0.77604139
-2.1718335 3.7797656 -0.7782529
-2.1452091 3.7870345 -0.77696288
-2.1377473 3.8284435 -0.78304458
-2.1028404 3.8208237 -0.77862149
-2.0765448 3.8284709 -0.77751577
-2.0544047 3.8437407 -0.7780686
-2.0275748 3.8501866 -0.77677858
-2.0156827 3.8852377 -0.7815702
-1.9752537 3.8651514 -0.77475131
-1.956362 3.8868554 -0.77677858
-1.9276736 3.8890998 -0.77475131
-1.9283504 3.9512 -0.78525609
-1.880229 3.9133482 -0.7749356
-1.8620658 3.9372501 -0.77751577
-1.860273 3.9967177 -0.78746766
-1.8308023 3.997334 -0.78525609
-1.7921054 3.9771302 -0.77880579
-1.7644817 3.9808633 -0.77733147
-1.7506289 4.0159407 -0.78230739
-1.7104625 3.9904728 -0.7749356
-1.6973978 4.0280643 -0.78046447
-1.6790453 4.0538397 -0.78359747
-1.6552516 4.0667968 -0.78415036
-1.6361073 4.0914779 -0.78709906
-1.6174411 4.1179066 -0.79041636
-1.5970967 4.1405911 -0.79299647
-1.5577341 4.1135473 -0.78562468
-1.5256144 4.1046023 -0.78193879
-1.5004003 4.1138864 -0.78193879
-1.4724803 4.115612 -0.78046447
-1.4426427 4.1115856 -0.7778843
-1.4244229 4.1408067 -0.78193879
-1.3876814 4.115941 -0.7753042
-1.3651756 4.1327772 -0.77696288
-1.3198175 4.0793581 -0.76479942
-1.3202951 4.1679578 -0.78064877
-1.2976075 4.1853685 -0.78249168
-1.2573482 4.1452847 -0.77309269
-1.2335671 4.1585751 -0.77419847
-1.2102178 4.1736174 -0.77567279
-1.1888744 4.1960945 -0.77862149
-1.1641541 4.2070994 -0.77935869
-1.1360104 4.2056236 -0.77770007
-1.1109354 4.2153664 -0.7782529
-1.0892099 4.238286 -0.7813859
-1.0617505 4.2391691 -0.78028017
-1.0359524 4.2465587 -0.78046447
-1.0096494 4.2518792 -0.78028017
-0.98354137 4.2579942 -0.78028017
-0 0 -0
-0.93247229 4.2755046 -0.7813859
-0.90866429 4.2926846 -0.78359747
-0.88230777 4.2981791 -0.78359747
-0.85323262 4.2900162 -0.78101736
-0.82856655 4.3038568 -0.78267598
-0.80304283 4.3136911 -0.78359747
-0.77325273 4.300158 -0.78009588
-0.74954247 4.3203158 -0.78304458
-0 0 -0
-0.69334507 4.3097811 -0.77935869
-0.66538525 4.3042412 -0.77751577
-0.63795245 4.3014369 -0.77622569
-0.61196226 4.3081899 -0.77677858
-0.58498681 4.3079681 -0.77604139
-0.55854261 4.3114762 -0.77604139
-0.53207737 4.3148222 -0.77604139
-0.50376189 4.3023868 -0.77309269
-0.47670305 4.2995358 -0.7719869
-0.44980061 4.297492 -0.77106541
-0.4217844 4.2835426 -0.76793242
-0.39549312 4.2860503 -0.76793242
-0.36851186 4.2805624 -0.76645809
-0.34145606 4.2729454 -0.76461512
-0.3150866 4.2729998 -0.76424652
-0.28926015 4.2807364 -0.76535231
-0.26208356 4.2677155 -0.7625879
-0.23545791 4.2613921 -0.76111352
-0.20993386 4.2755184 -0.76350939
-0.18369582 4.2767262 -0.76350939
-0.15759583 4.2817016 -0.76424652
-0.13123019 4.2796407 -0.76369363
-0.10475068 4.2715225 -0.76203501
-0.078484669 4.2691364 -0.76148212
-0.052324638 4.2724862 -0.76203501
-0.026138647 4.2776408 -0.7629565
0.00010895666 4.2777209 -0.7629565
0.026344623 4.2756739 -0.7625879
0.052615162 4.2783804 -0.7631408
0.078487247 4.25734 -0.75927061
0.10494511 4.2705345 -0.76185071
0.13060512 4.2521267 -0.75853342
0.15701823 4.2600851 -0.76019204
0.18256472 4.2452941 -0.75761193
0.20832095 4.2382035 -0.7565062
0.23410541 4.2329202 -0.75576901
0.25935122 4.2196317 -0.75355744
0.28477395 4.2110963 -0.75226742
0.31125757 4.218092 -0.75392604
0.3366639 4.2102242 -0.75282031
0.36282808 4.2119961 -0.75355744
0.38929746 4.2165413 -0.75484753
0.41362196 4.1984234 -0.75189883
0.44039795 4.2055817 -0.75374174
0.46543673 4.195962 -0.75245172
0.48877439 4.1725268 -0.74858153
0.51737356 4.1938362 -0.75318885
0.54385412 4.1964312 -0.75429463
0.56681627 4.1725626 -0.75042444
0.59351343 4.1767907 -0.75189883
0.62100458 4.1857095 -0.75429463
0.64562511 4.1750212 -0.75300461
0.67185467 4.1748624 -0.75374174
0.69616234 4.1629062 -0.75226742
0.72051656 4.1517773 -0.75097734
0.74284744 4.1298656 -0.74766004
0.76727462 4.1203985 -0.74673855
0.79049903 4.1049962 -0.74471134
0.81528854 4.0981407 -0.74434274
0.83962858 4.0892096 -0.74360555
0.86002314 4.0618649 -0.73936677
0.88681465 4.0651541 -0.74102545
0.90915787 4.0481281 -0.73881394
0.93796057 4.0597115 -0.74213123
0.96512324 4.0634427 -0.74397415
0.99446297 4.0755868 -0.74747574
1.0196904 4.0703616 -0.74766004
1.0434234 4.0592685 -0.74673855
1.0710658 4.0632448 -0.74876583
1.0923896 4.0433121 -0.74618566
1.1158679 4.0317965 -0.74526423
1.1429965 4.0333848 -0.74692285
1.1633444 4.0111918 -0.74397415
1.1868168 4.0002089 -0.74323696
1.212195 3.9956729 -0.74378985
1.2358161 3.9853435 -0.74323696
1.2581691 3.9711268 -0.74194694
1.2825117 3.9633319 -0.74194694
1.2987918 3.9311225 -0.73715526
1.3222603 3.9212167 -0.73678666
1.34182 3.9000175 -0.73420656
1.3627964 3.8833637 -0.73254788
1.3839502 3.8675253 -0.73107356
1.4059712 3.8543437 -0.73015207
1.4299369 3.8465655 -0.73033637
1.4552523 3.8423152 -0.73125786
1.487289 3.8553224 -0.73568088
1.5116353 3.8479538 -0.73604947
1.5406909 3.8522954 -0.73881394
1.5657811 3.846411 -0.73955107
1.5968742 3.8548927 -0.74323696
1.6105748 3.8214722 -0.73844534
1.6320567 3.8070009 -0.73752385
1.6569562 3.8005192 -0.73826104
1.6742709 3.7768021 -0.73549658
1.6929722 3.7566006 -0.73346937
1.7225382 3.7604399 -0.73641807
1.733138 3.723067 -0.73088926
1.7719163 3.7461269 -0.73789245
1.7876332 3.7201231 -0.73475945
1.7979255 3.6834683 -0.72941488
1.8532273 3.738416 -0.74323696
1.8708286 3.7164388 -0.74102545
1.8573713 3.6339965 -0.72609758
1.8628882 3.5902503 -0.71927869
1.8908358 3.5900578 -0.7216745
1.9132916 3.5792551 -0.7218588
1.9333432 3.563992 -0.72112167
1.9547011 3.5512011 -0.72093737
1.9769332 3.5399988 -0.72112167
1.9971639 3.5252361 -0.72056878
2.0290391 3.5308123 -0.72443897
2.0506656 3.5182958 -0.72443897
2.0837162 3.5251083 -0.72867769
2.1118748 3.5232165 -0.73107356
2.1441715 3.5278311 -0.73494375
2.1647465 3.5129347 -0.73457515
2.1873019 3.5012531 -0.73494375
2.2103214 3.4902575 -0.73549658
2.2311647 3.4758022 -0.73531234
2.2465546 3.4529836 -0.73328507
2.2655356 3.4358518 -0.73254788
2.293673 3.4325104 -0.73494375
2.3042221 3.4029081 -0.73144215
2.3144948 3.373306 -0.72794056
2.3525391 3.3840604 -0.73365366
2.356282 3.3454533 -0.72812486
2.3881812 3.346935 -0.73181075
2.4063699 3.3290319 -0.73107356
2.428493 3.3165832 -0.73162645
2.4452848 3.2968829 -0.73052067
2.4636972 3.2794592 -0.72996777
2.4730616 3.2502 -0.72665048
2.4911582 3.2326288 -0.72609758
2.4928071 3.194036 -0.72056878
2.5282025 3.1987305 -0.72536039
2.553309 3.190064 -0.72701907
2.5691218 3.1697555 -0.72591329
2.5903931 3.1562114 -0.72646618
2.6254137 3.1591568 -0.73107356
2.6529744 3.1527655 -0.73346937
2.6658959 3.1289458 -0.73162645
2.6792672 3.1058307 -0.72996777
2.7008595 3.092294 -0.73070496
2.7035072 3.0572548 -0.72609758
2.7386034 3.0589173 -0.73070496
2.7546811 3.0391428 -0.72996777
2.7772639 3.0265286 -0.73107356
2.7944441 3.0079904 -0.73070496
2.8155415 2.9936514 -0.73144215
2.8406339 2.983438 -0.73328507
2.8363793 2.9425976 -0.72720337
2.8584995 2.9293597 -0.72830915
2.9047375 2.9404359 -0.73586518
2.8858926 2.8857203 -0.72609758
2.9517896 2.9156213 -0.73881394
2.9682171 2.8960814 -0.73844534
2.9795628 2.8716753 -0.73678666
3.0013976 2.8574057 -0.73789245
2.9988275 2.8200805 -0.73273218
3.0463171 2.8297246 -0.74047256
3.0614502 2.8089857 -0.73991966
3.0655203 2.7782662 -0.73660237
3.108871 2.7830067 -0.74323696
3.1060095 2.7462986 -0.73826104
3.1472299 2.7485261 -0.74434274
3.1737099 2.7375097 -0.74673855
3.1590261 2.6912115 -0.73899817
3.1559272 2.6553233 -0.73420656
3.1714046 2.6352806 -0.73402226
3.2292998 2.6500683 -0.74415845
3.2096131 2.6011155 -0.73549658
3.2324188 2.5869005 -0.73715526
3.2520862 2.5700655 -0.73807675
3.2685695 2.5506675 -0.73826104
3.28338 2.529964 -0.73807675
3.3316927 2.5347679 -0.74581712
3.3573985 2.5219522 -0.74821293
3.3759673 2.5036464 -0.74895012
3.3468585 2.4503658 -0.73862964
3.3546617 2.4246013 -0.73697096
3.403878 2.4285214 -0.74489564
3.4050548 2.3979678 -0.74176264
3.4253535 2.3809571 -0.74305266
3.4552963 2.3704605 -0.74655426
3.4453614 2.3326812 -0.74102545
3.4718676 2.3196886 -0.74378985
3.5155745 2.317821 -0.75042444
3.5000722 2.2769089 -0.74378985
3.5139773 2.2553899 -0.74378985
3.518616 2.2280014 -0.74176264
3.5488918 2.2167852 -0.74544853
3.5599167 2.1934209 -0.74489564
3.5825469 2.1771522 -0.74692285
3.6076403 2.162204 -0.74950302
3.6166091 2.1375263 -0.74858153
3.6288075 2.1148 -0.74839723
3.6587586 2.1022892 -0.75208312
3.6690235 2.0783465 -0.75153023
3.6542475 2.0404584 -0.74563283
3.6856415 2.0284255 -0.74968725
3.6962905 2.0048354 -0.74931872
3.7015882 1.9784105 -0.74784434
3.7206147 1.9593252 -0.74931872
3.735184 1.9378171 -0.74987155
3.7583811 1.9206775 -0.75226742
3.773607 1.8993483 -0.75300461
3.7975183 1.8822701 -0.75558472
3.8107626 1.8597958 -0.75595331
3.8097003 1.8304181 -0.75337315
3.821748 1.8074281 -0.75355744
3.8318753 1.7835294 -0.75337315
3.8257689 1.7522062 -0.74987155
3.8310719 1.7262756 -0.74876583
3.8245201 1.6951672 -0.74526423
3.843859 1.6755968 -0.74710715
3.8486478 1.6496561 -0.74600142
3.8623202 1.6275371 -0.74673855
3.8713257 1.6034316 -0.74655426
3.8792708 1.5789062 -0.74618566
3.897099 1.5583588 -0.74784434
3.9056728 1.5340579 -0.74766004
3.906759 1.5068802 -0.74600142
3.9333954 1.4894954 -0.74950302
3.9378543 1.4636199 -0.74858153
3.9541476 1.442125 -0.75005585
3.9592202 1.4165108 -0.74931872
3.9780388 1.3957714 -0.75134593
3.9837401 1.3703768 -0.75079304
3.9762409 1.3405678 -0.74766004
3.9601271 1.3081272 -0.74286836
3.9905219 1.291067 -0.74729145
3.9777555 1.2600256 -0.74323696
4.0220237 1.2469493 -0.75042444
4.0183129 1.2188226 -0.74821293
4.0294847 1.1952622 -0.74895012
4.0442948 1.1727058 -0.75042444
4.0580335 1.1497444 -0.75171453
4.0640645 1.124561 -0.75153023
4.0784788 1.1016543 -0.75300461
4.083261 1.0761073 -0.75263602
4.0783639 1.0480959 -0.75042444
4.1161804 1.0309349 -0.7565062
4.1176543 1.004494 -0.75558472
4.1160903 0.97739226 -0.75411034
4.1239252 0.9525606 -0.75447893
4.1172256 0.92443842 -0.75208312
4.1160984 0.89769149 -0.75079304
4.1234522 0.87282598 -0.75116163
4.129693 0.8477062 -0.75134593
4.1724114 0.8298316 -0.75853342
4.1542616 0.79975313 -0.75411034
4.1619892 0.7747879 -0.75466323
4.1773057 0.75115019 -0.75669044
4.1808677 0.72533649 -0.7565062
4.1697292 0.69707507 -0.75355744
4.1894541 0.67397618 -0.7565062
4.1799121 0.64615411 -0.75392604
4.1886592 0.62121588 -0.75484753
4.1777959 0.59342837 -0.75208312
4.1940193 0.56950313 -0.75447893
4.1906118 0.54287386 -0.75318885
4.2055693 0.5185951 -0.75540042
4.201839 0.49197969 -0.75411034
4.1969638 0.46532124 -0.75263602
4.1968074 0.43925321 -0.75208312
4.2052922 0.41407222 -0.75318885
4.2048178 0.38799003 -0.75263602
4.2159324 0.36294198 -0.75429463
4.2092624 0.33636126 -0.75263602
4.2288904 0.31183001 -0.75595331
4.2326856 0.28600886 -0.75632191
4.2363229 0.26015288 -0.75669044
4.2368579 0.23410007 -0.7565062
4.2480316 0.2085817 -0.75834912
4.2462854 0.18238555 -0.75779623
4.2433958 0.15618244 -0.75705904
4.2501688 0.13032378 -0.75816482
4.2597313 0.10446046 -0.7598235
4.2475171 0.078085244 -0.75742763
4.2253118 0.051742606 -0.75318885
4.236361 0.025882652 -0.75521612
4.2325087 -0.00011191579 -0.75447893
4.2314458 -0.026076132 -0.75429463
4.2469306 -0.052231256 -0.75724334
4.2475128 -0.07830698 -0.75742763
4.259726 -0.10468049 -0.7598235
4.2570386 -0.13075553 -0.75945491
4.2600851 -0.15701823 -0.76019204
4.2452941 -0.18256472 -0.75761193
4.2244601 -0.20764665 -0.75392604
4.2211437 -0.23345518 -0.75355744
4.2294421 -0.25995329 -0.75540042
4.2424769 -0.28689313 -0.75816482
4.2298546 -0.31212443 -0.75613761
4.2445154 -0.33940277 -0.75927061
4.2394152 -0.36518744 -0.75871772
4.2380733 -0.39128339 -0.75890201
4.2424397 -0.4179543 -0.76019204
4.2388177 -0.44387525 -0.7600078
4.1998696 -0.46586981 -0.75318885
4.2184086 -0.49414474 -0.75724334
4.1967626 -0.51773435 -0.75374174
4.2003303 -0.54435909 -0.75503182
4.1920414 -0.56946051 -0.75411034
4.1855488 -0.59475714 -0.75355744
4.1798763 -0.62013966 -0.75318885
4.1759925 -0.6457752 -0.75318885
4.1845665 -0.67341542 -0.75558472
4.1677532 -0.69697243 -0.75318885
4.1663036 -0.72303611 -0.75374174
4.1569519 -0.7477169 -0.75282031
4.135859 -0.77015209 -0.74968725
4.1416721 -0.79755819 -0.75171453
4.1338086 -0.82238096 -0.75116163
4.1315732 -0.84832281 -0.75171453
4.1378288 -0.87609971 -0.75392604
4.1717482 -0.91005772 -0.76148212
4.1593723 -0.93413097 -0.76019204
4.1372824 -0.95587498 -0.75705904
4.1399455 -0.98328626 -0.75871772
4.13097 -1.0079713 -0.75816482
4.1189866 -1.0318669 -0.75705904
4.1097217 -1.0563873 -0.7565062
4.0965095 -1.0798311 -0.75521612
4.0907555 -1.1052028 -0.75540042
4.0857921 -1.1308066 -0.75576901
4.0797219 -1.156123 -0.75595331
4.0753837 -1.1819551 -0.7565062
4.0765352 -1.2094542 -0.75816482
4.0633941 -1.232733 -0.75705904
4.0491819 -1.2556052 -0.75576901
4.0442123 -1.2813172 -0.75632191
4.0334687 -1.3052005 -0.75576901
4.0225844 -1.329 -0.75521612
4.0180798 -1.354913 -0.75595331
3.9920311 -1.373468 -0.75245172
3.9983678 -1.4031428 -0.75540042
3.976727 -1.4230151 -0.75282031
3.964227 -1.4460422 -0.75208312
3.9543583 -1.4699966 -0.75189883
3.9406683 -1.4924922 -0.75097734
3.9332705 -1.5173509 -0.75134593
3.9138227 -1.5375043 -0.74931872
3.9024899 -1.5607603 -0.74895012
3.8855567 -1.5817122 -0.74747574
3.8866754 -1.6100366 -0.74968725
3.8613255 -1.6273667 -0.74655426
3.8729489 -1.6603211 -0.75097734
3.8626885 -1.6840539 -0.75097734
3.8522825 -1.7077231 -0.75097734
3.8471084 -1.7337507 -0.75208312
3.8256743 -1.7524126 -0.74987155
3.8308895 -1.7833184 -0.75318885
3.8109899 -1.8025889 -0.75134593
3.809603 -1.8306205 -0.75337315
3.7903488 -1.850082 -0.75171453
3.7542675 -1.8610835 -0.74655426
3.7647262 -1.8951305 -0.75116163
3.7363977 -1.9096974 -0.74766004
3.7429316 -1.9420921 -0.75153023
3.7518167 -1.9760121 -0.75595331
3.6815429 -1.9679569 -0.74360555
3.7117338 -2.0134695 -0.75263602
3.6984484 -2.0357325 -0.75245172
3.6961858 -2.0641372 -0.75466323
3.6817405 -2.085809 -0.75429463
3.6842129 -2.1171739 -0.75761193
3.6821926 -2.146173 -0.7600078
3.6478007 -2.1562247 -0.75540042
3.6328156 -2.177556 -0.75503182
3.6370251 -2.2105241 -0.75890201
3.6083305 -2.2235191 -0.75558472
3.586283 -2.2404108 -0.75374174
3.603194 -2.2818274 -0.76056063
3.5634828 -2.2874365 -0.75484753
3.5699778 -2.3226569 -0.75945491
3.5458119 -2.3380263 -0.75724334
3.5183229 -2.3510029 -0.75429463
3.5135982 -2.3791587 -0.7565062
0 -0 -0
3.487366 -2.4243407 -0.75724334
3.47805 -2.4496543 -0.75853342
3.4557526 -2.465812 -0.75687474
3.4628627 -2.5030894 -0.76203501
3.4521973 -2.5277736 -0.7631408
3.420043 -2.5366139 -0.75927061
3.4138448 -2.5646346 -0.76148212
3.3910041 -2.5801775 -0.7598235
3.3712156 -2.5979364 -0.75890201
3.3451381 -2.6107125 -0.7565062
3.333683 -2.634845 -0.75761193
3.313616 -2.65218 -0.75669044
3.2904077 -2.6668928 -0.75503182
3.2755017 -2.6882792 -0.75540042
3.2680166 -2.7158642 -0.75761193
3.2400093 -2.7263739 -0.75484753
3.2224715 -2.7455654 -0.75466323
3.2130072 -2.7717059 -0.7565062
3.1951995 -2.7907219 -0.75632191
3.174334 -2.8070195 -0.75540042
3.1570506 -2.8264441 -0.75540042
3.1330938 -2.8398221 -0.75374174
3.1040223 -2.8483615 -0.75079304
3.0908074 -2.8713672 -0.75189883
3.0781431 -2.8949912 -0.75318885
3.0631692 -2.9165344 -0.75392604
3.0409698 -2.9311826 -0.75282031
2.9961936 -2.9237044 -0.74581712
3.0005751 -2.9641352 -0.75171453
2.9885864 -2.9887452 -0.75337315
2.9750268 -3.0119209 -0.75466323
2.9503119 -3.0237877 -0.75300461
2.9180601 -3.0276811 -0.74931872
2.8885832 -3.0341403 -0.74636996
2.8766458 -3.0589666 -0.74821293
2.8497941 -3.067919 -0.74600142
2.8581631 -3.1150374 -0.75355744
2.8469169 -3.1412549 -0.75576901
2.834801 -3.166719 -0.75779623
2.8257349 -3.1958334 -0.76074493
2.7976668 -3.2034886 -0.75834912
2.7805259 -3.2235711 -0.75908631
2.7543197 -3.2330902 -0.75724334
2.7388599 -3.2551937 -0.75853342
2.7207193 -3.2742054 -0.75908631
2.7024488 -3.293117 -0.7596392
2.6790972 -3.3058193 -0.75871772
2.6440217 -3.3037798 -0.75429463
2.6377184 -3.3376758 -0.75853342
2.6190035 -3.3561223 -0.75908631
2.6001613 -3.3744643 -0.7596392
2.5800023 -3.3911374 -0.7598235
2.5325789 -3.3715429 -0.75153023
2.5340948 -3.4170167 -0.75853342
2.5101771 -3.4285364 -0.75761193
2.4798796 -3.4311295 -0.75466323
2.4713402 -3.4638822 -0.75871772
2.4432478 -3.4693384 -0.7565062
2.4230363 -3.4858785 -0.75687474
2.39048 -3.4844718 -0.75318885
2.3607879 -3.4868665 -0.75042444
2.3377101 -3.4988348 -0.74987155
2.3264782 -3.528703 -0.75337315
2.3101432 -3.5511498 -0.75521612
2.2856553 -3.5611222 -0.75429463
2.2705982 -3.5858743 -0.75669044
2.2449076 -3.593904 -0.75540042
2.2259073 -3.6126313 -0.7565062
2.2685342 -3.7328868 -0.77991158
2.2369959 -3.7324049 -0.77677858
2.2020483 -3.7257545 -0.7723555
2.1712265 -3.7256095 -0.7694068
2.141959 -3.7277837 -0.76701099
2.1151693 -3.7340152 -0.76553661
2.0821536 -3.7289031 -0.76166642
2.0554423 -3.7347205 -0.76019204
2.0315506 -3.7455342 -0.7598235
2.0113103 -3.7631297 -0.76092923
2.0216203 -3.8388817 -0.77438271
1.9975744 -3.8503416 -0.77419847
1.9971737 -3.9080346 -0.78378177
1.9532683 -3.8807101 -0.7754885
1.9438268 -3.9216816 -0.7815702
1.9141221 -3.9220526 -0.77917439
1.8904465 -3.9346094 -0.77935869
1.8574426 -3.9274769 -0.7754885
1.760299 -3.7819772 -0.74305266
0 -0 -0
1.7573731 -3.9000688 -0.7629565
1.7373933 -3.9197636 -0.76479942
1.7302014 -3.9690912 -0.77272409
1.7154975 -4.0022163 -0.77733147
1.6886175 -4.0072331 -0.77622569
1.6440598 -3.969393 -0.76645809
1.6111491 -3.9584687 -0.76221931
1.5711343 -3.9290392 -0.75429463
1.5624514 -3.977942 -0.76221931
1.5588874 -4.0415564 -0.77309269
1.5312742 -4.0436921 -0.77161831
1.4769778 -3.9737835 -0.75576901
1.4461671 -3.9652276 -0.75226742
1.4244592 -3.9814298 -0.75374174
1.4013047 -3.9938047 -0.75447893
1.3796511 -4.0106921 -0.75613761
1.3569005 -4.0246701 -0.75724334
1.3318716 -4.0319867 -0.75705904
0 -0 -0
1.2802144 -4.0414686 -0.75576901
1.2518986 -4.0379829 -0.75355744
1.2313792 -4.0596962 -0.75632191
1.2033706 -4.0568104 -0.75429463
1.1883129 -4.0981007 -0.76092923
1.1663612 -4.116662 -0.7631408
1.142391 -4.1284776 -0.76406223
1.1234473 -4.1591306 -0.76866961
1.0956511 -4.157392 -0.76701099
1.0706108 -4.1659403 -0.76737952
1.0416845 -4.1590834 -0.76479942
1.0191746 -4.1778097 -0.76719522
0.99533814 -4.1916347 -0.76866961
0.9702639 -4.2005363 -0.7692225
0.94554865 -4.2112055 -0.77014399
0.92052948 -4.2207689 -0.77088112
0.89400315 -4.223453 -0.77032828
0.86787397 -4.2278962 -0.77014399
0.83980584 -4.222538 -0.76811671
0.81239384 -4.2198906 -0.76664239
0.79062504 -4.2470198 -0.77088112
0.76194042 -4.2372808 -0.76811671
0.74080139 -4.2699594 -0.77346128
0.7111823 -4.2540674 -0.76959109
0.68475407 -4.2564101 -0.7692225
0.65757263 -4.2537322 -0.76793242
0.63117129 -4.2557425 -0.76756382
0.60504663 -4.2595353 -0.76756382
0.57836986 -4.2592721 -0.76682669
0.55235094 -4.2637153 -0.76701099
0.52545661 -4.2611713 -0.7659052
0.49724165 -4.2467437 -0.7625879
0.4731259 -4.2672987 -0.7659052
0.44765016 -4.2769642 -0.76719522
0.42072397 -4.2727833 -0.7659052
0.39359477 -4.2654972 -0.76406223
0.36800548 -4.2746868 -0.76535231
0.3403587 -4.2592292 -0.76203501
0.31790897 -4.3112278 -0.77143401
0.2917152 -4.3170195 -0.7721712
0.26491931 -4.3138232 -0.77124971
0.23806499 -4.3084979 -0.76995969
0.21012703 -4.2794452 -0.76424652
0.18428756 -4.2904739 -0.7660895
0.15788576 -4.2895594 -0.7657209
0.13168339 -4.2943769 -0.76645809
0.10547623 -4.3009996 -0.76756382
0.07877516 -4.2848597 -0.76443082
0.052445896 -4.2823143 -0.76387793
0.026193503 -4.2864866 -0.76461512
-0.00010831338 -4.2875495 -0.76479942
-0.026326725 -4.2727256 -0.76203501
-0.052735131 -4.288208 -0.76498371
-0.0791182 -4.2917347 -0.7657209
-0.10547435 -4.292151 -0.7659052
-0.13168818 -4.2874932 -0.76516801
-0.15799326 -4.2866049 -0.76516801
-0.18509303 -4.3042121 -0.76866961
-0.21135521 -4.3000503 -0.76811671
-0.23616445 -4.2702127 -0.7627722
-0.26224113 -4.2667208 -0.76240361
-0.28854874 -4.266993 -0.7627722
-0.31371373 -4.2514191 -0.76019204
-0.34010705 -4.2533331 -0.76092923
-0.3660301 -4.2492075 -0.76056063
-0.39254719 -4.2517753 -0.76148212
-0.41949469 -4.25809 -0.7631408
-0.44540939 -4.2534809 -0.7627722
-0.4717164 -4.2526217 -0.7631408
-0.49780113 -4.2496471 -0.7631408
-0.52639234 -4.2669978 -0.76701099
-0.54827231 -4.230547 -0.76074493
-0.57369131 -4.2232075 -0.7600078
-0.59862632 -4.2127957 -0.75871772
-0.62100458 -4.1857095 -0.75429463
-0.64682603 -4.1827917 -0.75447893
-0.67294723 -4.1816554 -0.75503182
-0.69762057 -4.1716309 -0.75392604
-0.72320408 -4.1672721 -0.75392604
-0.74928206 -4.165658 -0.75447893
-0.77338922 -4.1532521 -0.75300461
-0.79811549 -4.1445675 -0.75226742
-0.82238096 -4.1338086 -0.75116163
-0.85010117 -4.1402383 -0.75337315
-0.87447172 -4.1301365 -0.75245172
-0.8974939 -4.1141295 -0.75042444
-0.92530429 -4.1200533 -0.75263602
-0.95123053 -4.1171713 -0.75318885
-0.97988069 -4.1256013 -0.75595331
-1.0021487 -4.1070981 -0.75355744
-1.0256592 -4.0941973 -0.75226742
-1.0480709 -4.0773559 -0.75024015
-1.0755737 -4.0803523 -0.75208312
-1.1000775 -4.0717783 -0.75171453
-1.1239924 -4.0611625 -0.75097734
-1.151301 -4.0627003 -0.75263602
-1.1753865 -4.0527277 -0.75208312
-1.1968778 -4.0341315 -0.74987155
-1.2238903 -4.0342364 -0.75134593
-1.2489119 -4.0275893 -0.75153023
-1.267369 -4.0001736 -0.74766004
-1.2900746 -3.9867108 -0.74655426
-1.1893638 -3.5998068 -0.67173076
-1.1938472 -3.5402842 -0.66141021
-1.2126704 -3.5245273 -0.65975159
-1.2375274 -3.5262947 -0.66159451
-1.3740184 -3.839762 -0.72554469
-1.4389708 -3.9448359 -0.74821293
-1.460752 -3.9294832 -0.74692285
-1.4935364 -3.9434259 -0.75153023
-1.523717 -3.9497771 -0.75466323
-1.5493609 -3.9440126 -0.75540042
-1.5698828 -3.9253056 -0.75355744
-1.5994958 -3.9292545 -0.75632191
-1.6341051 -3.9447925 -0.76148212
-1.6487383 -3.9120476 -0.75687474
-1.6847137 -3.9298627 -0.7625879
-1.6997627 -3.8987286 -0.75834912
-1.7216616 -3.8837328 -0.75742763
-1.7402107 -3.8614461 -0.75503182
-1.7687821 -3.8614192 -0.75724334
-1.7974186 -3.8611867 -0.75945491
-1.8282195 -3.8651903 -0.7625879
-1.8510503 -3.8521278 -0.76221931
-1.8750826 -3.8415809 -0.76240361
-1.9021105 -3.8370483 -0.76387793
-1.9282695 -3.8305728 -0.76498371
-1.9521843 -3.8195443 -0.76516801
-1.9728683 -3.8022592 -0.76406223
-1.9979932 -3.793561 -0.76479942
-2.0263283 -3.7907655 -0.76682669
-2.0551729 -3.7886286 -0.7690382
-2.0641646 -3.7501142 -0.76350939
-2.0880945 -3.7390943 -0.76387793
-2.1076069 -3.7202251 -0.7625879
-2.1436143 -3.7302332 -0.76756382
-2.1674519 -3.7187085 -0.76793242
-2.1897287 -3.704493 -0.76774812
-2.2134283 -3.6926734 -0.76811671
-2.2161386 -3.6462646 -0.76092923
-2.260123 -3.6677437 -0.76866961
-2.2820647 -3.6529732 -0.76848531
-2.3096938 -3.6472061 -0.77032828
-2.3383994 -3.6428916 -0.77253979
-2.3532047 -3.6169403 -0.76995969
-2.3602064 -3.5794563 -0.76479942
-2.372297 -3.5501964 -0.76148212
-2.3907299 -3.53069 -0.76037633
-2.4073448 -3.5086598 -0.75871772
-2.4265845 -3.4905941 -0.75798053
-2.4400342 -3.4643886 -0.75540042
-2.4526832 -3.4373496 -0.75263602
-2.4679711 -3.4142694 -0.75079304
-2.4911966 -3.4022343 -0.75153023
-2.5143671 -3.3900425 -0.75226742
-2.5209541 -3.3556895 -0.74784434
-2.5409017 -3.339376 -0.74766004
-2.5655429 -3.3291724 -0.74895012
-2.5744338 -3.298645 -0.74544853
-2.5909693 -3.2781596 -0.74434274
-2.6042798 -3.2537587 -0.74231553
-2.5852108 -3.1896095 -0.73070496
-2.6259313 -3.1995206 -0.73697096
-2.6392326 -3.1757882 -0.73512805
-2.6599348 -3.1610386 -0.73549658
-2.6448631 -3.104255 -0.72554469
-2.6535897 -3.0760596 -0.72259599
-2.6782324 -3.0663824 -0.72425467
-2.6865807 -3.0381098 -0.72130597
-2.6979609 -3.0135124 -0.71927869
-2.7012203 -2.9801502 -0.71503991
-2.7081594 -2.9512076 -0.71190691
-2.7094944 -2.9165316 -0.70729953
-2.7212791 -2.8934071 -0.70564091
-2.7200065 -2.8567224 -0.70048064
-2.724525 -2.8265324 -0.69697905
-2.734267 -2.8020232 -0.69495183
-2.7431204 -2.7768018 -0.69274032
-2.7559371 -2.7557478 -0.69163454
-2.7644038 -2.7304966 -0.68942302
-2.7670372 -2.699754 -0.68573713
-2.7722285 -2.6718109 -0.68278837
-2.7679281 -2.6350951 -0.67744386
-2.7912042 -2.6247957 -0.67928678
-2.8014965 -2.6022677 -0.67781246
-2.797859 -2.567086 -0.67283648
-2.8121011 -2.5485501 -0.67246789
-2.8262212 -2.5299363 -0.67209929
-2.8343289 -2.506036 -0.67025638
-2.8392889 -2.4795456 -0.66767627
-2.848496 -2.4569411 -0.66620189
-2.8597772 -2.4362295 -0.6652804
-2.8686557 -2.4135735 -0.66380608
-2.8803875 -2.3934135 -0.66306889
-2.884383 -2.3669646 -0.66048878
-2.8935072 -2.3448894 -0.6591987
-2.8994002 -2.3203349 -0.65717149
-2.9020166 -2.2933586 -0.65440702
-2.9082859 -2.2694614 -0.65256411
-2.9198208 -2.249774 -0.65201122
-2.9320059 -2.2306254 -0.65164262
-2.9362078 -2.2055085 -0.64943111
-2.95679 -2.1927207 -0.65108973
-2.9598799 -2.1669879 -0.64869392
-2.9651551 -2.1430273 -0.646851
-2.9742484 -2.1219387 -0.64592952
-2.9823911 -2.1002531 -0.64482373
-2.9903798 -2.0785475 -0.64371794
-3.0006459 -2.0584915 -0.64316511
-3.0075233 -2.0361834 -0.64187503
-3.018326 -2.0165989 -0.64150643
-3.0240788 -1.9937123 -0.64003211
-3.0304883 -1.9713671 -0.63874203
-3.0326018 -1.9463636 -0.63653052
-3.0361841 -1.9224603 -0.63468754
-3.042088 -1.900149 -0.63339746
-3.0469959 -1.8773221 -0.63192314
-3.0534182 -1.8555276 -0.63081735
-3.06306 -1.8357466 -0.63044876
-3.0666516 -1.812416 -0.62879014
-3.0717707 -1.7901005 -0.62750006
-3.0758793 -1.7673007 -0.62602574
-3.0892308 -1.7498477 -0.62657857
-3.0973351 -1.7294219 -0.62602574
-3.1078885 -1.7103844 -0.62602574
-3.1191885 -1.6917512 -0.62620997
-3.1199756 -1.6674832 -0.62418276
-3.1188433 -1.6423534 -0.62178695
-3.1175208 -1.6173004 -0.61939108
-3.1160085 -1.5923257 -0.61699528
-3.1222086 -1.5714084 -0.61625808
-3.1282694 -1.550475 -0.61552089
-3.1324246 -1.5286641 -0.61441517
-3.143517 -1.5102667 -0.61478376
-3.1482823 -1.4888484 -0.61386228
-3.1457748 -1.4641101 -0.61146647
-3.1555929 -1.4451898 -0.61165076
-3.1581285 -1.4229733 -0.61036068
-3.1676989 -1.4039669 -0.61054498
-0.22743905 -0.098744966 -0.0073492429
-0.24972093 -0.10664283 -0.011772309
-0.28025883 -0.11770639 -0.017854027
-0.28369987 -0.11711311 -0.018406911
-0.26802737 -0.10869918 -0.01508961
-0.26321381 -0.10486245 -0.013983843
-0.25927827 -0.10144837 -0.013062371
-0.28648853 -0.11011548 -0.018406911
-0 -0 -0
-0 -0 -0
-0 -0 -0
-0 -0 -0
-0 -0 -0
-0 -0 -0
-0 -0 -0
-0 -0 -0
-0 -0 -0
-0 -0 -0
-0 -0 -0
-0 -0 -0
-0 -0 -0
-0 -0 -0
-0 -0 -0
-0 -0 -0
-0 -0 -0
-0 -0 -0
-0 -0 -0
-0 -0 -0
-0 -0 -0
-0 -0 -0
-0 -0 -0
-0 -0 -0
-0 -0 -0
-0 -0 -0
-0 -0 -0
-0 -0 -0
-0 -0 -0
-0 -0 -0
-0 -0 -0
-0 -0 -0
-0 -0 -0
-0 -0 -0
-0 -0 -0
-0 -0 -0
-0 -0 -0
-0 -0 -0
-0 -0 -0
-0 -0 -0
-0 -0 -0
-0 -0 -0
-0 -0 -0
-0 -0 -0
-0 -0 -0
-0 -0 -0
-0 -0 -0
-0 -0 -0
-0 -0 -0
-0 -0 -0
-0 -0 -0
-0 -0 -0
-0 -0 -0
-0 -0 -0
-0 -0 -0
-0.2809779 0.019659141 -0.017145064
-0 0 -0
-0 0 -0
-0.27568698 0.02437531 -0.016161911
-0.26967791 0.025487643 -0.014982127
-0 0 -0
-0 0 -0
-0 0 -0
-0.26799813 0.03197781 -0.014785497
-0.26876917 0.033747964 -0.014982127
-0 0 -0
-0 0 -0
-0 0 -0
-0.27367344 0.041234769 -0.016161911
-0.27051139 0.042444874 -0.015572019
-0.27024585 0.044103898 -0.015572019
-0.26997015 0.045761269 -0.015572019
-0 0 -0
-0.2703521 0.049250595 -0.015768649
-0.27389571 0.051651455 -0.016555173
-0.27741989 0.05409763 -0.017341696
-0.27708274 0.055798825 -0.017341696
-0 0 -0
-0 0 -0
-0 0 -0
-0 0 -0
-0.28287163 0.066087238 -0.018914741
-0.2805559 0.067356162 -0.01852148
-0.27443129 0.067644812 -0.017341696
-0.27211201 0.068838581 -0.016948434
-0 0 -0
-0.2684074 0.071404472 -0.016358541
-0.26985395 0.073573753 -0.016751803
-0.26939744 0.075228162 -0.016751803
-0.27175552 0.077700034 -0.017341696
-0.27597305 0.080762051 -0.018324848
-0.27641046 0.082738832 -0.01852148
-0.27683398 0.084724016 -0.01871811
-0.27630892 0.086421043 -0.01871811
-0.27390793 0.087510444 -0.018324848
-0.27243495 0.08888156 -0.018128218
-0.2672396 0.088983469 -0.017145064
-0.26205343 0.089025028 -0.016161911
-0.26242733 0.090956271 -0.016358541
-0.2600182 0.09190347 -0.015965281
-0.26313338 0.094842434 -0.016751803
-0.26530322 0.097481079 -0.017341696
-0.26470008 0.099107109 -0.017341696
-0.26957488 0.10284866 -0.01852148
-0.27076367 0.10521843 -0.018914741
-0.27102321 0.10724223 -0.019111371
-0.27217606 0.10964315 -0.019504633
-0.26878107 0.11018448 -0.018914741
-0.26629317 0.11106942 -0.01852148
-0.26560664 0.11270127 -0.01852148
-0.26131555 0.11276026 -0.017734956
-0.26061878 0.11436154 -0.017734956
-0.25812462 0.11515221 -0.017341696
-0.26097828 0.11836839 -0.018128218
-0.26469079 0.12203795 -0.019111371
-0.26482317 0.12407929 -0.019308003
-0.26670766 0.12697679 -0.019897895
-0.26768544 0.12947164 -0.020291155
-0.266886 0.1311117 -0.020291155
-0.26870334 0.13407028 -0.020881047
-0.26787564 0.1357165 -0.020881047
-0.26703787 0.13735759 -0.020881047
-0.26792473 0.13990793 -0.02127431
-0.2661967 0.14108673 -0.021077678
-0.26704934 0.14365305 -0.02147094
-0.2644453 0.14434275 -0.021077678
-0.26013118 0.14404924 -0.020291155
-0.25753656 0.14467548 -0.019897895
-0.25579405 0.14576416 -0.019701263
-0.25235409 0.14584887 -0.019111371
-0.25145441 0.14739454 -0.019111371
-0.25306767 0.15044779 -0.019701263
-0.25632823 0.15454538 -0.020684417
-0.2587133 0.15817392 -0.02147094
-0.26522022 0.1644363 -0.023240617
-0.26669076 0.16763514 -0.023830509
-0.26648208 0.1697983 -0.024027139
-0.26461354 0.17089522 -0.023830509
-0.25864977 0.16927555 -0.022650724
-0.2559762 0.16976936 -0.022257462
-0.254118 0.17078678 -0.022060832
-0.25306529 0.17234281 -0.022060832
-0.25361279 0.17501222 -0.022454094
-0.25573981 0.17882451 -0.023240617
-0.25862741 0.18323919 -0.024223769
-0.26067591 0.18712127 -0.025010291
-0.26031372 0.18929675 -0.025206923
-0.26072195 0.19205917 -0.025600184
-0.25718746 0.19188777 -0.025010291
-0.25678527 0.19405621 -0.025206923
-0.25326049 0.19383189 -0.024617031
-0.25052091 0.19417521 -0.024223769
-0.25009379 0.19631696 -0.024420401
-0.2488845 0.19784781 -0.024420401
-0.24918883 0.20060647 -0.024813661
-0.25098398 0.20462084 -0.025600184
-0.24972373 0.206157 -0.025600184
-0.25295407 0.21147464 -0.026779968
-0.25389004 0.21493115 -0.027369861
-0.25553522 0.21904773 -0.028156383
-0.25861579 0.22448297 -0.029336167
-0.25870207 0.22736509 -0.02972943
-0.26314428 0.23418218 -0.031302474
-0.26605988 0.23974469 -0.032482259
-0 0 -0
-0.27099693 0.25033501 -0.034645196
-0 0 -0
-0 0 -0
-0 0 -0
-0 0 -0
-0 0 -0
-0 0 -0
-0 0 -0
-0 0 -0
-0 0 -0
-0 0 -0
-0 0 -0
-0 0 -0
-0 0 -0
-0 0 -0
-0 0 -0
-0 0 -0
-0 0 -0
-0 0 -0
-0 0 -0
-0 0 -0
-0 0 -0
-0 0 -0
-0 0 -0
-0 0 -0
-2.502846 3.1673739 -0.7702406
-2.4863789 3.1865373 -0.77122378
-2.4679763 3.2032871 -0.77161705
-2.4559891 3.2285168 -0.77417326
-0 0 -0
-2.4056773 3.2442331 -0.77063388
-2.3880415 3.2620983 -0.77142042
-2.3748696 3.2862277 -0.77377999
-2.3660445 3.316705 -0.77771258
-2.3495989 3.3367732 -0.77908903
-2.3201311 3.3382428 -0.77594292
-2.3090291 3.3661637 -0.77928561
-2.2927265 3.386765 -0.7808587
-2.2637362 3.3885376 -0.77790922
-2.2488353 3.4113703 -0.78007215
-2.2305331 3.429215 -0.78105533
-2.2068033 3.43871 -0.78007215
-2.1872349 3.4546716 -0.78066206
-2.1644387 3.4655321 -0.78007215
-2.1570129 3.5012906 -0.7853812
-2.1395602 3.5211642 -0.78695422
-2.1143882 3.528338 -0.78557783
-2.096189 3.5471549 -0.78695422
-2.0640233 3.5421569 -0.78282499
-2.0456674 3.5607071 -0.78420138
-2.0170195 3.5612459 -0.7814486
-1.9860535 3.5572867 -0.77771258
-1.9802524 3.5986168 -0.78439802
-1.9408491 3.5788047 -0.77712268
-1.9146966 3.5828624 -0.77535301
-1.9095691 3.6266479 -0.78262836
-1.8872805 3.6382966 -0.78262836
-1.8591244 3.6384563 -0.78007215
-1.8341212 3.6445394 -0.7788924
-1.8339156 3.7005353 -0.78892052
-1.8085967 3.7064304 -0.78774077
-1.7832745 3.7121546 -0.78656095
-1.7550182 3.7115023 -0.78400475
-1.7202222 3.6964185 -0.77830249
-1.6885338 3.6872895 -0.77397662
-1.6743295 3.7163558 -0.77810585
-1.635615 3.6906991 -0.7702406
-1.6219428 3.7213409 -0.77476311
-1.6122013 3.7618675 -0.7814486
-1.5928929 3.7807257 -0.7834149
-1.5764126 3.806736 -0.78695422
-1.5497013 3.8081627 -0.78518456
-1.5303068 3.8276155 -0.7873475
-1.5071503 3.8378458 -0.78754413
-1.4835733 3.8470213 -0.78754413
-1.4637566 3.8661394 -0.78970706
-1.4331813 3.8566649 -0.78577447
-1.399757 3.83867 -0.78007215
-1.3801367 3.8582659 -0.78243172
-1.3541667 3.8601847 -0.78105533
-1.33173 3.8721299 -0.78184181
-1.3110752 3.8895204 -0.78380817
-1.2874922 3.898423 -0.78400475
-1.2581208 3.889456 -0.78046542
-1.2315699 3.8886893 -0.77869576
-1.2001456 3.8718212 -0.77358335
-1.1834728 3.9025712 -0.77849913
-1.1608973 3.9144599 -0.77948225
-1.1379477 3.9252765 -0.78026879
-1.1143751 3.9340718 -0.78066206
-1.0868201 3.9285498 -0.77810585
-1.0632052 3.9370377 -0.77849913
-1.0387784 3.942539 -0.77830249
-1.0140805 3.9469392 -0.77790922
-0.98817825 3.946429 -0.77653283
-0.96348071 3.9505126 -0.77613956
-0.94035363 3.9611204 -0.77712268
-0.91669196 3.969682 -0.77771258
-0.89274615 3.9771454 -0.77810585
-0.86999482 3.9902124 -0.77967888
-0.84711665 4.00315 -0.78125197
-0.82863933 4.0380483 -0.7873475
-0.80079192 4.0276694 -0.78420138
-0.77569348 4.0305815 -0.78380817
-0.75023127 4.0314093 -0.78302163
-0.7253077 4.0349717 -0.78282499
-0.69869596 4.0287189 -0.78066206
-0.67412442 4.0338974 -0.7808587
-0.65013719 4.042798 -0.78184181
-0.6245715 4.0418663 -0.7808587
-0.59961581 4.0446525 -0.78066206
-0.57437438 4.0453434 -0.78007215
-0.5475679 4.0342174 -0.77712268
-0.52431166 4.04917 -0.77948225
-0.49622571 4.0260358 -0.77417326
-0.4713994 4.0280309 -0.77397662
-0.446675 4.0308475 -0.77397662
-0.42071304 4.0218101 -0.77161705
-0.39554906 4.0194368 -0.77063388
-0.37007102 4.013001 -0.76886421
-0.34510571 4.0112886 -0.76807767
-0.31862009 3.9898734 -0.76335853
-0.29384559 3.9878418 -0.76257205
-0.26956844 3.9925046 -0.7631619
-0.2452451 3.9970195 -0.7637518
-0.220984 4.0033441 -0.76473498
-0.19675002 4.0114799 -0.76611137
-0.17150627 3.9979177 -0.7631619
-0.14675793 3.9930158 -0.76198214
-0.12219507 3.9918811 -0.76158887
-0.097390957 3.9798131 -0.75903267
-0.072916403 3.9773948 -0.75844276
-0.048498522 3.9767871 -0.75824612
-0.024062589 3.971127 -0.75706637
0.00030969532 3.9859071 -0.76001585
0.024677439 3.9721036 -0.757263
0.049173299 3.9816816 -0.7592293
0.073750801 3.9891472 -0.76080233
0.098201931 3.9876394 -0.76060569
0.1224547 3.9801018 -0.7592293
0.14665513 3.9733968 -0.75804955
0.17073543 3.9655652 -0.7566731
0.19559768 3.975215 -0.75883603
0.22014889 3.9768767 -0.75942594
0.24484883 3.9803443 -0.76040912
0.2690677 3.9758322 -0.75981921
0.29353037 3.9750843 -0.76001585
0.31705213 3.9624577 -0.75785291
0.34042999 3.9496925 -0.75568998
0.36339179 3.9338613 -0.75293714
0.38732973 3.929606 -0.75254387
0.41030708 3.9164293 -0.75038093
0.43411326 3.9118891 -0.74998766
0.4597097 3.9227846 -0.7527405
0.48545614 3.9335129 -0.75549334
0.51008797 3.9343493 -0.75627983
0.53408676 3.9301739 -0.75608319
0.55957454 3.9365296 -0.75804955
0.58256429 3.9252636 -0.75647646
0.60543692 3.9138639 -0.75490344
0.62834775 3.9032996 -0.75352705
0.65082765 3.8906677 -0.75175732
0.67267227 3.8750091 -0.74939775
0.69695795 3.8737035 -0.74998766
0.71801603 3.8548965 -0.74703819
0.74202722 3.8523438 -0.74743146
0.76584244 3.8486798 -0.74762809
0.78786278 3.8362253 -0.74605507
0.80813181 3.8159726 -0.74290895
0.83090305 3.8080685 -0.74231905
0.85253185 3.7952459 -0.74074602
0.87558192 3.7889881 -0.74054939
0.89972186 3.7873597 -0.74133593
0.92340922 3.7836728 -0.7417292
0.94422209 3.7684255 -0.73976284
0.97245979 3.782501 -0.74389213
0.99865335 3.7878389 -0.7462517
1.0236686 3.7882652 -0.74762809
1.0458463 3.7781334 -0.74684155
1.0724883 3.7839072 -0.74939775
1.0981466 3.7857294 -0.75116748
1.1196795 3.7732809 -0.74998766
1.1433808 3.7682159 -0.75038093
1.1673528 3.7639384 -0.75097084
1.1868684 3.7454898 -0.74861127
1.1983448 3.7026923 -0.74113929
1.2034911 3.6422098 -0.72993135
1.2414972 3.6812053 -0.73976284
1.2506504 3.634583 -0.73150438
1.2839777 3.6582925 -0.73818982
1.3083844 3.6558836 -0.73936963
1.3274287 3.6385767 -0.73740327
1.3531492 3.6395524 -0.73936963
1.3726749 3.6238468 -0.73779655
1.3920588 3.6080387 -0.73622352
1.4188358 3.6112914 -0.73877972
1.4406031 3.6016073 -0.73858309
1.4552754 3.5745404 -0.73465049
1.4816875 3.576412 -0.73701006
1.5036041 3.5672534 -0.73701006
1.5258507 3.5588613 -0.7372067
1.5480509 3.5503304 -0.73740327
1.5670224 3.5344913 -0.73602688
1.5822297 3.5105097 -0.73288077
1.6000624 3.4927137 -0.73111111
1.6239477 3.4881628 -0.73229092
1.6423833 3.4719293 -0.73091447
1.6649307 3.4644372 -0.73150438
1.6852959 3.4523942 -0.73111111
1.7064477 3.4419885 -0.73111111
1.7248883 3.4261994 -0.72993135
1.7516834 3.426899 -0.73248756
1.7726775 3.4160862 -0.73248756
1.7917761 3.4016757 -0.73170102
1.8135396 3.3923466 -0.73209429
1.8296424 3.3725383 -0.73012799
1.8498284 3.3603895 -0.72993135
1.8689774 3.3464084 -0.72934145
1.8880247 3.3323188 -0.72875154
1.9030589 3.311322 -0.72658861
1.923835 3.3004296 -0.72678524
1.9580277 3.3121915 -0.73229092
1.982349 3.3068414 -0.73386395
1.999545 3.2895894 -0.73268414
2.0176332 3.2739203 -0.73189765
2.0340452 3.2556591 -0.7305212
2.0539834 3.2431173 -0.7305212
2.0706644 3.2255037 -0.72934145
2.0925567 3.2160242 -0.73012799
2.1133306 3.2047608 -0.7305212
2.1231444 3.1770625 -0.72698188
2.1508486 3.1761506 -0.72993135
