# .PCD v0.7 - Point Cloud Data file format
VERSION 0.7
FIELDS x y z
SIZE 4 4 4
TYPE F F F
COUNT 1 1 1
WIDTH 1612
HEIGHT 1
VIEWPOINT 0 0 0 1 0 0 0
POINTS 1612
DATA ascii
3.3260965 -1.6993088 -0.75369149
3.3164756 -1.7201356 -0.75389922
3.2911434 -1.7327075 -0.75036758
3.2856264 -1.7556343 -0.75161403
3.2696326 -1.7729644 -0.75036758
3.2595494 -1.7934645 -0.75057536
3.2544627 -1.8167679 -0.75202954
3.2483611 -1.8395945 -0.75327599
3.2404056 -1.8614399 -0.75410694
3.2458279 -1.8911347 -0.75826174
3.2341628 -1.9110152 -0.75826174
3.2248936 -1.9323317 -0.75888497
3.2012718 -1.9449733 -0.75597662
3.1909432 -1.9656053 -0.75639212
3.1738441 -1.9820392 -0.75514567
3.1500511 -1.9941524 -0.75223726
3.1369326 -2.0129151 -0.75202954
3.1220622 -2.0305254 -0.75140631
3.1030102 -2.0453377 -0.74974442
3.0944691 -2.0670552 -0.75078309
3.0865884 -2.089293 -0.75202954
3.0769374 -2.1104054 -0.75286049
3.0743737 -2.1365011 -0.75556111
3.0692053 -2.1609554 -0.75763851
3.0582774 -2.1814511 -0.75826174
3.051178 -2.2047577 -0.7599237
3.0344348 -2.2211273 -0.75909275
3.0183916 -2.2379568 -0.75846952
3.0046029 -2.2564352 -0.75846952
2.9875867 -2.2724602 -0.75763851
2.9619625 -2.2817957 -0.75452244
2.9548473 -2.3053415 -0.75639212
2.9368086 -2.3203971 -0.75535339
2.9332094 -2.3469279 -0.75826174
2.9172337 -2.3636501 -0.7578463
2.9041882 -2.3827462 -0.75826174
2.8887608 -2.3998961 -0.75805402
2.8635001 -2.4087615 -0.75514567
2.862072 -2.4377017 -0.75888497
2.850024 -2.457772 -0.75971597
2.8312051 -2.4719968 -0.75867724
2.814518 -2.4880266 -0.75826174
2.8086753 -2.5137289 -0.76096243
2.7815993 -2.5204077 -0.75763851
2.7631984 -2.5347831 -0.75680757
2.7468765 -2.5510244 -0.75659984
2.7311721 -2.5678308 -0.75659984
2.7011924 -2.5710542 -0.75244504
2.6797302 -2.5821507 -0.75078309
2.6659369 -2.6005936 -0.75140631
2.6457534 -2.6127789 -0.75015986
2.6386659 -2.6379535 -0.75286049
2.6217422 -2.6533985 -0.75265276
2.6074619 -2.6715353 -0.75327599
2.5950947 -2.6917088 -0.75452244
2.5792046 -2.7082896 -0.75473017
2.555835 -2.7169402 -0.75265276
2.5377843 -2.7311385 -0.75223726
2.5156865 -2.7408938 -0.75057536
2.49685 -2.7541044 -0.74995214
2.4746833 -2.7635436 -0.74829018
2.4641612 -2.7860024 -0.75036758
2.4470203 -2.8010697 -0.75036758
2.4278698 -2.8138101 -0.74974442
2.4175389 -2.836843 -0.75202954
2.3981969 -2.8493783 -0.75140631
2.3844206 -2.8685529 -0.75265276
2.3704989 -2.8876655 -0.75389922
2.3558164 -2.9059551 -0.75493789
2.3422213 -2.9257004 -0.75639212
2.3278656 -2.9446206 -0.75763851
2.3127639 -2.9627037 -0.75867724
2.287972 -2.9683173 -0.75639212
2.2637906 -2.9745169 -0.75431466
2.2437336 -2.9860053 -0.75369149
2.2172091 -2.9887187 -0.75078309
2.1965168 -2.9991107 -0.74995214
2.1752071 -3.0085685 -0.74891341
2.1606843 -3.0274317 -0.75036758
2.1398139 -3.0374341 -0.74953663
2.1306312 -3.0641584 -0.75306827
2.1090219 -3.0731418 -0.75202954
2.1032927 -3.1054609 -0.75701535
2.0880039 -3.1240005 -0.75846952
2.0693347 -3.1375699 -0.75867724
2.0569811 -3.1608655 -0.76137787
2.0375476 -3.1734276 -0.76137787
2.0222256 -3.1924803 -0.76303983
2.0020804 -3.2039988 -0.76283205
1.97879 -3.2103944 -0.76137787
1.9636282 -3.2299979 -0.76324755
1.9402506 -3.2361133 -0.76179338
1.9208556 -3.2487996 -0.7620011
1.9023635 -3.2630594 -0.76262432
1.8837687 -3.2772148 -0.76324755
1.8670011 -3.2946687 -0.76470172
1.845796 -3.3043544 -0.76428628
1.8231267 -3.3113337 -0.76324755
1.8041742 -3.325037 -0.76387078
1.7809703 -3.3308692 -0.76262432
0 -0 -0
0 -0 -0
1.7180221 -3.3604739 -0.7620011
1.7013303 -3.3788149 -0.76387078
1.6792624 -3.3865616 -0.76324755
1.6588805 -3.3976805 -0.76345527
1.6384254 -3.4086769 -0.76366305
0 -0 -0
0 -0 -0
0 -0 -0
0 -0 -0
1.5291277 -3.4483895 -0.76158559
1.5071577 -3.4559138 -0.76117015
1.483225 -3.4588039 -0.75971597
1.4634945 -3.4714448 -0.76054692
1.4451631 -3.4875884 -0.76220882
0 -0 -0
0 -0 -0
0 -0 -0
1.3559678 -3.5137911 -0.7603392
1.335422 -3.5247891 -0.76096243
1.3120639 -3.5283327 -0.7599237
1.2924023 -3.5418303 -0.76117015
1.2653695 -3.5349588 -0.7578463
0 -0 -0
1.2187104 -3.5409718 -0.7557689
1.1903927 -3.5289192 -0.75140631
1.167796 -3.5333707 -0.75078309
1.1388612 -3.5181351 -0.74579734
1.1252352 -3.5502326 -0.75140631
1.0982116 -3.5402539 -0.74766695
1.0801628 -3.5590937 -0.75036758
1.0527357 -3.5469 -0.74621278
1.0394052 -3.5824146 -0.75265276
1.0232761 -3.6094282 -0.75722307
0.98204803 -3.5468228 -0.74205798
0.97456521 -3.6056609 -0.75369149
0.95267248 -3.6125188 -0.75389922
0.92585778 -3.600297 -0.74995214
0.90422517 -3.6078076 -0.75036758
0.88114274 -3.6094871 -0.74953663
0.8544538 -3.5957925 -0.74538183
0.83369678 -3.6066859 -0.74662828
0.81476915 -3.6260488 -0.74974442
0.79521775 -3.6434035 -0.75244504
0.77061623 -3.6376882 -0.75015986
0.75418973 -3.6710925 -0.75639212
0.73031265 -3.6689358 -0.75493789
0.70926815 -3.6810317 -0.75659984
0.68379998 -3.6699286 -0.75327599
0.66057533 -3.6702044 -0.75244504
0.63871282 -3.6780436 -0.75327599
0.61661738 -3.6847875 -0.75389922
0.59477448 -3.6933303 -0.75493789
0.57509536 -3.7162435 -0.75909275
0.55357593 -3.7284105 -0.76096243
0.53123969 -3.7356105 -0.76179338
0.50791276 -3.7358921 -0.76117015
0.48586172 -3.7457285 -0.76262432
0.46262926 -3.7466977 -0.76220882
0.43871912 -3.7416937 -0.76054692
0.41650864 -3.7511206 -0.7620011
0.39246351 -3.7438772 -0.7599237
0.36900356 -3.7413476 -0.75888497
0.34613028 -3.7445152 -0.75909275
0.32281122 -3.7426703 -0.75826174
0.30015326 -3.7484808 -0.75909275
0.2779415 -3.7609828 -0.76137787
0.25406483 -3.750906 -0.75888497
0.23122557 -3.7553234 -0.75950819
0.20817898 -3.7566714 -0.75950819
0.1848834 -3.7529931 -0.75846952
0.16206317 -3.7589431 -0.75950819
0.13881448 -3.7549794 -0.75846952
0.11565078 -3.7518494 -0.75763851
0.092845857 -3.7612894 -0.75950819
0.06976527 -3.7617884 -0.75950819
0.046645343 -3.7592113 -0.75888497
0.023578377 -3.7594266 -0.75888497
0.00050935097 -3.7546096 -0.7578463
-0.022597717 -3.7662802 -0.7603392
-0.04549491 -3.7484646 -0.75659984
-0.068725213 -3.7608292 -0.75930047
-0.091514677 -3.7486019 -0.75680757
-0.11472234 -3.7548139 -0.75826174
-0.13761622 -3.7501292 -0.75743079
-0.16104165 -3.7589872 -0.75950819
-0.18343465 -3.7442501 -0.75659984
-0.20667426 -3.7479374 -0.75763851
-0.22948804 -3.7436697 -0.75701535
-0.25271741 -3.7460949 -0.7578463
-0.27569824 -3.7444739 -0.7578463
-0.29866871 -3.7427118 -0.7578463
-0.3220464 -3.7456818 -0.75888497
-0.3444854 -3.7377908 -0.75763851
-0.36750922 -3.7365801 -0.7578463
-0.3892101 -3.7225802 -0.75535339
-0.41322753 -3.7308166 -0.75763851
-0.43372712 -3.7078078 -0.75327599
-0.45575258 -3.6992517 -0.75202954
-0.47856766 -3.6973557 -0.75223726
-0.49993107 -3.6846564 -0.75015986
-0.52198088 -3.6776457 -0.74932891
-0.54109752 -3.6511505 -0.7443431
-0.56498265 -3.657429 -0.7464205
-0.58803421 -3.6577566 -0.74725151
-0.60917807 -3.6463609 -0.74558955
-0.63287628 -3.650265 -0.74725151
-0.6575098 -3.6588292 -0.74995214
-0.6810205 -3.6604962 -0.75119859
-0.70697761 -3.6744998 -0.75514567
-0.73141664 -3.679687 -0.75722307
-0.75398099 -3.6751299 -0.75722307
-0.77854061 -3.6800046 -0.75930047
-0.79985666 -3.6694236 -0.75805402
-0.82192856 -3.6625378 -0.75763851
-0.84372616 -3.654566 -0.75701535
-0.86410218 -3.6407545 -0.75514567
-0.88804656 -3.6420364 -0.75659984
-0.90729004 -3.6241829 -0.75389922
-0.92659134 -3.6071782 -0.75140631
-0.94746172 -3.5966952 -0.75036758
-0.96951276 -3.5908139 -0.75036758
-0.99257004 -3.5885687 -0.75119859
-1.0143039 -3.5814698 -0.75099081
-1.0376214 -3.5798764 -0.75202954
-1.0590116 -3.5715666 -0.75161403
-1.0797715 -3.5612569 -0.75078309
-1.098129 -3.5433519 -0.74829018
-1.1163076 -3.5253563 -0.74579734
-1.1328024 -3.5026176 -0.7422657
-1.160405 -3.5141788 -0.7464205
-1.1675795 -3.4643509 -0.73686445
-1.1897683 -3.4598968 -0.73748767
-1.2151831 -3.4645314 -0.7401883
-1.2311491 -3.4422727 -0.73686445
-1.2582767 -3.4511964 -0.7406038
-1.2835163 -3.4544146 -0.74309665
-1.312651 -3.4675159 -0.74787474
-1.3349581 -3.4621346 -0.74849796
-1.3601078 -3.4638944 -0.75078309
-1.3704463 -3.4282334 -0.74455088
-1.4076726 -3.4596281 -0.75369149
-1.4326152 -3.4599638 -0.7557689
-1.457235 -3.4592218 -0.75763851
-1.4768922 -3.4466186 -0.75680757
-1.4995753 -3.4410789 -0.75763851
-1.5234344 -3.4380734 -0.75909275
-1.5360664 -3.4099309 -0.75473017
-1.5577747 -3.4022205 -0.75514567
-1.5790335 -3.3934848 -0.75535339
-1.602752 -3.3899229 -0.75680757
-1.6269095 -3.387079 -0.75846952
-1.6510922 -3.3840661 -0.76013142
-1.670957 -3.3721185 -0.75971597
-1.6946936 -3.3679192 -0.76117015
-1.7144369 -3.355715 -0.76075464
-1.7417492 -3.3581579 -0.76387078
-1.7636884 -3.3500044 -0.764494
-1.7823669 -3.3356683 -0.76366305
-1.8014021 -3.3220894 -0.76303983
-1.8142087 -3.2972605 -0.75971597
-1.8367897 -3.2903373 -0.76075464
-1.8603179 -3.2849636 -0.76220882
-1.8833619 -3.2785766 -0.76345527
-1.9083669 -3.2754114 -0.76553267
-1.9314138 -3.2686934 -0.76677912
-1.9584713 -3.2685287 -0.76968753
-1.9764584 -3.2531061 -0.76885659
-1.9948431 -3.2384188 -0.76823336
-2.0146761 -3.2261178 -0.76823336
-2.0339103 -3.2128687 -0.76802558
-2.0509448 -3.1962118 -0.76698691
-2.0726507 -3.1868474 -0.76781785
-2.0840919 -3.1618183 -0.76470172
-2.1061695 -3.1530383 -0.76574045
-2.1298625 -3.1465366 -0.76740235
-2.1480227 -3.1317954 -0.76698691
-2.1744545 -3.1289995 -0.76968753
-2.1879821 -3.1075997 -0.76761013
-2.2024653 -3.0877447 -0.76594818
-2.2196512 -3.0717938 -0.76532495
-2.2344139 -3.0525906 -0.76387078
-2.2490246 -3.0333223 -0.7624166
-2.2611337 -3.0108609 -0.76013142
-2.281934 -3.0000446 -0.76096243
-2.2979114 -2.9828866 -0.76013142
-2.3107562 -2.9617891 -0.75826174
-2.3258541 -2.9437168 -0.75722307
-2.3395953 -2.9240434 -0.7557689
-2.3519514 -2.902792 -0.75389922
-2.3672369 -2.8852808 -0.75306827
-2.381146 -2.8661866 -0.75182182
-2.3949101 -2.8470304 -0.75057536
-2.4091632 -2.8285582 -0.74953663
-2.4245574 -2.8115001 -0.74891341
-2.4359732 -2.7899382 -0.74704373
-2.4511027 -2.7727399 -0.7464205
-2.4602425 -2.7489007 -0.74392766
-2.4672122 -2.7228789 -0.74081153
-2.4739554 -2.6968756 -0.7376954
-2.4791417 -2.6694589 -0.73416382
-2.4894447 -2.6477823 -0.73229414
-2.4989011 -2.6253715 -0.73021674
-2.5054617 -2.6001265 -0.72730833
-2.5193198 -2.5826035 -0.72668517
-2.5282464 -2.5601358 -0.72460771
-2.5390668 -2.5397317 -0.72315353
-2.5490365 -2.5186038 -0.72149163
-2.5616426 -2.5001826 -0.72066063
-2.5635567 -2.4715166 -0.71671355
-2.5737154 -2.4510176 -0.71525937
-2.5794449 -2.4264655 -0.71255875
-2.5885527 -2.4052653 -0.71089685
-2.6011007 -2.3873525 -0.71027362
-2.612077 -2.368062 -0.70923489
-2.6265581 -2.35199 -0.70923489
-2.6380095 -2.3332369 -0.70840394
-2.6500666 -2.3150756 -0.70778072
-2.6642218 -2.2987714 -0.70778072
-2.67381 -2.2785735 -0.70653427
-2.6825025 -2.2577147 -0.70508009
-2.6932962 -2.2387111 -0.70424914
-2.6994221 -2.2159359 -0.70217168
-2.7068896 -2.1944022 -0.70050979
-2.7164855 -2.1746948 -0.69947106
-2.7205706 -2.1507051 -0.69697815
-2.7329447 -2.1333697 -0.69677043
-2.7382367 -2.1105878 -0.69469303
-2.745687 -2.0895991 -0.69323885
-2.7522013 -2.068011 -0.6915769
-2.7554121 -2.0440903 -0.68908405
-2.7686915 -2.0277228 -0.68929178
-2.7747402 -2.0061107 -0.68762982
-2.7846088 -1.9873425 -0.68700659
-2.7927525 -1.9674019 -0.68596792
-2.7983472 -1.9457606 -0.68430597
-2.795717 -1.9185891 -0.68056667
-2.8033874 -1.8986557 -0.67952794
-2.8076658 -1.8765259 -0.67765826
-2.8142281 -1.8560312 -0.67641181
-2.8206444 -1.8355267 -0.67516536
-2.8277385 -1.8155421 -0.67412668
-2.8363464 -1.7965866 -0.67350346
-2.8415103 -1.7755202 -0.67204928
-2.8515186 -1.7575383 -0.6718415
-2.8605773 -1.7389922 -0.67142606
-2.8619659 -1.7158732 -0.66914088
-2.880018 -1.7027617 -0.67101055
-2.8777368 -1.6776668 -0.66789442
-2.8761044 -1.6531519 -0.66498607
-2.8776839 -1.6306499 -0.66290867
-2.8825116 -1.6100993 -0.66166222
-2.8880525 -1.5900229 -0.66062349
-2.8986139 -1.5727388 -0.66083127
-2.9090722 -1.555385 -0.66103899
-2.9125032 -1.5343138 -0.65958482
-2.917522 -1.5141606 -0.65854609
-2.9267578 -1.4962306 -0.65854609
-2.9253998 -1.472964 -0.65605319
-2.9273722 -1.4515092 -0.65439129
-2.9432552 -1.4369539 -0.65605319
-2.9299772 -1.408271 -0.65085971
-2.9350264 -1.3885927 -0.65002871
-2.9381709 -1.3680795 -0.64878225
-2.9411747 -1.3475802 -0.6475358
-2.945821 -1.3278997 -0.64670485
-2.9512308 -1.3086097 -0.64608163
-2.9538252 -1.2881299 -0.64483517
-0.28094545 -0.12008512 -0.025351629
-0.28167698 -0.11835901 -0.025351629
-0.28781971 -0.11887576 -0.026598074
-0.27767271 -0.11267949 -0.024105182
-0.27290991 -0.108793 -0.022858737
-0.26355818 -0.10318 -0.020573586
-0.29612571 -0.11389008 -0.02784452
-0.28584257 -0.10791107 -0.025351629
-0 -0 -0
-0 -0 -0
-0 -0 -0
-0 -0 -0
-0 -0 -0
-0 -0 -0
-0 -0 -0
-0 -0 -0
-0 -0 -0
-0 -0 -0
-0 -0 -0
-0 -0 -0
-0 -0 -0
-0 -0 -0
-0 -0 -0
-0 -0 -0
-0 -0 -0
-0 -0 -0
-0 -0 -0
-0 -0 -0
-0 -0 -0
-0 -0 -0
-0 -0 -0
-0 -0 -0
-0 -0 -0
-0 -0 -0
-0 -0 -0
-0 -0 -0
-0 -0 -0
-0 -0 -0
-0 -0 -0
-0 -0 -0
-0 -0 -0
-0 -0 -0
-0 -0 -0
-0 -0 -0
-0 -0 -0
-0 -0 -0
-0 -0 -0
-0 -0 -0
-0 -0 -0
-0 -0 -0
-0 -0 -0
-0 -0 -0
-0 -0 -0
-0 -0 -0
-0 -0 -0
-0 -0 -0
-0 -0 -0
-0 -0 -0
-0 -0 -0
-0 -0 -0
-0 -0 -0
-0 -0 -0
-0.27381733 0.019082997 -0.022076741
-0.28050229 0.021308238 -0.023614472
-0.28036624 0.023028966 -0.023614472
-0.28021967 0.024748828 -0.023614472
-0.28297511 0.026755197 -0.0242735
-0.2808651 0.028287459 -0.023834148
-0.27874705 0.029794842 -0.023394797
-0.27855897 0.031504642 -0.023394797
-0.27739221 0.033093642 -0.02317512
-0.27718392 0.034795068 -0.02317512
-0.27889857 0.036758147 -0.023614472
-0 0 -0
-0.27167159 0.039174542 -0.022076741
-0 0 -0
-0.26731777 0.041884754 -0.021198036
-0.26898012 0.043846343 -0.021637389
-0.27062836 0.0458299 -0.022076741
-0.27130219 0.047662448 -0.022296418
-0.27292275 0.049683746 -0.022735769
-0.27452865 0.05172671 -0.02317512
-0.27516288 0.053600725 -0.023394797
-0.2729176 0.054895323 -0.022955444
-0 0 -0
-0.27317652 0.0584484 -0.02317512
-0.27471641 0.060551353 -0.023614472
-0.2724387 0.061796296 -0.02317512
-0.27300352 0.063692383 -0.023394797
-0.27355531 0.065597728 -0.023614472
-0.27314767 0.067274995 -0.023614472
-0.27367455 0.06919276 -0.023834148
-0.27041492 0.070124216 -0.02317512
-0.26903778 0.071527526 -0.022955444
-0.26953402 0.073437348 -0.02317512
-0.26813978 0.074823648 -0.022955444
-0.27048635 0.077283211 -0.023614472
-0.27187753 0.079496719 -0.024053825
-0.27418515 0.082013562 -0.024712851
-0.27554029 0.084272586 -0.025152205
-0.27966782 0.087435745 -0.026250584
-0.28283858 0.090352155 -0.027129287
-0.27579495 0.089942507 -0.025591556
-0.27616227 0.09194494 -0.025811231
-0.27190313 0.09236753 -0.024932528
-0.26764932 0.092741363 -0.024053825
-0.26523829 0.093724199 -0.023614472
-0.26282531 0.094680965 -0.02317512
-0.26406816 0.096972026 -0.023614472
-0.26255593 0.098244801 -0.023394797
-0.2637684 0.10055652 -0.023834148
-0.26314646 0.10217308 -0.023834148
-0.26704335 0.10559792 -0.024932528
-0.27090794 0.10907436 -0.026030907
-0.2684311 0.10998754 -0.025591556
-0.27044797 0.11276964 -0.026250584
-0.2724407 0.11558059 -0.026909612
-0.27530321 0.11881023 -0.027788315
-0.27635264 0.12128825 -0.028227666
-0.27293515 0.1217787 -0.027568638
-0.27040905 0.12263824 -0.027129287
-0.2678827 0.12347139 -0.026689935
-0.2644746 0.12386092 -0.026030907
-0.25931337 0.12336794 -0.024932528
-0.25767487 0.12452865 -0.024712851
-0.2604019 0.12784116 -0.025591556
-0.26222655 0.13075294 -0.026250584
-0.26402515 0.13369189 -0.026909612
-0.26493162 0.13620831 -0.027348964
-0.26754326 0.13965039 -0.028227666
-0.27012247 0.14312959 -0.029106371
-0.26838171 0.14431901 -0.028886694
-0.26834571 0.14643362 -0.029106371
-0.26999718 0.14950483 -0.029765399
-0.27077225 0.15212074 -0.030204751
-0.27237105 0.15523797 -0.030863779
-0.26888511 0.15543208 -0.030204751
-0.26624686 0.15608586 -0.029765399
-0.26612079 0.15821829 -0.029985074
-0.26181063 0.15782087 -0.029106371
-0.25834596 0.15788852 -0.028447343
-0.25902691 0.16050479 -0.028886694
-0.25803718 0.16209112 -0.028886694
-0.26032135 0.1657799 -0.029765399
-0.26093453 0.16843842 -0.030204751
-0.25745299 0.1684248 -0.029545723
-0.25722578 0.17054349 -0.029765399
-0.2561745 0.17211859 -0.029765399
-0.25672224 0.17479134 -0.030204751
-0.25884867 0.17859125 -0.031083453
-0.25854549 0.18073805 -0.03130313
-0.26219586 0.18572176 -0.032621186
-0.26421356 0.18961363 -0.033499889
-0.26147109 0.19007827 -0.033060536
-0.25951639 0.19109775 -0.032840863
-0.25677916 0.19151433 -0.03240151
-0.2524941 0.19072279 -0.031522807
-0.25131908 0.19226848 -0.031522807
-0.24936566 0.19320658 -0.03130313
-0.24894074 0.19533807 -0.031522807
-0.25230676 0.20052034 -0.032840863
-0.25561839 0.20575114 -0.034158919
-0.25661314 0.20917284 -0.034817945
-0.25757542 0.21261443 -0.035476971
-0.25925142 0.21670389 -0.036355678
-0.25791687 0.21829054 -0.036355678
-0.25583401 0.21923162 -0.036136001
-0.25154537 0.21822973 -0.035257298
-0.25312445 0.22235459 -0.036136001
-0.25538898 0.22715779 -0.037234381
-0 0 -0
-0.26623726 0.24280936 -0.041408222
-0 0 -0
-0 0 -0
-0 0 -0
-0 0 -0
-0 0 -0
-0 0 -0
-0 0 -0
-0 0 -0
-0 0 -0
-0 0 -0
-0 0 -0
-0 0 -0
-0 0 -0
-0 0 -0
-0 0 -0
-0 0 -0
-0 0 -0
-0 0 -0
-0 0 -0
-0 0 -0
-0 0 -0
-0 0 -0
-0 0 -0
-0 0 -0
-0 0 -0
-0 0 -0
-0 0 -0
-0 0 -0
-0 0 -0
-0 0 -0
-0 0 -0
-0 0 -0
-2.1550722 2.9808068 -0.78852612
-2.14184 3.0011222 -0.79050314
-2.1228237 3.0134101 -0.7902835
-2.1015103 3.022373 -0.78918511
-2.0796154 3.0303833 -0.78786707
-2.058248 3.039047 -0.78676867
-0 0 -0
-2.0030832 3.0371952 -0.77951938
-1.9923872 3.0616965 -0.7828145
-1.9756708 3.0771482 -0.78369319
-1.9515349 3.0809696 -0.78149647
-1.9377606 3.101161 -0.78369319
-1.9166493 3.1096699 -0.7828145
-1.8868961 3.1038623 -0.77820134
-1.8743335 3.126261 -0.78105712
-1.8541235 3.136023 -0.78061777
-1.8309177 3.1405969 -0.77886033
-1.8043245 3.1390827 -0.77556521
-1.7859908 3.1517925 -0.77600455
-1.7685201 3.1660993 -0.77688324
-1.7476493 3.1743269 -0.77622426
-1.7239542 3.1772718 -0.77424717
-1.720976 3.2187669 -0.78215551
-1.6861976 3.200778 -0.77490616
-1.6710175 3.2197244 -0.77710295
-1.6379163 3.2038534 -0.77051264
-1.6322576 3.2417309 -0.77754229
-1.6140684 3.255182 -0.77842098
-1.5833714 3.2431042 -0.77292907
-1.5773796 3.2817793 -0.78017843
-1.5605487 3.2984519 -0.78193581
-1.5460417 3.3203487 -0.78501129
-1.5268575 3.3324337 -0.78567028
-1.5091858 3.3479662 -0.78720802
-1.4862436 3.3518116 -0.78588998
-1.4637009 3.356396 -0.78479159
-1.4400054 3.35814 -0.78303421
-1.4133142 3.3525274 -0.77951938
-1.3915974 3.3584321 -0.77886033
-1.3658175 3.3542562 -0.77578491
-1.3437623 3.3589499 -0.77490616
-1.3202747 3.3598671 -0.77314878
-1.2961249 3.3588023 -0.77095199
-1.2744553 3.3639545 -0.770293
-1.2520918 3.3671386 -0.7691946
-1.2337466 3.3811741 -0.77073234
-1.2156048 3.3960295 -0.77248973
-1.1979727 3.4126303 -0.77468652
-1.1789136 3.4254522 -0.77600455
-1.1544466 3.4224517 -0.77358812
-1.1343427 3.43225 -0.77424717
-1.1108602 3.4317198 -0.77248973
-1.090077 3.4394014 -0.77270943
-1.0683753 3.4441614 -0.77227008
-1.0477883 3.4525192 -0.77270943
-1.028248 3.4644954 -0.77402747
-1.0056132 3.4660542 -0.77292907
-0.9837954 3.4702821 -0.77248973
-0.96092355 3.4706113 -0.77117169
-0.94240677 3.4868026 -0.77358812
-0.91875833 3.4840288 -0.77161103
-0.89857674 3.4943252 -0.77270943
-0.87806648 3.5035586 -0.77358812
-0.85447311 3.50035 -0.77161103
-0.83320451 3.5064762 -0.77183074
-0.8107959 3.5077205 -0.77095199
-0.78904408 3.5116773 -0.77073234
-0.76831287 3.5202656 -0.77161103
-0.7471022 3.5268226 -0.77205038
-0.72623199 3.5351629 -0.77292907
-0.70433682 3.5385957 -0.77270943
-0.68021572 3.5303965 -0.76985365
-0.65836245 3.5335448 -0.76963395
-0.63563365 3.5317566 -0.76831591
-0.6129517 3.5298228 -0.76699787
-0.59079945 3.5306306 -0.76633883
-0.5694344 3.5361156 -0.76677817
-0.54683322 3.5337582 -0.76546013
-0.52514017 3.5370469 -0.76546013
-0 0 -0
-0.48104012 3.5383914 -0.76436174
-0.45906955 3.5393412 -0.76392239
-0.44008622 3.5643613 -0.76897496
-0 0 -0
-0.39126793 3.5239201 -0.75865018
-0.3712604 3.541779 -0.76216495
-0.34875801 3.5362234 -0.76040757
-0.32812726 3.5499542 -0.7630437
-0.30608845 3.5489848 -0.76238465
-0.28430653 3.550796 -0.76238465
-0 0 -0
-0.24025215 3.547204 -0.76084691
-0.2181246 3.542769 -0.75952888
-0.1965971 3.5479369 -0.76040757
-0.17420386 3.5364091 -0.75755179
-0.1520429 3.52669 -0.75513536
-0.13036495 3.5265818 -0.75491565
-0.10857514 3.5224395 -0.75381732
-0.0865798 3.5074348 -0.75030249
-0.065394506 3.526433 -0.75447631
-0.043637682 3.5170128 -0.75227958
-0.022039494 3.5142877 -0.75162053
-0.00047274938 3.5299659 -0.75513536
0.021112593 3.5181959 -0.75249922
0.042760257 3.5228775 -0.75359762
0.064556904 3.5323029 -0.75579435
0.086132959 3.5279391 -0.75491565
0.10862164 3.5546472 -0.76106662
0.12905872 3.5168674 -0.75271893
0.15097202 3.5238066 -0.75447631
0.17172576 3.505275 -0.75052214
0.19236588 3.4885702 -0.74700731
0.2144879 3.4990089 -0.74964345
0.23509555 3.4849734 -0.74678767
0.25589883 3.475682 -0.74503022
0.27792174 3.4827986 -0.74700731
0.29945436 3.4829717 -0.74744672
0.32126909 3.4859257 -0.74854505
0.34265229 3.4838889 -0.74854505
0.36351374 3.4768696 -0.74744672
0.3845174 3.4716647 -0.74678767
0.40558457 3.4673023 -0.74634832
0.42625386 3.4599073 -0.74524993
0.44722432 3.4552917 -0.74481058
0.46815419 3.4505494 -0.74437124
0.49041685 3.4553385 -0.74612862
0.51275587 3.4599843 -0.74788606
0.53323001 3.4519525 -0.74678767
0.55502141 3.4524682 -0.74766636
0.57393986 3.4355271 -0.74459088
0.59450817 3.4290574 -0.74393189
0.61259848 3.4090226 -0.74019736
0.63332558 3.4042406 -0.73997772
0.65253991 3.391669 -0.73800063
0.67524368 3.3971691 -0.74019736
0.69725388 3.3986957 -0.74151546
0.71708357 3.3895814 -0.74041706
0.73994905 3.3946488 -0.74261379
0.76162004 3.393852 -0.74349254
0.78111136 3.3834119 -0.74217445
0.80050325 3.3728607 -0.74085641
0.81956375 3.3612514 -0.73931867
0.83661413 3.341965 -0.73602355
0.85856247 3.3424375 -0.73734158
0.87681568 3.3286169 -0.7353645
0.8941679 3.311873 -0.73272842
0.91551387 3.3100848 -0.73360711
0.93474233 3.3006508 -0.73272842
0.95796806 3.3051593 -0.73514485
0.97850776 3.3001542 -0.7353645
0.99958885 3.2968888 -0.73602355
1.0195103 3.2897615 -0.73580384
1.0390871 3.281584 -0.7353645
1.0580008 3.2714341 -0.73448581
1.0765231 3.2602494 -0.73338741
1.0937004 3.2452631 -0.73141032
1.1158152 3.2449484 -0.73294806
1.1373208 3.2426431 -0.73404646
1.1535786 3.2255003 -0.73163003
1.1766928 3.2275259 -0.73382676
1.1940938 3.2138445 -0.73228908
1.2144825 3.2082818 -0.73272842
1.2316864 3.1943984 -0.73119068
1.2494793 3.182241 -0.73009229
1.2715186 3.1808548 -0.73163003
1.2895402 3.1693788 -0.73075134
1.3093363 3.162308 -0.73097098
1.3332636 3.1650016 -0.73360711
1.3503515 3.1513817 -0.73228908
1.3696625 3.1430368 -0.73228908
1.3901086 3.137249 -0.73294806
1.4077283 3.125103 -0.73206937
1.424032 3.1101983 -0.73053163
1.4435009 3.1022866 -0.73075134
1.4612571 3.0907254 -0.73009229
1.4785032 3.0781841 -0.7292136
1.4977908 3.069931 -0.72943324
1.5144322 3.0563128 -0.7283349
1.5344733 3.049577 -0.72899389
1.5558211 3.0453157 -0.73031199
1.5731291 3.0331147 -0.72965294
1.5967127 3.0328989 -0.73206937
1.6148322 3.0221844 -0.73184967
1.6286923 3.0036445 -0.72965294
1.6461505 2.9918854 -0.7292136
1.665429 2.9834318 -0.72965294
1.6841847 2.9740055 -0.72987258
1.7028873 2.9644613 -0.73009229
1.722519 2.956485 -0.73075134
1.7391376 2.943341 -0.73009229
1.7591717 2.9359612 -0.73097098
1.778167 2.926779 -0.73141032
1.7909725 2.9075089 -0.7292136
1.810847 2.8997741 -0.73009229
1.8327824 2.8952012 -0.73184967
1.8542024 2.8896472 -0.73338741
1.8708338 2.8765802 -0.73294806
1.8965064 2.8772624 -0.73624319
1.9146675 2.8663826 -0.73646289
1.9371433 2.8618498 -0.73843998
1.9519064 2.8458881 -0.73734158
1.9604199 2.821043 -0.73382676
1.9765687 2.8073659 -0.73338741
1.989223 2.7888327 -0.73163003
2.000581 2.7686691 -0.72943324
2.0186846 2.7579157 -0.72987258
2.0326624 2.74156 -0.72877425
2.0523765 2.7329357 -0.72987258
2.0691068 2.7202911 -0.72987258
2.0869505 2.7090893 -0.73031199
2.107136 2.7008469 -0.73163003
2.1254835 2.6901627 -0.73228908
2.1462183 2.6824012 -0.73382676
2.1638656 2.6706975 -0.7342661
2.180831 2.658124 -0.73448581
2.1958525 2.6431921 -0.73404646
2.2120297 2.629669 -0.73404646
2.2205296 2.6071367 -0.73141032
2.244133 2.6023259 -0.73404646
2.2581327 2.5863032 -0.73338741
2.2739596 2.5723989 -0.73338741
2.2936058 2.562758 -0.73470551
2.3132191 2.5529728 -0.73602355
2.3275208 2.5372937 -0.7355842
2.3463662 2.5265377 -0.73668259
2.3631616 2.5135143 -0.73712194
2.3832495 2.5039117 -0.73865968
2.3999228 2.4906459 -0.73909903
2.4158413 2.4765713 -0.73931867
2.4303062 2.4610076 -0.73909903
2.4357011 2.4363933 -0.73602355
2.4568524 2.4275713 -0.73800063
2.4765902 2.4172189 -0.73953837
2.4864576 2.3972392 -0.73800063
2.5074801 2.3879905 -0.73997772
2.5327473 2.3825831 -0.74327284
2.5494635 2.368989 -0.74393189
2.5668273 2.3559391 -0.74481058
2.5841267 2.3427651 -0.74568927
2.5948179 2.3236122 -0.74459088
2.6134124 2.3115234 -0.74590898
2.6238718 2.2922363 -0.74481058
2.634932 2.2735453 -0.74393189
2.6488326 2.2573347 -0.74393189
2.6626334 2.2410393 -0.74393189
2.6680791 2.2178025 -0.74151546
2.6982307 2.2150023 -0.74634832
2.7072227 2.1947198 -0.74503022
2.7236855 2.180505 -0.74590898
2.7370136 2.1637518 -0.74590898
2.7525461 2.1487172 -0.74656796
2.7649057 2.1311922 -0.74634832
2.7732713 2.1106434 -0.74503022
2.7799289 2.088901 -0.74327284
2.7966123 2.0747092 -0.74437124
2.8061407 2.0552058 -0.74349254
2.8155353 2.0356636 -0.74261379
2.8303556 2.0200489 -0.74327284
2.8450904 2.004329 -0.74393189
2.8525283 1.9834939 -0.74261379
2.871886 1.9709196 -0.74459088
2.8911967 1.9581822 -0.74656796
2.9039686 1.9409472 -0.74678767
2.9198964 1.9257765 -0.74788606
2.9283862 1.9056967 -0.74700731
2.9359188 1.8850585 -0.74590898
2.9466057 1.8664868 -0.74568927
2.9530377 1.8452715 -0.74437124
2.9659657 1.8281404 -0.74481058
2.9787948 1.8109202 -0.74524993
2.9940348 1.7951155 -0.74634832
3.0033131 1.7757181 -0.74590898
3.0149951 1.7577478 -0.74612862
3.0282617 1.7406727 -0.74678767
3.0422809 1.7239816 -0.74766636
3.0587647 1.7086104 -0.7492041
3.0683362 1.6893398 -0.7489844
3.0889356 1.6760609 -0.75162053
3.1000221 1.6575357 -0.75184023
3.1118608 1.6393919 -0.75227958
3.1132009 1.6157758 -0.75008279
3.1178439 1.5939804 -0.74876475
3.1214652 1.5717505 -0.74722701
3.1301763 1.5521349 -0.74700731
3.135257 1.5307605 -0.74590898
3.1481082 1.5131836 -0.74678767
3.1564517 1.4934217 -0.74656796
3.1752856 1.4785527 -0.7489844
3.1860721 1.4598538 -0.74942374
3.2020857 1.443482 -0.75118119
3.2162342 1.4261782 -0.75249922
3.2276077 1.407586 -0.75315827
3.2361836 1.3877553 -0.75315827
3.2383444 1.3652215 -0.75162053
3.2385478 1.3419672 -0.74964345
3.2322624 1.3161887 -0.74612862
3.245713 1.2985036 -0.74744672
3.2681489 1.2842679 -0.75096148
3.2786984 1.2652435 -0.75162053
3.2955241 1.2485553 -0.75381732
3.3067811 1.2296697 -0.75469601
3.3060148 1.2063496 -0.75271893
3.3179476 1.1876839 -0.75381732
3.319649 1.1653661 -0.75249922
3.3212016 1.143072 -0.75118119
3.3364732 1.1254756 -0.75315827
3.3433163 1.1049823 -0.75315827
3.3500335 1.0844473 -0.75315827
3.3556943 1.0635769 -0.75293857
3.3547022 1.0406569 -0.75118119
3.3535554 1.0177891 -0.74942374
3.3718967 1.0007975 -0.75227958
3.3742259 0.97900301 -0.75140083
3.3904948 0.96120429 -0.75381732
3.4029109 0.94220257 -0.755355
3.40957 0.92155921 -0.7555747
3.4245944 0.90310568 -0.75777143
3.4244018 0.88061982 -0.75645339
3.4344726 0.86077577 -0.75755179
3.432107 0.8378377 -0.75579435
3.4371834 0.81676292 -0.75579435
3.4449818 0.79631555 -0.75645339
3.4440918 0.7738812 -0.75513536
3.4564009 0.75439578 -0.75689274
3.4590559 0.73276979 -0.75645339
3.4653983 0.71192366 -0.75689274
3.4697013 0.69064695 -0.75689274
3.4700418 0.66860723 -0.75601405
3.467365 0.64605421 -0.75447631
3.4683833 0.62424922 -0.75381732
3.4779158 0.60395545 -0.75513536
3.4815559 0.58260399 -0.75513536
3.4879549 0.56169492 -0.75579435
3.4961565 0.54102707 -0.75689274
3.4916899 0.51842123 -0.75513536
3.4909418 0.49643871 -0.75425667
3.4910219 0.47461605 -0.75359762
3.4861283 0.45218524 -0.75184023
3.4869006 0.4305478 -0.75140083
3.4943216 0.40971091 -0.75249922
3.4861038 0.38708171 -0.75008279
3.498116 0.36669797 -0.75227958
3.5022421 0.34541789 -0.75271893
3.4994383 0.32347468 -0.75162053
3.5169091 0.3033326 -0.75513536
3.5148141 0.28143737 -0.75425667
3.514529 0.25972241 -0.75381732
3.5199499 0.2384152 -0.75469601
3.5067403 0.21591823 -0.75140083
3.5002062 0.19396797 -0.74964345
3.512049 0.17301191 -0.75205988
3.4740572 0.14979121 -0.74327284
3.5070832 0.12965062 -0.75052214
3.5058625 0.10806966 -0.75008279
3.5103607 0.08665105 -0.75096148
3.526433 0.065394506 -0.75447631
3.5267677 0.043755487 -0.75447631
3.5211165 0.022080055 -0.75315827
3.5221615 0.00047428181 -0.75337791
3.5133181 -0.021081705 -0.75140083
3.5121469 -0.042626459 -0.75118119
3.508893 -0.064121336 -0.75052214
3.5142853 -0.085795097 -0.75184023
3.5224686 -0.10762778 -0.75381732
3.531491 -0.12960021 -0.75601405
3.5306294 -0.15126659 -0.75601405
3.5384042 -0.17335983 -0.75799114
3.539222 -0.19517587 -0.75843048
3.5330892 -0.21658839 -0.75733209
3.5278003 -0.23799899 -0.75645339
3.520436 -0.25920895 -0.75513536
3.5314214 -0.28181809 -0.75799114
3.5208781 -0.30272615 -0.75601405
3.5160398 -0.3240546 -0.755355
3.5033059 -0.34456855 -0.75293857
3.4991853 -0.36585441 -0.75249922
3.4949353 -0.38710269 -0.75205988
3.4963701 -0.40899459 -0.75293857
3.4947629 -0.43055981 -0.75315827
3.4891529 -0.45161852 -0.75249922
3.4872828 -0.47315055 -0.75271893
3.4862456 -0.49481404 -0.75315827
3.4860389 -0.51662594 -0.75381732
3.4625573 -0.53487182 -0.7492041
3.4620998 -0.55657309 -0.74986315
3.4547708 -0.57716137 -0.7489844
3.4377079 -0.59601092 -0.74590898
3.4531889 -0.62055045 -0.75030249
3.463702 -0.64440852 -0.75359762
3.4386082 -0.66158724 -0.74876475
3.4450088 -0.68476927 -0.75118119
3.4292748 -0.703538 -0.74854505
3.4201217 -0.72355521 -0.74744672
3.4203832 -0.7455675 -0.74854505
3.4147923 -0.76632661 -0.74832541
3.4147785 -0.78836381 -0.74942374
3.4203172 -0.81178331 -0.75184023
3.4171672 -0.8332175 -0.75227958
3.4157755 -0.8551181 -0.75315827
3.4199126 -0.87849116 -0.755355
3.4220042 -0.90144938 -0.75711244
3.4164088 -0.92242944 -0.75711244
3.4050434 -0.94181246 -0.75579435
3.3907533 -0.9602924 -0.75381732
3.3904188 -0.98271096 -0.75513536
3.3740375 -1.0004417 -0.75271893
0 -0 -0
3.3521891 -1.0388799 -0.75052214
3.3438916 -1.0588393 -0.75008279
3.3252659 -1.0754305 -0.74722701
3.3204572 -1.0964261 -0.74766636
3.3173647 -1.118027 -0.74854505
3.3095195 -1.1380433 -0.74832541
3.3061564 -1.1596215 -0.7492041
3.2989788 -1.1798859 -0.7492041
3.2971756 -1.2021127 -0.75052214
3.293395 -1.2236814 -0.75140083
3.2821758 -1.2424836 -0.75052214
3.2781308 -1.2640043 -0.75140083
3.2712212 -1.2844516 -0.75162053
3.2587495 -1.3026872 -0.75052214
3.2579231 -1.3256018 -0.75227958
3.2452219 -1.3436995 -0.75118119
3.2378149 -1.3639655 -0.75140083
3.231178 -1.3845758 -0.75184023
3.2208333 -1.4035958 -0.75140083
3.2246454 -1.4288692 -0.75447631
3.2175961 -1.4494305 -0.75491565
3.2121894 -1.4707717 -0.75579435
3.2066422 -1.4921011 -0.7566731
3.1894898 -1.507993 -0.75469601
3.1792977 -1.5271122 -0.75447631
3.1672378 -1.545307 -0.75381732
3.1542003 -1.562978 -0.75293857
3.1428082 -1.5814248 -0.75249922
3.1304398 -1.5993465 -0.75184023
3.1257625 -1.6212212 -0.75315827
3.1131668 -1.6390057 -0.75249922
3.1021912 -1.6576169 -0.75227958
3.0876746 -1.6742938 -0.75118119
3.0687973 -1.6885021 -0.7489844
3.0549724 -1.7053969 -0.7481057
3.0469971 -1.7255528 -0.74876475
3.0270483 -1.7388679 -0.74634832
3.0272779 -1.763797 -0.7492041
3.0231164 -1.7863114 -0.75096148
3.0129356 -1.805329 -0.75118119
3.0193069 -1.8344254 -0.75579435
3.0021811 -1.8493335 -0.75425667
2.9965682 -1.8713388 -0.75579435
2.9875019 -1.8912566 -0.75645339
2.9709158 -1.9063891 -0.75513536
2.9550743 -1.9219215 -0.75403696
2.9415972 -1.938943 -0.75359762
2.9255893 -1.954245 -0.75249922
2.9111202 -1.970518 -0.75184023
2.9054093 -1.9927597 -0.75359762
2.8939281 -2.0111065 -0.75381732
2.8831286 -2.0299492 -0.75425667
2.8785594 -2.0532694 -0.75645339
2.8698592 -2.0737514 -0.75755179
2.860229 -2.0936275 -0.75843048
2.8520298 -2.1146259 -0.75974852
2.8390009 -2.1320858 -0.75974852
2.8320756 -2.1541924 -0.76150596
2.819577 -2.1721249 -0.7617256
2.8085029 -2.1911855 -0.76238465
2.7927094 -2.2065618 -0.7617256
2.7737868 -2.2193878 -0.76018786
2.7601166 -2.2363656 -0.76018786
2.7470965 -2.2538784 -0.76040757
2.7272139 -2.2657025 -0.75865018
2.7110214 -2.280509 -0.75799114
2.6984622 -2.2983661 -0.75843048
2.6828318 -2.3136055 -0.75799114
2.6656468 -2.327456 -0.75711244
2.6491234 -2.3418293 -0.75645339
2.6376112 -2.3606434 -0.75733209
2.6303041 -2.3833358 -0.75952888
2.6113186 -2.395472 -0.75821084
2.5980005 -2.4127779 -0.75865018
2.5760417 -2.4219885 -0.75645339
2.5561872 -2.4330394 -0.75491565
2.5398057 -2.4473238 -0.75447631
2.5226469 -2.4608173 -0.75381732
2.508194 -2.4769354 -0.75403696
2.5046735 -2.5040083 -0.75777143
2.4824076 -2.5123875 -0.7555747
2.4676263 -2.5282705 -0.75579435
2.4513898 -2.5426614 -0.7555747
2.434397 -2.5562415 -0.75513536
2.4153254 -2.5675766 -0.75403696
2.3968701 -2.579489 -0.75315827
2.3836353 -2.597023 -0.75403696
2.3689654 -2.6130459 -0.75447631
2.352237 -2.6268053 -0.75425667
2.3367209 -2.6419199 -0.75447631
2.3172586 -2.6525335 -0.75337791
2.3015764 -2.6674409 -0.75359762
2.2870636 -2.6837411 -0.75425667
2.2661576 -2.6924975 -0.75271893
2.2527108 -2.7101038 -0.75381732
2.2428458 -2.732172 -0.75623375
2.2217405 -2.740576 -0.75469601
2.2103679 -2.761013 -0.7566731
2.1933851 -2.7745235 -0.7566731
2.1721191 -2.7825451 -0.75513536
2.153219 -2.7935021 -0.75447631
2.1307228 -2.7996728 -0.75249922
2.1094036 -2.8072331 -0.75096148
2.0886531 -2.8154211 -0.74964345
2.0667293 -2.8218858 -0.74788606
2.0510895 -2.8368862 -0.74854505
2.0347772 -2.8510065 -0.7489844
0 -0 -0
2.0040913 -2.8821709 -0.75074184
1.9891275 -2.8984363 -0.75184023
1.9620099 -2.8968523 -0.7481057
1.9490747 -2.9161377 -0.75008279
1.9354398 -2.9345586 -0.75184023
1.9173973 -2.9463789 -0.75184023
1.9019166 -2.962194 -0.75293857
1.8936187 -2.9894702 -0.75711244
1.8705897 -2.9935856 -0.75513536
1.8573023 -3.0133135 -0.75733209
1.8397911 -3.0263205 -0.75777143
1.8171762 -3.0308573 -0.75601405
1.8030112 -3.0495095 -0.75799114
1.7852479 -3.0622013 -0.75843048
1.766425 -3.0730977 -0.75843048
1.7460935 -3.0813315 -0.75777143
1.7238256 -3.0860243 -0.75623375
1.7001553 -3.0879958 -0.75403696
1.6774558 -3.0915086 -0.75227958
1.6639717 -3.1120687 -0.75491565
1.6403008 -3.1135874 -0.75271893
1.6234109 -3.1279237 -0.75381732
1.6095133 -3.1482513 -0.75645339
1.5892888 -3.1563249 -0.75601405
1.569459 -3.1651428 -0.75579435
1.5547135 -3.1843581 -0.75821084
1.5317667 -3.1868024 -0.75645339
1.5155194 -3.2031972 -0.75821084
1.4987171 -3.2186277 -0.75974852
1.4748789 -3.2188926 -0.75755179
1.4591067 -3.2367768 -0.75974852
1.4388236 -3.244777 -0.75952888
1.4169384 -3.2490723 -0.75843048
1.3969759 -3.2577055 -0.75843048
1.382641 -3.2797019 -0.7617256
1.3632374 -3.2899268 -0.76216495
0 -0 -0
0 -0 -0
1.3053015 -3.3217268 -0.76392239
1.2754203 -3.3050961 -0.75799114
0 -0 -0
1.2286506 -3.3040376 -0.75403696
1.2093565 -3.3142638 -0.75469601
0 -0 -0
0 -0 -0
0 -0 -0
0 -0 -0
1.1003946 -3.3294203 -0.74986315
1.0853477 -3.3528183 -0.75381732
1.062988 -3.3538342 -0.75249922
1.0423893 -3.3602934 -0.75249922
1.0251474 -3.3778296 -0.75513536
0 -0 -0
0 -0 -0
0 -0 -0
0.94116253 -3.3991497 -0.75447631
0.92003381 -3.4039187 -0.75425667
0.89639741 -3.3991225 -0.75184023
0.87552392 -3.4045587 -0.75184023
0.85532802 -3.4127059 -0.75249922
0.83437198 -3.4178898 -0.75249922
0.81383491 -3.4248435 -0.75293857
0.79302454 -3.4307232 -0.75315827
0.77238625 -3.4374282 -0.75359762
0.74961829 -3.4344773 -0.75184023
0.72974181 -3.4447389 -0.75315827
0.70682752 -3.4405506 -0.75118119
0.68494284 -3.4409955 -0.75030249
0.66694885 -3.4614196 -0.75403696
0.64516228 -3.4625692 -0.75337791
0.62476671 -3.4712639 -0.75447631
0.60428864 -3.4798381 -0.7555747
0.58405024 -3.4902163 -0.75711244
0.56355244 -3.4995136 -0.75843048
0.54340905 -3.5115829 -0.76040757
0.52156627 -3.5129209 -0.75996822
0.50041264 -3.5189528 -0.76062727
0.47710702 -3.5093896 -0.75777143
0.45356211 -3.4967709 -0.75425667
0.42971319 -3.4801228 -0.74986315
0.40971091 -3.4943216 -0.75249922
0.38794041 -3.493861 -0.75184023
0.36710352 -3.5019972 -0.75315827
0.34818542 -3.5303979 -0.75908953
0.32714307 -3.5392683 -0.76062727
0.30533686 -3.5402369 -0.76040757
0 -0 -0
0.2610108 -3.5320418 -0.75777143
0.23815279 -3.5160563 -0.75381732
0.21693197 -3.523294 -0.75513536
0.19547033 -3.5274811 -0.75579435
0.17401314 -3.5325117 -0.7566731
0.15229309 -3.5325382 -0.75645339
0.13054354 -3.5314562 -0.75601405
0.10869407 -3.52634 -0.75469601
0.087363563 -3.5396192 -0.75755179
0.065660983 -3.541064 -0.75777143
0.043920409 -3.5404248 -0.75755179
0.022219121 -3.5445299 -0.75843048
0.00047083385 -3.5397217 -0.75733209
-0.021236144 -3.5377069 -0.75689274
-0.042918377 -3.5355589 -0.75645339
-0.064411715 -3.5244997 -0.75403696
-0 -0 -0
-0.10753743 -3.5195434 -0.75315827
-0.12895042 -3.5139427 -0.75205988
-0.15067746 -3.516984 -0.75293857
-0.17215832 -3.5140445 -0.75249922
-0.19387896 -3.5158441 -0.75315827
-0.21574819 -3.5194571 -0.75425667
-0.23799899 -3.5278003 -0.75645339
-0.25992852 -3.5301652 -0.75733209
-0.28150639 -3.5275314 -0.75711244
-0.30373287 -3.5325415 -0.75865018
-0.3252227 -3.5286684 -0.75821084
-0.34677228 -3.5256357 -0.75799114
-0.36788979 -3.5185902 -0.75689274
-0.38764128 -3.4997835 -0.75315827
-0.40967658 -3.5021837 -0.75425667
-0.42948332 -3.4860489 -0.75118119
-0.45086524 -3.4833481 -0.75118119
-0.47354501 -3.4901829 -0.75337791
-0.49522626 -3.4891431 -0.75381732
-0.51633924 -3.4841089 -0.75337791
-0.53845388 -3.4856956 -0.75447631
-0.56060743 -3.4871418 -0.7555747
-0.58247679 -3.4865229 -0.75623375
-0 -0 -0
-0.62642801 -3.4858334 -0.75777143
-0.64708984 -3.4780879 -0.75689274
-0.66897273 -3.4769258 -0.75755179
-0.68877006 -3.4651012 -0.75579435
-0.71001858 -3.4608097 -0.75579435
-0.72881347 -3.4449356 -0.75315827
-0.74993747 -3.4403987 -0.75315827
-0.77167505 -3.4385879 -0.75381732
-0.79078132 -3.4252338 -0.75184023
-0.81200892 -3.4212663 -0.75205988
-0.83252329 -3.414324 -0.75162053
-0.85274577 -3.4063127 -0.75096148
-0.87678993 -3.4132988 -0.75381732
-0.89597523 -3.4012516 -0.75227958
-0.91759187 -3.3985152 -0.75293857
-0.93920863 -3.3956416 -0.75359762
-0.95869553 -3.3851218 -0.75249922
-0.97972006 -3.3801126 -0.75271893
-0.99988633 -3.3721671 -0.75227958
-1.0182917 -3.3585002 -0.75052214
-1.0400363 -3.355916 -0.75140083
-1.0611979 -3.3513312 -0.75184023
-1.0796376 -3.3382597 -0.75030249
-1.1004068 -3.3324988 -0.75052214
-1.118027 -3.3173647 -0.74854505
-1.1383609 -3.310442 -0.74854505
-1.1560663 -3.296031 -0.74678767
-1.1779128 -3.293468 -0.74788606
-1.1940854 -3.2751811 -0.74524993
-1.2161995 -3.273279 -0.74656796
-1.2411008 -3.2785265 -0.74964345
-1.2618966 -3.2726698 -0.75008279
-1.2858791 -3.274853 -0.75249922
-1.3102981 -3.2777703 -0.75513536
-1.3267057 -3.2606337 -0.75293857
-1.3575195 -3.2785678 -0.75930917
-1.3783689 -3.2719743 -0.75974852
-1.3984194 -3.2634552 -0.75974852
-1.4188073 -3.2557075 -0.75996822
-1.4355931 -3.2398062 -0.75821084
-1.4554452 -3.2309365 -0.75821084
-1.4752424 -3.2219453 -0.75821084
-1.5003383 -3.2243295 -0.76106662
-1.5238498 -3.2229993 -0.7630437
-1.5376794 -3.2012789 -0.75996822
-1.5547247 -3.1865239 -0.75865018
-1.5738142 -3.1760502 -0.75843048
-1.5941501 -3.1680763 -0.75886983
-1.6140031 -3.1591039 -0.75908953
-1.629761 -3.1422141 -0.75733209
-1.6512843 -3.1364703 -0.75843048
-1.6704983 -3.1262791 -0.75843048
-1.6938372 -3.1236875 -0.76040757
-1.7162659 -3.1192174 -0.76194531
-1.7358485 -3.1094797 -0.76216495
-1.7597055 -3.1072576 -0.76436174
-1.7753346 -3.0904813 -0.762824
-1.7967211 -3.0837438 -0.76392239
-1.8151121 -3.0718215 -0.76370269
-1.8344281 -3.0614629 -0.76392239
-1.8506441 -3.0459816 -0.762824
-1.8785139 -3.0495172 -0.76677817
-1.9033943 -3.0478611 -0.76941431
-1.9283249 -3.0460141 -0.77205038
-1.9506687 -3.039871 -0.77358812
-1.968752 -3.0270269 -0.77336848
-1.9894372 -3.0181475 -0.77424717
-2.0046659 -3.0010173 -0.77292907
-2.0181179 -2.981391 -0.77095199
-2.0363734 -2.9689519 -0.77095199
-2.055109 -2.9572022 -0.77117169
-2.0720916 -2.9429414 -0.77073234
-2.0923774 -2.9333482 -0.77161103
-2.1029053 -2.9101772 -0.76875526
-2.1155338 -2.890136 -0.76677817
-2.1309023 -2.8739669 -0.76589948
-2.1443939 -2.8553786 -0.76436174
-2.1601012 -2.8398385 -0.76370269
-2.1792722 -2.8288486 -0.76436174
-2.1989901 -2.8184996 -0.76524043
-2.217453 -2.8064842 -0.76567978
-2.2297535 -2.7867332 -0.76392239
-2.2388232 -2.7631478 -0.76106662
-2.2526402 -2.7455885 -0.75996822
-2.2681971 -2.7302146 -0.75952888
-2.2911892 -2.7237093 -0.7617256
-2.309757 -2.711827 -0.76238465
-2.3180671 -2.6880019 -0.75952888
-2.3396518 -2.6796052 -0.76128626
-2.3470004 -2.654969 -0.75821084
-2.3599925 -2.6368845 -0.75711244
-2.3741617 -2.6201861 -0.75645339
-2.3855762 -2.6005383 -0.75491565
-2.3948467 -2.5787055 -0.75271893
-2.4039395 -2.5568571 -0.75052214
-2.4135273 -2.5357008 -0.74854505
-2.4175289 -2.5089052 -0.74481058
-2.4267447 -2.4877412 -0.7428335
-2.433049 -2.4637833 -0.73997772
-2.442601 -2.4432902 -0.73822027
-2.4526873 -2.4234586 -0.73668259
-2.4647176 -2.4056389 -0.73580384
-2.4773245 -2.3884397 -0.73514485
-2.4799192 -2.3617606 -0.73141032
-2.4915209 -2.343827 -0.73053163
-2.4979916 -2.321193 -0.7281152
-2.5165009 -2.3097785 -0.72943324
-2.5183353 -2.2831588 -0.72569877
-2.5286622 -2.2644107 -0.72460037
-2.5410469 -2.2475605 -0.72416103
-2.5489106 -2.2267938 -0.72240365
-2.5617871 -2.210475 -0.72218394
-2.5708456 -2.1909194 -0.72086591
-2.5782676 -2.1700799 -0.71910852
-2.5885327 -2.1517258 -0.71822977
-2.5948985 -2.1302335 -0.71625268
-2.6056464 -2.1124291 -0.7155937
-2.6139882 -2.0927448 -0.7142756
-2.6221869 -2.0730376 -0.71295756
-2.6348574 -2.0569093 -0.71295756
-2.6389272 -2.0341549 -0.71054113
-2.6482527 -2.0155621 -0.70966244
-2.6582298 -1.9975173 -0.70900339
-2.663383 -1.9759402 -0.7070263
-2.6683717 -1.9543753 -0.70504922
-2.6755686 -1.9345376 -0.70373118
-2.677063 -1.9107201 -0.7008754
-2.6847479 -1.89145 -0.69977701
-2.690695 -1.8710444 -0.69823927
-2.6956885 -1.8500854 -0.69648188
-2.7013342 -1.8296825 -0.69494414
-2.7133212 -1.8136147 -0.69516379
-2.7211399 -1.7947845 -0.69428509
-2.723105 -1.7722039 -0.69186866
-2.7314644 -1.7538815 -0.69120967
-2.7380531 -1.7344797 -0.69011128
-2.738714 -1.7114463 -0.68747514
-2.7499943 -1.6951212 -0.68769485
-2.7536733 -1.6741636 -0.6859374
-2.7563622 -1.6527234 -0.68396032
-2.7630916 -1.6337947 -0.68308163
-2.7637916 -1.6114081 -0.68066519
-2.7609375 -1.587131 -0.67737007
-2.7655306 -1.5672762 -0.67605203
-2.7674284 -1.5459985 -0.67407495
-2.774298 -1.5275781 -0.6734159
-2.7836187 -1.5105265 -0.6734159
-2.7945557 -1.4943376 -0.67385525
-2.7993557 -1.4748902 -0.67275685
-2.8057547 -1.4563386 -0.67209786
-2.8102939 -1.4368764 -0.67099947
-2.812957 -1.4165366 -0.66946173
-2.8146026 -1.3957851 -0.66770434
-2.8196068 -1.3767778 -0.66682559
-2.8253632 -1.3581841 -0.6661666
-2.8424635 -1.3449918 -0.66836333
-2.8515472 -1.3279369 -0.66858304
-2.8605287 -1.3108213 -0.66880268
-2.8596227 -1.2892383 -0.66660595
-2.8639116 -1.2700871 -0.66572726
-2.8627071 -1.2485937 -0.66353047
-2.8613472 -1.2271631 -0.66133374
-2.8670249 -1.2088257 -0.66089439
-2.8644729 -1.1871065 -0.65847796
-2.8807395 -1.1731843 -0.66067469
-2.8933191 -1.1576587 -0.66199273
-2.900368 -1.1398839 -0.66199273
-2.9109488 -1.1234697 -0.66287148
-0.25173262 -0.096523762 -0.020978361
-0.28524247 -0.10720756 -0.028886694
-0.28039545 -0.10345066 -0.027568638
-0.27826911 -0.1007428 -0.026909612
-0.27888203 -0.099033475 -0.026909612
-0.27948442 -0.097320423 -0.026909612
-0.2773028 -0.094669163 -0.026250584
-0.27787846 -0.092965879 -0.026250584
-0.28122842 -0.092159539 -0.026909612
-0.27992845 -0.089843333 -0.026470259
-0.28327006 -0.088990234 -0.027129287
-0.27820903 -0.085552379 -0.025811231
-0.27592272 -0.083011881 -0.025152205
-0.27548984 -0.081045754 -0.024932528
-0.27504328 -0.079088077 -0.024712851
-0.27176222 -0.076358907 -0.023834148
-0.27034193 -0.07418149 -0.023394797
-0.26701838 -0.071527489 -0.022516092
-0.26367259 -0.068917096 -0.021637389
-0.26314411 -0.067061082 -0.021417713
-0.26355064 -0.065445192 -0.021417713
-0.26299801 -0.06360162 -0.021198036
-0.26243275 -0.061767295 -0.020978361
-0 -0 -0
-0 -0 -0
-0 -0 -0
-0.25240138 -0.052956216 -0.018342249
-0 -0 -0
-0 -0 -0
-0 -0 -0
-0 -0 -0
-0 -0 -0
-0 -0 -0
-0 -0 -0
-0 -0 -0
-0 -0 -0
-0 -0 -0
-0 -0 -0
-0 -0 -0
-0 -0 -0
-0 -0 -0
-0 -0 -0
-0 -0 -0
-0 -0 -0
-0.2780726 -0.026781723 -0.02317512
-0.27725971 -0.024991486 -0.022955444
-0.27935278 -0.023444872 -0.023394797
-0.27754551 -0.021587202 -0.022955444
-0.27572602 -0.019752597 -0.022516092
-0.2777895 -0.018179666 -0.022955444
-0.27692175 -0.016421184 -0.022735769
-0.27799168 -0.014769393 -0.022955444
-0.28197581 -0.013230182 -0.023834148
-0.28205168 -0.011499762 -0.023834148
-0.28991789 -0.010006781 -0.025591556
-0.29192439 -0.0082751904 -0.026030907
-0.28904346 -0.0064305235 -0.025371879
-0.29005295 -0.0046686456 -0.025591556
-0 -0 -0
-0.28325939 -0.0011102387 -0.024053825
-0.28228533 0.00062165165 -0.023834148
-0.27837422 0.0023050569 -0.022955444
-0.27640402 0.0039767884 -0.022516092
-0.27442387 0.0056244303 -0.022076741
-0.26950866 0.0071575725 -0.020978361
-0.26653495 0.0087028136 -0.020319333
-0.26257786 0.010169754 -0.019440629
-0 0 -0
-0 0 -0
-0 0 -0
-0.28366265 0.018062402 -0.0242735
-0 -0 -0
-0 -0 -0
-0 -0 -0
-0 -0 -0
-0 -0 -0
-0 0 -0
-0 0 -0
-0 0 -0
-0 0 -0
-0 0 -0
-0 0 -0
-0 0 -0
-0 0 -0
-0 0 -0
-0 0 -0
-0 0 -0
-0 0 -0
-0 0 -0
-0 0 -0
-0 0 -0
-0 0 -0
-0 0 -0
-0 0 -0
-0 0 -0
-0 0 -0
-0 0 -0
-0 0 -0
-0 0 -0
-0 0 -0
-0 0 -0
-0 0 -0
-0 0 -0
-0 0 -0
-0 0 -0
-0 0 -0
-0 0 -0
-0 0 -0
-0 0 -0
-0 0 -0
-0 0 -0
-0 0 -0
-0 0 -0
-0 0 -0
-0 0 -0
-0 0 -0
-0 0 -0
-0 0 -0
-0 0 -0
-0 0 -0
-0 0 -0
-0 0 -0
-0 0 -0
-0 0 -0
-0 0 -0
-0 0 -0
-0 0 -0
-0 0 -0
-0 0 -0
-0 0 -0
-0 0 -0
-0 0 -0
-0 0 -0
-0 0 -0
-0 0 -0
-0 0 -0
-0 0 -0
-0 0 -0
-0 0 -0
-0 0 -0
-0 0 -0
-0 0 -0
-0 0 -0
-0 0 -0
-0 0 -0
-0 0 -0
-0 0 -0
-0 0 -0
-0 0 -0
-0 0 -0
-0 0 -0
-0 0 -0
-0 0 -0
-0 0 -0
-0 0 -0
-0 0 -0
-0 0 -0
-0 0 -0
-0 0 -0
-0 0 -0
-0 0 -0
-0 0 -0
-0 0 -0
-0 0 -0
-0 0 -0
-0 0 -0
-0 0 -0
-0 0 -0
-0 0 -0
-0 0 -0
-0 0 -0
-0 0 -0
-0.27088976 0.18379508 -0.037698071
-0 0 -0
-0.2686139 0.18710548 -0.037698071
-0.26905212 0.1898703 -0.038159527
-0.24728464 0.17682885 -0.032160573
-0.26512441 0.19201809 -0.037698071
-0.28278637 0.2074324 -0.043235566
-0.25102296 0.18656553 -0.034237131
-0.23508951 0.17700201 -0.029853281
-0.26962626 0.20553458 -0.040466819
-0.26450565 0.20421647 -0.039313175
-0.26478207 0.20703249 -0.03977463
-0.28412214 0.22493814 -0.046004318
-0.26754025 0.2145209 -0.041389734
-0.26697502 0.21677093 -0.041620463
-0.2686491 0.22087336 -0.042543381
-0.26953429 0.2243827 -0.043235566
-0.2666631 0.22477975 -0.042774111
-0.26898292 0.22956592 -0.043927755
-0.26904315 0.23248279 -0.044389214
-0.26834461 0.23476912 -0.044619944
-0.25377563 0.22481261 -0.040466819
-0.28502139 0.25556281 -0.050849628
-0.28561127 0.25926667 -0.051541816
-0.27110738 0.24917606 -0.047388691
-0.26529509 0.24686246 -0.046004318
-0.28291753 0.26647919 -0.052234001
-0.28127712 0.26821014 -0.052234001
-0.26631212 0.25710449 -0.047850151
-0.26124662 0.25533685 -0.046696503
-0.27836981 0.27539295 -0.05292619
-0.27873936 0.27915943 -0.053618375
-0.26265809 0.26633096 -0.048773065
-0.26101896 0.26793757 -0.048773065
-0.24991421 0.25972834 -0.045542859
-0.26844898 0.28239322 -0.052464731
-0.25870997 0.27553129 -0.049695984
-0.26165134 0.28210261 -0.051311087
-0.24872907 0.27151754 -0.047388691
-0 0 -0
-0 0 -0
-0 0 -0
-0 0 -0
-0.23265456 0.27017996 -0.044619944
-0 0 -0
-0 0 -0
-0 0 -0
-0 0 -0
-2.1258712 2.6223731 -0.76057231
-2.1200798 2.6482797 -0.76449472
-0 0 -0
-2.0999968 2.6902025 -0.76933998
-2.0923619 2.714596 -0.77280092
-2.0803809 2.7335773 -0.77464676
-2.0682456 2.7525134 -0.7764926
-2.0542166 2.7690589 -0.77764624
