# .PCD v0.7 - Point Cloud Data file format
VERSION 0.7
FIELDS x y z
SIZE 4 4 4
TYPE F F F
COUNT 1 1 1
WIDTH 1682
HEIGHT 1
VIEWPOINT 0 0 0 1 0 0 0
POINTS 1682
DATA ascii
-3.0653038 -8.0883036 -0.62513119
-3.1030219 -8.0386486 -0.62261093
-3.1252859 -7.9507918 -0.61695951
-3.154001 -7.8814807 -0.61283547
-3.1857464 -7.8213515 -0.60947514
-3.2172554 -7.7620521 -0.60619116
-3.2497075 -7.706337 -0.60321271
-3.2772725 -7.6404376 -0.59939414
-3.2917891 -7.5461626 -0.59320813
-3.3218536 -7.489367 -0.59015328
-3.3546257 -7.4397593 -0.58770943
-3.3823433 -7.3800621 -0.58442545
-3.4094555 -7.3203063 -0.58114147
-3.4265761 -7.2406712 -0.57617736
-3.4527888 -7.1817703 -0.57296979
-3.4770954 -7.1201344 -0.56953311
-3.4985602 -7.0540061 -0.56571454
-3.5265236 -7.002131 -0.56311792
-3.5526204 -6.9475169 -0.56029224
-3.5781803 -6.8928471 -0.55746651
-3.5883257 -6.8099012 -0.55219692
-3.6013517 -6.7341261 -0.54753828
-3.6197686 -6.6698408 -0.54387248
-3.6442685 -6.6178117 -0.54127586
-3.6527004 -6.5378823 -0.53623533
-3.6843872 -6.5006013 -0.53493702
-3.7107832 -6.454535 -0.53287506
-3.7231886 -6.3851366 -0.52875102
-3.7409751 -6.326128 -0.52554339
-3.7710016 -6.2885194 -0.52424514
-3.791899 -6.236299 -0.52164853
-3.8201487 -6.1967902 -0.52019745
-3.8327281 -6.1326518 -0.51653165
-3.8601441 -6.0930176 -0.51508057
-3.8812904 -6.0440507 -0.51278949
-3.9112303 -6.0092592 -0.51179665
-3.934849 -5.9651742 -0.50996375
-3.9381213 -5.8911877 -0.50538146
-3.9635675 -5.8512301 -0.50393045
-3.9903653 -5.8136482 -0.50270849
-3.9923663 -5.7407637 -0.49820262
-3.9964967 -5.6721497 -0.49407858
-4.0051513 -5.6110058 -0.49064189
-4.0067787 -5.5410843 -0.48636511
-4.0130043 -5.4785938 -0.48277566
-4.0453563 -5.4522662 -0.48262292
-4.0775361 -5.4257479 -0.48247018
-4.0884018 -5.3712745 -0.47964445
-4.118238 -5.3421397 -0.47926259
-4.1362095 -5.2979102 -0.47742969
-4.1500831 -5.2489705 -0.47513857
-4.1466827 -5.1790481 -0.47078541
-4.1783824 -5.1535072 -0.47078541
-4.1770182 -5.0877051 -0.46681413
-4.2107072 -5.0650463 -0.4671196
-4.2230821 -5.0169964 -0.46490484
-4.2363195 -4.9705033 -0.46284285
-4.2699962 -4.9481902 -0.46322471
-4.3015895 -4.923398 -0.46337745
-4.3145385 -4.8774972 -0.46139181
-4.3244252 -4.8286529 -0.45910066
-4.3345456 -4.7806101 -0.4568859
-4.340868 -4.7289538 -0.45428929
-4.3514724 -4.6825128 -0.45222726
-4.3958392 -4.6724243 -0.45398381
-4.4024162 -4.6222639 -0.45153993
-4.4043913 -4.5678935 -0.44863784
-4.4114385 -4.5193815 -0.4463467
-4.4215612 -4.4745007 -0.44443744
-4.4150786 -4.4134569 -0.44077164
-4.4207878 -4.3652701 -0.4384805
-4.4453473 -4.3359747 -0.43825138
-4.453197 -4.2906332 -0.43626574
-4.4707713 -4.254981 -0.43534929
-4.4888024 -4.2199578 -0.43450922
-4.5014577 -4.1801252 -0.43313453
-4.5020342 -4.1295156 -0.43053791
-4.5051169 -4.0817342 -0.4282468
-4.5337925 -4.0573382 -0.42862865
-4.551878 -4.0235014 -0.42794129
-4.5554457 -3.9771388 -0.42580292
-4.5639029 -3.9354415 -0.42419913
-4.575058 -3.8963761 -0.42290083
-4.5721684 -3.8457723 -0.42022783
-4.5749679 -3.8004472 -0.4181658
-4.5858655 -3.7621882 -0.41694388
-4.6049891 -3.7308414 -0.41656202
-4.5966468 -3.6776056 -0.41350719
-4.5800009 -3.6184342 -0.40968862
-4.5832467 -3.5755482 -0.40785572
-4.5995693 -3.5431006 -0.40732113
-4.6164603 -3.5111907 -0.40686291
-4.621172 -3.4702287 -0.4052591
-4.6471844 -3.4453704 -0.40571734
-4.6690416 -3.4173796 -0.40579373
-4.6680984 -3.3729043 -0.4037317
-4.6952009 -3.3488286 -0.40434265
-4.7058759 -3.3130703 -0.4034262
-4.7187457 -3.2790139 -0.40273887
-4.7363091 -3.2483072 -0.40250975
-4.7487187 -3.2141562 -0.40182242
-4.7658634 -3.1832972 -0.4015933
-4.7778125 -3.1490576 -0.40090597
-4.7903571 -3.1153347 -0.40029499
-4.7858815 -3.0708113 -0.39815661
-4.8046336 -3.0413878 -0.39815661
-4.7995214 -2.9970675 -0.39601824
-4.779613 -2.9440382 -0.39258152
-4.7626448 -2.8934371 -0.38945031
-4.7871523 -2.868258 -0.39006129
-4.7737541 -2.8205776 -0.38731194
-4.7883859 -2.7897282 -0.38708282
-4.8192482 -2.7682378 -0.38830477
-4.8153176 -2.7268281 -0.38647187
-4.8162856 -2.6884861 -0.38509718
-4.8117228 -2.6473525 -0.38326427
-4.7989473 -2.6021008 -0.38074404
-4.8253775 -2.5782423 -0.38166049
-4.8402243 -2.5481215 -0.38158411
-4.8478007 -2.5142448 -0.38089678
-4.8285041 -2.4667683 -0.3779183
-4.8355322 -2.433063 -0.37723097
-4.8441153 -2.4002495 -0.37669638
-4.8542709 -2.3682964 -0.37631452
-4.8759022 -2.3419185 -0.37692547
-4.8865738 -2.3102524 -0.37661999
-4.8952327 -2.277703 -0.37616178
-4.8791962 -2.2339325 -0.37364152
-4.8646264 -2.1912639 -0.37127402
-4.870687 -2.158144 -0.37066305
-4.8920646 -2.1318004 -0.37135041
-4.8995538 -2.0993881 -0.37089217
-4.9040723 -2.0658038 -0.37020484
-4.9028358 -2.0299556 -0.36905926
-0.26557216 -0.10924601 0.015392276
-0.26623747 -0.10761444 0.015392276
-0 -0 -0
-0.27219003 -0.10613168 0.015010421
-0.27097094 -0.10375399 0.015163163
-0.27160248 -0.10208939 0.015163163
-0.27128693 -0.10007963 0.015239534
-0.27283481 -0.098748721 0.015163163
-0.27061272 -0.09608341 0.015392276
-0 -0 -0
-0.26799169 -0.091482468 0.015697761
-0.27044171 -0.090461209 0.015545018
-0.26909414 -0.088186912 0.015697761
-0 -0 -0
-0.26539376 -0.083403409 0.016079614
-0.26590052 -0.081773408 0.016079614
-0.26544124 -0.079857111 0.016155986
-0.26975715 -0.0793363 0.015850501
-0 -0 -0
-0 -0 -0
-0.26635841 -0.073059134 0.016232356
-0 -0 -0
-0.26530334 -0.069289319 0.016385099
-0 -0 -0
-0.26807114 -0.066500366 0.016232356
-0 -0 -0
-0.27081019 -0.063653849 0.016079614
-0.27119565 -0.061990988 0.016079614
-0.27059668 -0.060113668 0.016155986
-0.2699849 -0.058246043 0.016232356
-0.27033719 -0.056588352 0.016232356
-0 -0 -0
-0.27003211 -0.053078484 0.016308727
-0 -0 -0
-0.27360734 -0.050289147 0.016079614
-0 -0 -0
-0.27912131 -0.047748111 0.015697761
-0 -0 -0
-0 -0 -0
-0.27798021 -0.042310439 0.015850501
-0 -0 -0
-0.27452627 -0.038360722 0.016155986
-0.27475646 -0.036675539 0.016155986
-0.27299708 -0.034745604 0.016308727
-0 -0 -0
-0.2734029 -0.031392891 0.016308727
-0 -0 -0
-0.27277523 -0.02793809 0.016385099
-0.27492732 -0.026446393 0.016232356
-0.27806473 -0.025014507 0.016003244
-0 -0 -0
-0.2843172 -0.022038227 0.015545018
-0.2884264 -0.020560786 0.015239534
-0 -0 -0
-0.28666583 -0.016910473 0.015392276
-0.28377649 -0.015005541 0.015621388
-0 -0 -0
-0.27895719 -0.011340386 0.016003244
-0 -0 -0
-0 -0 -0
-0 -0 -0
-0 -0 -0
-0 -0 -0
-0 0 -0
-0 0 -0
-0 0 -0
-0 0 -0
-0 0 -0
-0 0 -0
-0.27803919 0.0091746347 0.016079614
-0 0 -0
-0.27790567 0.012585913 0.016079614
-0.27782321 0.014290873 0.016079614
-0 0 -0
-0.27762693 0.017699115 0.016079614
-0 -0 -0
-0 -0 -0
-0 -0 -0
-0 -0 -0
-0 -0 -0
-0 0 -0
-0 0 -0
-0 0 -0
-0 0 -0
-0 0 -0
-0 0 -0
-0 0 -0
-0 0 -0
-0 0 -0
-0 0 -0
-0 0 -0
-0 0 -0
-0 0 -0
-0 0 -0
-0 0 -0
-0 0 -0
-0 0 -0
-0 0 -0
-0 0 -0
-0 0 -0
-0 0 -0
-0 0 -0
-0 0 -0
-0 0 -0
-0 0 -0
-0 0 -0
-0 0 -0
-0 0 -0
-0 0 -0
-0 0 -0
-0 0 -0
-0 0 -0
-0 0 -0
-0 0 -0
-0 0 -0
-0 0 -0
-0 0 -0
-0 0 -0
-0 0 -0
-0 0 -0
-0 0 -0
-0 0 -0
-0 0 -0
-0 0 -0
-0 0 -0
-0 0 -0
-0 0 -0
-0 0 -0
-0 0 -0
-0 0 -0
-0 0 -0
-0 0 -0
-0 0 -0
-0 0 -0
-0 0 -0
-0 0 -0
-0 0 -0
-0 0 -0
-0 0 -0
-0 0 -0
-0 0 -0
-0 0 -0
-0 0 -0
-0 0 -0
-0 0 -0
-0 0 -0
-0 0 -0
-0 0 -0
-0 0 -0
-0 0 -0
-0 0 -0
-0 0 -0
-0 0 -0
-0 0 -0
-0 0 -0
-0 0 -0
-0 0 -0
-0 0 -0
-0 0 -0
-0 0 -0
-0 0 -0
-0 0 -0
-0 0 -0
-0 0 -0
-0 0 -0
-0 0 -0
-0 0 -0
-0 0 -0
-0 0 -0
-0 0 -0
-0 0 -0
-0 0 -0
-0 0 -0
-0 0 -0
-0 0 -0
-0 0 -0
-0 0 -0
-0 0 -0
-0 0 -0
-0 0 -0
-0 0 -0
-0 0 -0
-0 0 -0
-0 0 -0
-0 0 -0
-0 0 -0
-0 0 -0
-0 0 -0
-0 0 -0
-0 0 -0
-0 0 -0
-0 0 -0
-0 0 -0
-0 0 -0
-0 0 -0
-0 0 -0
-0 0 -0
-0 0 -0
-0 0 -0
-0 0 -0
-0 0 -0
-0 0 -0
-0.25597289 0.2411513 0.006381236
-0 0 -0
-0.23219112 0.22423288 0.0089440458
-0.27003124 0.26390436 0.004083544
-0.2698245 0.26695594 0.0039067985
-0.26606789 0.26649401 0.0041719172
-0.24552298 0.24899258 0.0065579815
-0.2599943 0.26688796 0.0045254081
-0 0 -0
-0.24708138 0.25996092 0.0057626269
-0.25981575 0.27670655 0.0039067985
-0.25946927 0.27975479 0.0037300531
-0.26044232 0.28427666 0.0033765621
-0.25869313 0.28586936 0.0033765621
-0 0 -0
-0.26704565 0.30245125 0.0017858525
-0.22782628 0.26132941 0.0068230997
-0.26331401 0.30570555 0.0017858525
-0.23687923 0.27850881 0.0051440173
-0.23901485 0.28452915 0.0046137809
-0.24809024 0.29901138 0.0031114439
-0.21970284 0.26819497 0.0068230997
-0 0 -0
-0 0 -0
-0 0 -0
-0 0 -0
-0 0 -0
-0 0 -0
-4.6551232 6.1944299 -0.64987487
-4.6840997 6.3132677 -0.65986097
-4.6882448 6.4005494 -0.66631222
-4.6640596 6.450181 -0.66860992
-4.6492801 6.5135384 -0.67240995
-4.6425037 6.5891695 -0.67753553
-4.6491919 6.6854048 -0.68487048
-4.6362691 6.7548676 -0.68928909
-4.6159639 6.8145256 -0.69264728
-4.5851359 6.859282 -0.69441473
-4.6022 6.9770846 -0.70395899
-4.5821252 7.0402541 -0.70767063
-4.5533738 7.0908666 -0.71005672
-4.5412326 7.1683159 -0.7152707
-4.5251436 7.2408133 -0.71995449
-4.527154 7.3439059 -0.72781962
-4.5135765 7.4234619 -0.73321038
-4.4920197 7.4911671 -0.73736387
-4.489069 7.5914655 -0.74487561
-4.4659877 7.6593089 -0.7490291
-4.4382701 7.7202454 -0.75247562
-4.4610543 7.8712516 -0.76511294
-4.4379373 7.9436932 -0.76970834
-4.4126573 8.0135279 -0.77403861
-4.4028411 8.1131163 -0.78137356
-4.3853908 8.2005854 -0.78747123
-4.3823552 8.3172245 -0.7964853
-4.372086 8.4226379 -0.80435044
-4.350709 8.5087252 -0.81027144
-4.3347116 8.6073198 -0.8174296
-4.323421 8.7176371 -0.82573664
-4.3231769 8.8531971 -0.83651811
-4.3097768 8.9648409 -0.84491354
-4.3075247 9.1027594 -0.8558718
-4.2932262 9.2184105 -0.86462069
-4.3046451 9.3930836 -0.87911379
-4.2952447 9.5264683 -0.8895418
-4.274271 9.6373234 -0.89776045
-4.2636471 9.7747545 -0.90854192
-4.2569933 9.9252291 -0.92056066
-4.2378139 10.050287 -0.93010491
-4.2161145 10.172719 -0.93938404
-4.1844282 10.274041 -0.9466306
-4.1820035 10.451188 -0.9611237
-4.1604328 10.585114 -0.97146332
-4.1642776 10.788861 -0.98843092
-4.1477733 10.945542 -1.0008914
-4.1253338 11.091219 -1.0122916
-4.1070671 11.252935 -1.0251939
-4.0567474 11.33044 -1.0301429
-4.0185027 11.444402 -1.0385382
-3.9602032 11.503691 -1.041808
-3.897505 11.551369 -1.0440174
-3.8162355 11.543857 -1.0411011
-3.7361257 11.538626 -1.0384499
-3.656224 11.532848 -1.0357987
-3.5830293 11.547455 -1.0350918
-3.5141337 11.575894 -1.0357103
-3.4336829 11.565727 -1.032794
-3.3582096 11.571273 -1.0313801
-3.2863312 11.588785 -1.0311149
-3.2143641 11.605852 -1.0308498
-3.1316512 11.583048 -1.0269614
-3.0475609 11.552926 -1.0224544
-2.9515495 11.473976 -1.0135288
-2.8602564 11.408779 -1.0059288
-2.7776742 11.374829 -1.0012449
-2.6882443 11.309287 -0.99373329
-2.6039884 11.261518 -0.98790067
-2.5298152 11.254931 -0.9858681
-2.4305322 11.132053 -0.97331917
-2.3402886 11.043468 -0.96395165
-2.256439 10.979564 -0.95688182
-2.1816339 10.95608 -0.9535237
-2.1047509 10.919378 -0.94901663
-2.0311391 10.896835 -0.94583523
-1.9513512 10.83753 -0.93938404
-1.86657 10.744291 -0.92992812
-1.7881069 10.680879 -0.92321181
-1.7136621 10.63658 -0.91826296
-1.6372372 10.575036 -0.91181171
-1.5609006 10.508032 -0.90491867
-1.4892375 10.467117 -0.90041167
-1.4173299 10.4198 -0.89537442
-1.3459311 10.371008 -0.89024878
-1.2737186 10.309872 -0.88406271
-1.2066031 10.284845 -0.88114637
-1.1398427 10.259386 -0.87823009
-1.072505 10.22458 -0.87451839
-1.0029948 10.16257 -0.86842072
-0.93850845 10.14572 -0.86638814
-0.87503803 10.137395 -0.86515093
-0.81114787 10.121722 -0.86329508
-0.74542463 10.077834 -0.8589648
-0.68020326 10.032528 -0.85454619
-0.61691505 10.008675 -0.85207176
-0.55455267 9.9953642 -0.85056943
-0.49060875 9.9458504 -0.84588563
-0.42768052 9.9048862 -0.84199727
-0.36453551 9.8436184 -0.83634138
-0.30311313 9.8128147 -0.8334251
-0.24218129 9.7856121 -0.83086228
-0.18159471 9.7580328 -0.82829946
-0.12115631 9.7141428 -0.8243227
-0.061352294 9.6838255 -0.82158315
-0.0019263311 9.6591167 -0.81937385
0.057158876 9.6280689 -0.81663424
0.11609071 9.6155844 -0.81557381
0.17503434 9.6117039 -0.81530869
0.23400736 9.6104488 -0.81530869
0.29278967 9.6028585 -0.81477845
0.35123268 9.5879402 -0.81362957
0.40963122 9.5756531 -0.81274587
0.46803817 9.5659952 -0.81212723
0.52519244 9.5350952 -0.80965281
0.58168101 9.4988832 -0.80673653
0.63680786 9.4484253 -0.80258298
0.69265223 9.4155312 -0.80002022
0.74819607 9.3833017 -0.79754573
0.80294448 9.3457832 -0.79462945
0.85753471 9.3109245 -0.79197824
0.91104567 9.2688084 -0.78870845
0.95682883 9.1570396 -0.77925259
0.80758482 7.294662 -0.61355364
0.81486595 6.9690189 -0.58492088
0.85797679 6.9668536 -0.585186
0.90364689 6.984179 -0.58721858
0.94701928 6.982451 -0.5875721
0.96424854 6.796031 -0.57139987
0.97878891 6.6067128 -0.55496252
1.0191566 6.5995984 -0.55487418
1.0594738 6.5922375 -0.55478579
1.1026915 6.6023145 -0.55628812
1.1443722 6.6022944 -0.5569067
1.1852138 6.5971093 -0.55708349
1.2267631 6.5955887 -0.55761373
1.2685264 6.5947843 -0.55823231
1.3116847 6.6005545 -0.55946952
1.349159 6.5777454 -0.55814397
1.3878453 6.5615468 -0.55743694
1.422991 6.5295496 -0.55531603
1.4521283 6.4720984 -0.55089736
1.4911411 6.460155 -0.55063224
1.5344305 6.4663906 -0.55204624
1.5726635 6.4510474 -0.551516
1.6037539 6.4074559 -0.54842293
1.6413051 6.3907413 -0.54780436
1.6799797 6.3786235 -0.54762757
1.712598 6.3441534 -0.54541826
1.7435296 6.3047237 -0.54276711
1.7659024 6.2364016 -0.53746474
1.7825134 6.1508231 -0.53057164
1.8168237 6.1283097 -0.52951115
1.8595927 6.1342053 -0.53110188
1.8930697 6.1093588 -0.52986467
1.9184966 6.0596423 -0.52632976
1.9498198 6.0297489 -0.52465069
1.9905276 6.0290222 -0.52571112
2.0204871 5.9959278 -0.52376693
2.049144 5.959868 -0.52155763
2.0754573 5.9180431 -0.51881808
2.0845675 5.8292236 -0.51165986
2.1308699 5.845335 -0.51439941
2.168777 5.8377528 -0.51492965
2.1953895 5.8001137 -0.51263195
2.2230551 5.7660866 -0.51068777
2.2525702 5.7375021 -0.50927383
2.2858841 5.7189479 -0.50883192
2.3198059 5.7020459 -0.50856686
2.3574162 5.6941471 -0.50918543
2.390764 5.6759033 -0.50883192
2.4255457 5.6611266 -0.50883192
2.4709778 5.6707935 -0.51121801
2.5210571 5.6901326 -0.5145762
2.5571508 5.6772814 -0.51484132
2.5886211 5.6542387 -0.51413429
2.6215856 5.6346359 -0.51378083
2.6565354 5.6193447 -0.51386917
2.6905339 5.6020408 -0.51378083
2.7257299 5.5872173 -0.51395756
2.7657094 5.5819907 -0.51510644
2.7954314 5.5560169 -0.51422268
2.8262982 5.5325503 -0.5136041
2.8601921 5.5151043 -0.5136041
2.889339 5.4886365 -0.51272035
2.8994951 5.4268751 -0.50830173
2.9612226 5.4615235 -0.5136041
3.0090809 5.4694338 -0.51625526
3.0484092 5.4613047 -0.51731575
3.0843155 5.4468312 -0.51775759
3.1226394 5.4364414 -0.51864135
3.1549351 5.4154577 -0.51846457
3.1936774 5.4054313 -0.51943666
3.2329271 5.395987 -0.52049714
3.2758005 5.3922243 -0.52217621
3.3182271 5.3872895 -0.52376693
3.3644085 5.3879509 -0.52597624
3.4021993 5.3747811 -0.52677161
3.432425 5.3496122 -0.52632976
3.4364066 5.2841916 -0.52164602
3.4769866 5.2754827 -0.52297157
3.5391636 5.29878 -0.5277437
3.5838916 5.2951131 -0.52968794
3.6315241 5.2952032 -0.53207397
3.6798601 5.2957258 -0.5345484
3.7317791 5.3007407 -0.53755307
3.7688603 5.2842312 -0.5382601
3.7901299 5.2456651 -0.53658098
3.8240101 5.2247224 -0.5368461
3.8459125 5.1875567 -0.53534377
3.8722878 5.156692 -0.5345484
3.9231501 5.1582069 -0.53737634
3.9772153 5.1632361 -0.54064614
4.0339394 5.1709371 -0.54426944
4.08535 5.1711006 -0.54709733
4.1319356 5.1646037 -0.5492183
4.1654282 5.1414757 -0.54948342
4.179841 5.0950265 -0.54709733
4.193841 5.048595 -0.54471129
4.231792 5.0311522 -0.54568338
4.2690406 5.0126758 -0.54656714
4.360208 5.0565462 -0.55478579
4.3754311 5.0116878 -0.55266482
4.4133558 4.9929566 -0.55363691
4.4757915 5.0014133 -0.55787885
4.4936891 4.9598298 -0.55619973
4.5469284 4.9571233 -0.5592044
4.5894589 4.9422693 -0.56079513
4.6101465 4.9038553 -0.55955791
4.6525092 4.888464 -0.56114864
4.6955471 4.8734546 -0.56282771
4.7448349 4.8645182 -0.56530213
4.7878909 4.8487802 -0.5669812
4.8400855 4.841855 -0.56980914
4.896626 4.8386726 -0.57316732
4.9461808 4.8280191 -0.57564175
4.9965053 4.8176303 -0.57820457
5.0396752 4.7999353 -0.57988364
5.0857177 4.7846212 -0.58191621
5.1397872 4.7763815 -0.58492088
5.193212 4.766984 -0.58783722
5.2673755 4.7758451 -0.59322792
5.2906446 4.7381186 -0.59252095
5.3427448 4.7260265 -0.5952605
5.4233985 4.738379 -0.60135823
5.4712229 4.721282 -0.60356754
5.509944 4.6960225 -0.60471642
5.5805655 4.6974082 -0.60957688
5.6276655 4.6783614 -0.61169785
5.6608849 4.6475353 -0.6122281
5.7148271 4.6334162 -0.61514437
5.7711406 4.620677 -0.61832577
5.8103228 4.5938282 -0.61956304
5.8698049 4.5826111 -0.6230979
5.9333115 4.5738764 -0.62707472
5.9810791 4.5524673 -0.62928402
6.0550833 4.5503931 -0.63440967
6.1084876 4.5321484 -0.63723755
6.1530561 4.5069432 -0.6390934
6.1967373 4.4807782 -0.64086086
6.2314105 4.4478798 -0.64165622
6.2602134 4.4107084 -0.64183295
6.2994256 4.3807445 -0.64315856
6.3688903 4.3713226 -0.64775395
6.4425988 4.3640056 -0.65279114
6.5090022 4.350965 -0.65703309
6.5987682 4.3526311 -0.6637494
6.6595788 4.3343387 -0.6673727
6.6969442 4.3003922 -0.66852152
6.7442403 4.2725472 -0.67073083
6.8024268 4.2511463 -0.67408901
6.9038463 4.2558513 -0.68195421
6.9528093 4.2273831 -0.68434024
7.0042443 4.2000108 -0.68699145
7.0504603 4.1691236 -0.68911237
7.0974207 4.138329 -0.69132167
7.1477222 4.1090999 -0.69388449
7.1987972 4.0799003 -0.69653571
7.2889128 4.0720916 -0.70316362
7.3652406 4.0556407 -0.70837766
7.4293828 4.0317535 -0.71235442
7.5523572 4.0387053 -0.72225219
7.6351566 4.0229368 -0.72808474
7.6570454 3.9746361 -0.72781962
7.711442 3.9429979 -0.73082429
7.7684069 3.9121857 -0.73409408
7.8556223 3.8958704 -0.7403686
7.9724646 3.8930559 -0.74955934
8.1497116 3.9178705 -0.76467109
8.2465267 3.9023051 -0.77182931
8.4102726 3.9168196 -0.78552705
8.4920998 3.8917027 -0.79118294
8.6329565 3.8923423 -0.80258298
8.677619 3.8485873 -0.80461556
8.7686319 3.8247428 -0.81115514
8.7891884 3.7696893 -0.81089002
8.8048115 3.7125926 -0.81018305
8.8154631 3.6535392 -0.80903423
8.83218 3.5971253 -0.80850399
8.8531599 3.5424941 -0.80841559
8.8691673 3.485919 -0.80788535
8.8820267 3.4282048 -0.80708998
8.8814716 3.3655221 -0.80505741
8.8842163 3.3043649 -0.80337834
8.8912249 3.2450085 -0.80214113
8.8772087 3.1783032 -0.79895973
8.8927832 3.1224537 -0.79860622
8.9202518 3.0707481 -0.79940158
8.9389257 3.0159566 -0.79940158
8.9478054 2.9579248 -0.79851782
8.9629431 2.902046 -0.79825276
8.9872284 2.849103 -0.79887134
9.0016861 2.7930193 -0.79860622
9.0100765 2.7351289 -0.79781085
9.0209599 2.6780915 -0.79728061
9.0286131 2.6201906 -0.7964853
9.0291882 2.560394 -0.7950713
9.0380087 2.5030825 -0.79445273
9.043581 2.4449792 -0.79356897
9.0535975 2.3881724 -0.79312712
9.0680809 2.3325756 -0.79312712
9.0851212 2.2776177 -0.79339224
9.1047316 2.2232475 -0.79392248
9.1065722 2.1645756 -0.792862
9.0905685 2.1019249 -0.79021078
9.1032944 2.0461066 -0.79021078
9.1215162 1.9914863 -0.79074103
9.1286926 1.9344476 -0.79029918
9.1325846 1.8767942 -0.78959221
9.1282978 1.8176094 -0.78817827
9.1216736 1.7581708 -0.78658754
9.1244555 1.7007077 -0.78588057
9.1229553 1.6425705 -0.78482008
9.1210861 1.5845159 -0.78375959
9.1326017 1.5288491 -0.78393632
9.1368933 1.4719914 -0.78349447
9.1418161 1.4152911 -0.78314102
9.1483574 1.3588785 -0.78296423
9.1644125 1.3038424 -0.7836712
9.1554613 1.2453032 -0.78216887
9.1658936 1.1894875 -0.78243399
9.1611567 1.1317582 -0.78137356
9.1303349 1.0711132 -0.77801538
9.147625 1.0162808 -0.77898747
9.1616135 0.96096444 -0.77969444
9.1851807 0.90649343 -0.78128517
9.2054472 0.85149401 -0.78261077
9.2114916 0.79508013 -0.78269911
9.1854162 0.73607659 -0.77995956
9.1798267 0.67896694 -0.77907586
9.1877947 0.62289751 -0.77942932
9.1864729 0.56620389 -0.77898747
9.1867905 0.50966048 -0.77872235
9.2036734 0.45396939 -0.77995956
9.2152414 0.39787525 -0.78075492
9.215519 0.34125027 -0.7805782
9.2144527 0.28460613 -0.78031307
9.2130375 0.22798789 -0.78004795
9.2053003 0.1712863 -0.77925259
9.2071733 0.11481287 -0.77934098
9.2146778 0.058361012 -0.77995956
9.2228308 0.0018216298 -0.78066653
9.2336254 -0.05483323 -0.78163868
9.244071 -0.11162049 -0.78261077
9.2471962 -0.16841131 -0.78296423
9.2469845 -0.22517209 -0.78305262
9.2414455 -0.28178501 -0.78269911
9.2285929 -0.33808348 -0.78172702
9.2253504 -0.39466017 -0.78163868
9.2257395 -0.45140433 -0.78190374
9.2168283 -0.50767547 -0.78137356
9.2135401 -0.5642193 -0.78137356
9.2059288 -0.62047416 -0.78102005
9.1920147 -0.67621857 -0.78013635
9.1658478 -0.73086607 -0.7781921
9.1621828 -0.78717816 -0.7782805
9.1690836 -0.84447718 -0.77934098
9.1795902 -0.90228003 -0.78075492
9.177844 -0.95900184 -0.78110844
9.152976 -1.0132165 -0.77942932
9.1564798 -1.0705153 -0.78031307
9.1398525 -1.1254613 -0.77942932
9.1169691 -1.1794771 -0.77801538
9.1026516 -1.2344588 -0.77739674
9.0899744 -1.289589 -0.77695489
9.1015968 -1.3482581 -0.77872235
9.1020126 -1.4054468 -0.77951771
9.0883007 -1.4604793 -0.77907586
9.095871 -1.5190051 -0.7805782
9.0863791 -1.5747877 -0.7805782
9.0696821 -1.6292785 -0.77995956
9.0555973 -1.68417 -0.7796061
9.0529184 -1.7412071 -0.78031307
9.0508566 -1.7984688 -0.78110844
9.0376997 -1.8535699 -0.78093165
9.0203094 -1.9077529 -0.78040141
9.0035677 -1.9620043 -0.77995956
8.9952469 -2.0180843 -0.78031307
8.9836655 -2.0734639 -0.78040141
8.9707737 -2.1285477 -0.78040141
8.9565763 -2.1833155 -0.78031307
8.9517078 -2.240407 -0.78110844
8.9406872 -2.2960346 -0.78137356
8.9177618 -2.3485677 -0.7805782
8.8906813 -2.3998678 -0.77942932
8.8815489 -2.4559674 -0.77995956
8.8634367 -2.5096035 -0.77969444
8.8296928 -2.5586743 -0.77801538
8.7899523 -2.6057277 -0.77580607
8.7652187 -2.6570125 -0.7750107
8.7506533 -2.7113342 -0.77518743
8.7433491 -2.7679822 -0.77607119
8.7224092 -2.8203526 -0.77571768
8.688859 -2.8685112 -0.77421534
8.6625996 -2.9189088 -0.77341998
8.6416998 -2.9710352 -0.77315485
8.6289473 -3.0259812 -0.7736851
8.6149073 -3.0805473 -0.77412695
8.5958433 -3.1333494 -0.77412695
8.5773897 -3.1863804 -0.77421534
8.5651302 -3.2417707 -0.77492231
8.5515833 -3.2967722 -0.77554095
8.5349026 -3.3506374 -0.7758944
8.5151081 -3.4033132 -0.7759828
8.5042143 -3.4596252 -0.77695489
8.5095167 -3.522789 -0.77951771
8.581378 -3.6143699 -0.78853172
8.4976931 -3.6406767 -0.78261077
8.475194 -3.692749 -0.78261077
8.4150362 -3.7281413 -0.77898747
8.4455881 -3.8038371 -0.78420144
8.4266176 -3.8576593 -0.78464335
8.4054985 -3.910552 -0.78490847
8.3840475 -3.9633305 -0.78517354
8.3909988 -4.0297909 -0.7882666
8.396553 -4.0960484 -0.79127127
8.3864355 -4.1550088 -0.7927736
8.347436 -4.1996741 -0.79144806
8.1707077 -4.1737885 -0.77642465
8.1520176 -4.2275128 -0.77713162
8.1523685 -4.2913713 -0.77978283
8.1320333 -4.3445978 -0.78040141
8.1174822 -4.4010592 -0.78163868
8.0903254 -4.4507842 -0.78163868
8.1750669 -4.562963 -0.79303873
8.2621994 -4.6783094 -0.80479234
8.2575245 -4.7428074 -0.80726677
8.2360134 -4.7978978 -0.80806214
8.2304325 -4.8625283 -0.81053656
8.2252226 -4.9277825 -0.81309938
8.2118578 -4.9885011 -0.81486684
8.1743088 -5.0346155 -0.81415981
8.1288996 -5.0757093 -0.81265748
8.1001282 -5.12709 -0.8129226
8.0886374 -5.1896033 -0.81504357
8.0741787 -5.2505393 -0.81689936
8.0609398 -5.3125892 -0.81893194
8.0281906 -5.3619504 -0.81893194
7.9959641 -5.4116678 -0.81902033
7.9634299 -5.4611912 -0.81910872
7.9256806 -5.5071096 -0.81866682
7.8917403 -5.5556369 -0.81866682
7.8575029 -5.6039553 -0.81866682
7.6138468 -5.5009847 -0.79577827
7.3902454 -5.4087706 -0.77492231
7.3241105 -5.4296942 -0.77129906
7.3049946 -5.4852972 -0.77288973
7.281507 -5.5378547 -0.77403861
7.2821131 -5.6091723 -0.77792698
7.2726917 -5.6733532 -0.78075492
7.6012044 -6.0049825 -0.82184827
7.5649929 -6.0521317 -0.82193661
7.5315857 -6.1015706 -0.82237852
7.5086379 -6.1596713 -0.82405758
7.4821949 -6.2151742 -0.82538319
7.4599276 -6.2744308 -0.82723898
7.4228048 -6.3213778 -0.82741576
7.3755794 -6.3596492 -0.82644367
7.3334169 -6.4021649 -0.82609016
7.2939959 -6.4470415 -0.82609016
7.2609811 -6.497653 -0.82688552
7.237216 -6.5567961 -0.82882971
7.2298822 -6.6313763 -0.83280647
7.1897869 -6.676291 -0.83289486
7.1515899 -6.7230101 -0.83324832
7.1152544 -6.7715716 -0.83386695
7.0778751 -6.8192487 -0.8343972
7.0423174 -6.8688087 -0.83519256
7.0042915 -6.9160895 -0.8357228
6.9589052 -6.95612 -0.83536929
6.910491 -6.9930201 -0.83466232
6.8639736 -7.0317268 -0.83422047
6.8283043 -7.0815983 -0.83519256
6.7352586 -7.0714326 -0.82882971
6.7094893 -7.1314878 -0.83112741
6.6893392 -7.1980591 -0.83422047
6.6605401 -7.2558455 -0.83625305
6.6252613 -7.3069077 -0.83749026
6.5869479 -7.3548417 -0.83837396
6.5542355 -7.4092951 -0.84005302
6.5119267 -7.4531221 -0.84049493
6.4595642 -7.4853973 -0.83961117
6.4277287 -7.5415692 -0.84155536
2.9807663 -3.5414009 -0.3730914
2.9398763 -3.5366457 -0.37044021
2.8928368 -3.5238245 -0.3669053
2.8435566 -3.5074656 -0.3630169
2.7939646 -3.4898582 -0.35904011
2.7663205 -3.4991226 -0.35815638
2.737442 -3.5066092 -0.35709593
2.7055352 -3.5099292 -0.35559359
2.6724844 -3.511405 -0.3539145
2.6490932 -3.5253482 -0.35364938
2.610199 -3.5183384 -0.35108659
2.5673707 -3.5053604 -0.34790516
2.5393932 -3.5121689 -0.34693307
2.5033267 -3.5074162 -0.34472373
2.464546 -3.4982829 -0.34207255
2.4168723 -3.4757226 -0.33800739
2.3453293 -3.4173975 -0.33014223
2.2952659 -3.3888412 -0.32554686
2.2672324 -3.3920956 -0.32439801
2.2507641 -3.412595 -0.32510498
2.2390201 -3.4405329 -0.32660732
2.2157142 -3.4508541 -0.32625383
2.1875682 -3.4534461 -0.32510498
2.1689768 -3.4710271 -0.32554686
2.2114124 -3.587714 -0.33632833
2.189357 -3.6012154 -0.33632833
2.1718297 -3.6222694 -0.33712369
2.1546335 -3.6441011 -0.33800739
2.1377528 -3.6667182 -0.33897951
2.1162069 -3.6814935 -0.33915624
2.0803161 -3.6710117 -0.33677018
2.0480349 -3.6663158 -0.33500272
2.0192537 -3.6674705 -0.33385387
1.9881599 -3.6640332 -0.33226317
1.9618824 -3.6691363 -0.3315562
0 -0 -0
0 -0 -0
1.7956002 -3.5121789 -0.3123793
1.759678 -3.4946625 -0.30955139
1.7342186 -3.4973626 -0.30875602
1.7087924 -3.4998822 -0.30796066
0 -0 -0
1.6520797 -3.4917772 -0.30513275
0 -0 -0
0 -0 -0
1.5867088 -3.5197787 -0.30495599
1.5602354 -3.518522 -0.30389553
1.5398116 -3.5307682 -0.30416062
1.519689 -3.5438116 -0.30451414
1.5006253 -3.559494 -0.30513275
1.4825704 -3.5778365 -0.30601647
0 -0 -0
0 -0 -0
1.42448 -3.6249144 -0.30796066
1.418353 -3.6754031 -0.31193745
1.3961275 -3.6849682 -0.31202582
1.3780053 -3.7056022 -0.31317466
1.3671962 -3.7467372 -0.3162677
1.355598 -3.7869401 -0.31927237
1.339267 -3.8149228 -0.32112822
1.3252375 -3.8503816 -0.32369101
0 -0 -0
1.3194743 -3.9921377 -0.3354446
0 -0 -0
0 -0 -0
0 -0 -0
0 -0 -0
1.2570695 -4.2350788 -0.35435638
0 -0 -0
1.2387052 -4.3690143 -0.36531457
1.2249031 -4.4235697 -0.36964485
1.2702788 -4.6992764 -0.39430085
1.2589536 -4.773438 -0.40039858
1.2343562 -4.7994018 -0.40207765
1.2487336 -4.9817638 -0.41807312
1.2287774 -5.032876 -0.42204991
1.250862 -5.2632089 -0.44237563
1.2322346 -5.3299837 -0.44776636
1.2473538 -5.5502758 -0.46711999
1.2353755 -5.6590328 -0.47631076
1.2126081 -5.7230239 -0.4814364
1.2041429 -5.8601232 -0.49318996
1.2243915 -6.1497259 -0.51872969
1.2181245 -6.3204618 -0.53348798
1.1913688 -6.3924451 -0.53932053
1.2257432 -6.8084273 -0.57617199
1.1895719 -6.8482056 -0.57908827
1.162993 -6.9477224 -0.58739531
1.1382481 -7.0658517 -0.59738147
1.3683408 -8.8386345 -0.7559222
1.3111544 -8.8271589 -0.75415474
1.2566866 -8.833065 -0.75397795
1.2021956 -8.8386364 -0.75380123
1.1465297 -8.83498 -0.75282913
1.0936415 -8.8527231 -0.75380123
1.0382568 -8.8503637 -0.75300586
0.98327219 -8.8506279 -0.75247562
0.92780375 -8.8455973 -0.75150353
0.87243414 -8.8402195 -0.75053144
0.81789982 -8.8424311 -0.75026631
0.76259989 -8.8353739 -0.74920583
0.70861149 -8.8428659 -0.74947095
0.65441287 -8.8480406 -0.74955934
0.5996381 -8.8449326 -0.74894071
0.54504871 -8.8434744 -0.74849886
0.49049982 -8.8416796 -0.74805701
0.43589526 -8.8375587 -0.74743837
0.38157478 -8.8380766 -0.74726164
0.19430614 -5.2518215 -0.42867786
0 -0 -0
0 -0 -0
0 -0 -0
0.059105273 -4.7550111 -0.38431475
0.02952785 -4.6925321 -0.37874725
0.00072848238 -4.6677227 -0.37653792
-0.027894521 -4.6646514 -0.3762728
-0.056312021 -4.64746 -0.37477046
-0 -0 -0
-0 -0 -0
-0.14099818 -4.6177588 -0.37229604
-0 -0 -0
-0 -0 -0
-0 -0 -0
-0 -0 -0
-0.29353225 -4.7902212 -0.38820314
-0.32137933 -4.7654719 -0.38617057
-0 -0 -0
-0 -0 -0
-0 -0 -0
-0 -0 -0
-0 -0 -0
-0.49056372 -4.6929531 -0.38104492
-0.52044541 -4.6997552 -0.38192865
-0.54765403 -4.6826224 -0.38069144
-0 -0 -0
-0.60635334 -4.6854281 -0.38157517
-0.63228101 -4.6608911 -0.37971935
-0.66184688 -4.6638269 -0.38033795
-0.69234812 -4.6724877 -0.3814868
-0.71887743 -4.6543698 -0.38024959
-0 -0 -0
-0 -0 -0
-0 -0 -0
-0.85066861 -4.7343464 -0.38917524
-0.88407212 -4.7525411 -0.39129618
-0 -0 -0
-0.94601429 -4.7598968 -0.39297527
-1.8083509 -8.8171721 -0.76095945
-1.8601513 -8.7951908 -0.75998735
-1.9206558 -8.8137827 -0.7627269
-1.9768802 -8.8115511 -0.7636106
-2.0291178 -8.7914906 -0.76290363
-2.0825634 -8.7769365 -0.7627269
-2.1139715 -8.6720552 -0.75433147
-2.1676259 -8.6608534 -0.7545082
-2.214534 -8.62327 -0.75229889
-2.2648673 -8.5998878 -0.75141519
-2.3144782 -8.5742884 -0.75035471
-1.754678 -6.3450465 -0.54647875
-1.7474523 -6.1712289 -0.5314554
-1.7852854 -6.1603904 -0.5314554
-1.8196543 -6.1378598 -0.53039491
-1.861904 -6.1418314 -0.53180885
-2.5250435 -8.1493216 -0.71933585
-2.5680854 -8.1118326 -0.71730328
-2.6000383 -8.0409508 -0.71217769
-2.6249738 -7.9510665 -0.7052846
-2.6555839 -7.8810048 -0.70024735
-2.6932051 -7.8334765 -0.69733107
-2.7270474 -7.7763848 -0.69353104
-2.7599559 -7.7182364 -0.68964261
-2.7840676 -7.6375175 -0.68363327
-2.8128428 -7.5717354 -0.67903787
-2.8335128 -7.4863262 -0.67258668
-2.8733041 -7.4529991 -0.67108434
-2.9066062 -7.4037032 -0.66807967
-2.942369 -7.36168 -0.66578197
-2.9649653 -7.2881269 -0.66047961
-2.9684844 -7.1703987 -0.65093535
-2.9965744 -7.1144114 -0.64731205
-3.0240898 -7.0583506 -0.6436888
-3.0514286 -7.0031347 -0.64015388
-3.0733628 -6.9369216 -0.63555849
-3.090101 -6.8607144 -0.62999099
-3.130481 -6.8380022 -0.62963748
-3.1501122 -6.7707982 -0.62495375
-3.1720171 -6.7099166 -0.62088859
-3.2006242 -6.6642871 -0.61832577
-3.1995335 -6.5585775 -0.609842
-3.2600558 -6.5798802 -0.61390716
-3.2838051 -6.5268292 -0.61063737
-3.2802947 -6.4213982 -0.6021536
-3.3031271 -6.3693161 -0.59897214
-3.3259082 -6.3180776 -0.59587914
-3.3387988 -6.2492294 -0.59101862
-3.3642631 -6.2049818 -0.58863252
-3.3926709 -6.1667671 -0.58686507
-3.4076302 -6.1049533 -0.58271158
-3.437664 -6.0709276 -0.58138597
-3.4723694 -6.0454016 -0.58094412
-3.4988694 -6.0059066 -0.57908827
-3.5143764 -5.9483047 -0.57537663
-3.5385232 -5.9061213 -0.57325572
-3.5534937 -5.8493929 -0.56963241
-3.5694695 -5.7952495 -0.56627423
-3.5833325 -5.7385964 -0.56265098
-3.5945048 -5.6786261 -0.55867416
-3.6195991 -5.6413727 -0.55708349
-3.6297114 -5.5814786 -0.55310673
-3.6408699 -5.5241694 -0.54939502
-3.6763566 -5.5042105 -0.54966015
-3.6933124 -5.4568009 -0.54700899
-3.7008126 -5.3962479 -0.54294384
-3.7270334 -5.3636222 -0.54188335
-3.7621672 -5.3439107 -0.54223686
-3.7619202 -5.2744994 -0.53719962
-3.7650476 -5.2109461 -0.53278095
-3.7981269 -5.1893535 -0.53295773
-3.8162537 -5.1475463 -0.53092515
-3.820255 -5.0873919 -0.52686
-3.8477812 -5.0590982 -0.52632976
-3.8611243 -5.0125079 -0.52376693
-3.8740413 -4.9659452 -0.52120411
-3.8945599 -4.929575 -0.51979017
-3.9073114 -4.8838062 -0.51731575
-3.9359505 -4.8581915 -0.51713896
-3.9517877 -4.8170066 -0.51519477
-3.984452 -4.7964997 -0.51563662
-3.9779046 -4.7292709 -0.51068777
-4.0107226 -4.7093239 -0.51121801
-4.0096231 -4.6499233 -0.50715286
-4.0354586 -4.622232 -0.5067994
-4.0261445 -4.554841 -0.50176215
-4.0413966 -4.5159473 -0.50008303
-4.0750484 -4.4977088 -0.50087839
-4.0742922 -4.4417882 -0.49716675
-4.0872364 -4.4013762 -0.4953109
-4.1066613 -4.3682308 -0.49433881
-4.1361337 -4.3458371 -0.4946923
-4.1488996 -4.3060293 -0.49292484
-4.1571608 -4.2619505 -0.49062717
-4.1951303 -4.2484126 -0.4921295
-4.2119651 -4.2134333 -0.49098065
-4.1980639 -4.1482997 -0.48603177
-4.2070451 -4.1064591 -0.48399919
-4.1869903 -4.0370078 -0.47843173
-4.2203369 -4.019485 -0.47949219
-4.2420187 -3.9907837 -0.4791387
-4.221189 -3.922637 -0.4736596
-4.2569189 -3.9074404 -0.47507355
-4.2269483 -3.832402 -0.46862236
-4.247416 -3.8037355 -0.46826884
-4.2572465 -3.7657223 -0.46667814
-4.2667708 -3.7277319 -0.46508744
-4.2737274 -3.6878145 -0.46323159
-4.2507911 -3.6227524 -0.45792925
-4.3102789 -3.6280351 -0.4622595
-4.3087144 -3.5817785 -0.45951995
-4.3452377 -3.5672832 -0.46119905
-4.3832922 -3.5537286 -0.46305487
-4.3910193 -3.5155594 -0.46146414
-4.3484378 -3.4378893 -0.45421758
-4.3458972 -3.3927529 -0.4515664
-4.3973985 -3.3897421 -0.45501295
-4.3990927 -3.3482165 -0.45289201
-4.4275169 -3.3271458 -0.45377573
-4.3806548 -3.2500572 -0.44635242
-4.3804259 -3.208401 -0.44414309
-4.3903441 -3.1744583 -0.4430826
-4.4462214 -3.1735029 -0.44705939
-4.4273405 -3.1191955 -0.44290587
-4.4136858 -3.0692213 -0.43937096
-4.4316139 -3.041518 -0.4392826
-4.4510174 -3.0148275 -0.43937096
-4.3982172 -2.9398506 -0.43177089
-4.40869 -2.9078717 -0.43097556
-4.4064136 -2.8677244 -0.42885461
-4.4080024 -2.8304062 -0.42717552
-4.3975196 -2.7857134 -0.42425922
-4.3925681 -2.7449522 -0.42196152
-4.4186549 -2.7236984 -0.42293364
-4.4191132 -2.6867015 -0.42125455
-4.450892 -2.6687572 -0.42284524
-4.4346027 -2.6221292 -0.41948709
-4.4652367 -2.6033998 -0.42098942
-4.484581 -2.5779386 -0.42134291
-4.4725842 -2.5346553 -0.418515
-4.4480524 -2.4848154 -0.41444984
-4.4867735 -2.4704494 -0.4168359
-4.4326863 -2.4053361 -0.40985447
-4.4798608 -2.3954737 -0.41312426
-4.4971185 -2.3693337 -0.41338935
-4.4938908 -2.3325164 -0.4116219
-4.4806256 -2.2908397 -0.40888235
-4.4901495 -2.2610636 -0.4084405
-4.5057235 -2.2343552 -0.40861723
-4.5077124 -2.200984 -0.40746841
-4.5175419 -2.1715572 -0.40711489
-4.5379839 -2.1472061 -0.40782189
-4.5294027 -2.1092274 -0.40570095
-4.5712357 -2.0946765 -0.40852886
-4.5540371 -2.0530765 -0.40561256
-0.28429812 -0.12567385 0.010004519
-0.28506389 -0.12392706 0.010004519
-0.24279404 -0.10372011 0.014158038
-0.24801496 -0.10416362 0.013716175
-0.26521254 -0.1095052 0.012125465
-4.5333471 -1.8461127 -0.39668691
-0 -0 -0
-0 -0 -0
-0 -0 -0
-0 -0 -0
-0 -0 -0
-0 -0 -0
-0 -0 -0
-0 -0 -0
-0 -0 -0
-0 -0 -0
-0 -0 -0
-0 -0 -0
-0 -0 -0
-0 -0 -0
-0 -0 -0
-0 -0 -0
-0 -0 -0
-0 -0 -0
-0 -0 -0
-0 -0 -0
-0 -0 -0
-0 -0 -0
-0 -0 -0
-0 -0 -0
-0 -0 -0
-0 -0 -0
-0 -0 -0
-0 -0 -0
-0 -0 -0
-0 -0 -0
-0 -0 -0
-0 -0 -0
-0 -0 -0
-0 -0 -0
-0 -0 -0
-0 -0 -0
-0 -0 -0
-0 -0 -0
-0 -0 -0
-0 -0 -0
-0 -0 -0
-0 -0 -0
-0 -0 -0
-0 -0 -0
-0 -0 -0
-0 -0 -0
-0 -0 -0
-0 -0 -0
-0 -0 -0
-0 -0 -0
-0 -0 -0
-0 -0 -0
-0 -0 -0
-0 -0 -0
-0 -0 -0
-0 -0 -0
-0 -0 -0
-0 -0 -0
-0.28884542 0.020194501 0.0083699133
-0 0 -0
-0 0 -0
-0.27455562 0.024224916 0.0097847013
-0.26747131 0.025225135 0.010492096
-0 0 -0
-0 0 -0
-0 0 -0
-0 0 -0
-0 0 -0
-0 0 -0
-0 0 -0
-0 0 -0
-0 0 -0
-0 0 -0
-0 0 -0
-0 0 -0
-0.25873601 0.045399953 0.011098433
-0 0 -0
-0 0 -0
-0 0 -0
-0.27898327 0.056141838 0.0088751949
-0 0 -0
-0.27827331 0.059561167 0.0088751949
-0 0 -0
-0 0 -0
-0.27519402 0.064213045 0.0090773078
-0 0 -0
-0.27245528 0.067101412 0.0092794197
-0.27300194 0.06901975 0.0091783637
-0.27257329 0.07069356 0.0091783637
-0.27213439 0.072364703 0.0091783637
-0 0 -0
-0.26931161 0.075155936 0.0093804765
-0 0 -0
-0.26360035 0.07703945 0.0098857582
-0 0 -0
-0.26263508 0.080268428 0.0098857582
-0.26118925 0.08157777 0.0099868141
-0.2606838 0.083178863 0.0099868141
-0.26205772 0.085401349 0.0097847013
-0.26058611 0.086689644 0.0098857582
-0.26287138 0.089258425 0.0095825894
-0.26138008 0.090540096 0.0096836453
-0 0 -0
-0.26024932 0.093740821 0.0096836453
-0.26153418 0.09602955 0.0094815325
-0.26000971 0.097279951 0.0095825894
-0.2612642 0.099589981 0.0093804765
-0.26435193 0.10264689 0.0089762509
-0.26648816 0.10537578 0.0086730821
-0.26952216 0.10850997 0.0082688574
-0.27252758 0.1116853 0.0078646317
-0.27275389 0.11374193 0.0077635758
-0.2738795 0.11619769 0.0075614629
-0.27224946 0.11747824 0.0076625193
-0.26970461 0.11833983 0.0078646317
-0.26806647 0.11958355 0.0079656886
-0.26642323 0.12081166 0.0080667445
-0.26657879 0.12286414 0.0079656886
-0.26761845 0.12534861 0.0077635758
-0.26415434 0.12569517 0.0080667445
-0.26337811 0.12731363 0.0080667445
-0.26170069 0.12848526 0.0081678005
-0.25824168 0.12874615 0.0084709693
-0.25567526 0.12942241 0.0086730821
-0.25311032 0.13007207 0.0088751949
-0.25142726 0.1311589 0.0089762509
-0.25149506 0.13316832 0.0088751949
-0.24979882 0.13423443 0.0089762509
-0.25245643 0.13768418 0.0085720262
-0.25334391 0.14020109 0.0083699133
-0.25507551 0.14322457 0.0080667445
-0.25936696 0.14776208 0.0074604065
-0.26103377 0.15085413 0.0071572377
-0.26267233 0.15397213 0.006854069
-0.26684204 0.1586508 0.0062477309
-0.2641634 0.15925139 0.0064498438
-0.26487505 0.16191341 0.0062477309
-0.26556394 0.16459012 0.0060456186
-0.2628682 0.16515164 0.0062477309
-0.25933847 0.16514875 0.0065509002
-0.25581878 0.16510883 0.006854069
-0.25147894 0.16448417 0.0072582942
-0.25129205 0.16657701 0.0071572377
-0.25356001 0.17034759 0.0067530125
-0.25333026 0.17246319 0.0066519561
-0.25635123 0.17685445 0.006146675
-0.25688779 0.17957011 0.0059445621
-0.25578114 0.18114296 0.0059445621
-0.25466487 0.18270899 0.0059445621
-0.24952598 0.18132868 0.0064498438
-0.24681072 0.18167071 0.0066519561
-0.2441007 0.1819863 0.006854069
-0.24139617 0.18227552 0.0070561813
-0.24184906 0.18496808 0.006854069
-0.24070957 0.18644856 0.006854069
-0.24190228 0.18977313 0.0065509002
-0.24306315 0.19311929 0.0062477309
-0.24651034 0.19836645 0.0056413934
-0.24990213 0.20366305 0.0050350553
-0.25323802 0.20900862 0.0044287178
-0.25575641 0.21376194 0.0039234362
-0.25519717 0.21597256 0.00382238
-0.25311399 0.21688437 0.0039234362
-0.25102922 0.21777879 0.0040244926
-0 0 -0
-0.24759673 0.22017917 0.004125549
-0.2469781 0.22236252 0.0040244926
-0.24707489 0.22521931 0.00382238
-0 0 -0
-0 0 -0
-0 0 -0
-0 0 -0
-0 0 -0
-0 0 -0
-0 0 -0
-0 0 -0
-0 0 -0
-0 0 -0
-0 0 -0
-0 0 -0
-0 0 -0
-0 0 -0
-0 0 -0
-0 0 -0
-0 0 -0
-0 0 -0
-0 0 -0
-0 0 -0
-0 0 -0
-0 0 -0
-0 0 -0
-0 0 -0
-0 0 -0
-0 0 -0
-0 0 -0
-0 0 -0
-0 0 -0
-0 0 -0
-4.3741488 5.8983202 -0.70811921
-4.3866439 5.9916835 -0.7165069
-4.3672762 6.0426793 -0.71953857
-4.3387823 6.0815125 -0.72105443
-4.3179932 6.1316118 -0.72398508
-4.3012938 6.1882205 -0.72772413
-4.2885633 6.2514181 -0.73227167
-4.2886009 6.3344646 -0.73924458
-4.2734127 6.3962345 -0.74359
-4.2543426 6.4530711 -0.74732906
-4.2444973 6.5249257 -0.75288719
-4.2301688 6.5910397 -0.75773787
-4.2199769 6.6647878 -0.76349807
-4.199553 6.7234669 -0.76743931
-4.1822195 6.788075 -0.77208787
-4.1673493 6.8578234 -0.7773428
-4.1487122 6.922523 -0.78199136
-4.1258945 6.9812546 -0.7859326
-4.1185369 7.0674739 -0.79310757
-4.1043291 7.1435113 -0.79906988
-4.0903225 7.2213702 -0.80523431
-4.0706654 7.2906365 -0.81038821
-4.0551062 7.368649 -0.81655264
-4.0425358 7.4537396 -0.82352555
-4.0248528 7.531054 -0.82958889
-4.004519 7.604908 -0.83524805
-3.9916732 7.6946921 -0.84272623
-3.9986939 7.825357 -0.85485297
-3.9747486 7.897737 -0.86031002
-3.9558063 7.9817052 -0.86708081
-3.9368544 8.0675249 -0.87405366
-3.9113982 8.1417503 -0.87971282
-3.9119651 8.2726316 -0.89173853
-3.8737216 8.3235397 -0.89477021
-3.8296163 8.3625298 -0.89648819
-3.7798669 8.3894997 -0.89689237
-3.7363787 8.4307261 -0.8989135
-3.6988847 8.4863281 -0.90255153
-3.6631994 8.5472727 -0.90679592
-3.6199536 8.5915937 -0.90922129
-3.5793457 8.6430588 -0.91245508
-3.5326188 8.6805248 -0.91417301
-3.4855666 8.717742 -0.91589099
-3.3887465 8.6287622 -0.90386528
-3.3904917 8.79142 -0.9193269
-3.3382456 8.8167105 -0.91983217
-3.2833915 8.8351631 -0.91963005
-3.2332067 8.8663597 -0.92084277
-3.1867826 8.908514 -0.92326808
-3.1445715 8.9635754 -0.92710823
-3.0979228 9.007163 -0.92973572
-3.0454566 9.0344877 -0.93064523
-2.995579 9.0700092 -0.93246424
-2.9377275 9.0815926 -0.93175679
-2.8831496 9.103241 -0.93216103
-2.8307722 9.132164 -0.93337375
-2.7761281 9.1541224 -0.93387902
-2.7210383 9.174799 -0.93428326
-2.6652453 9.1932335 -0.93448532
-2.6085155 9.208457 -0.93438429
-2.5485172 9.2118235 -0.93307054
-2.4893539 9.2176819 -0.93206
-2.4312282 9.2270107 -0.93145365
-2.3723395 9.2330818 -0.93054414
-2.3079121 9.2165813 -0.92731035
-2.236944 9.171608 -0.92114592
-2.1737354 9.1561203 -0.91811424
-2.1134861 9.1518364 -0.91629523
-2.0529361 9.1452179 -0.9142741
-1.9942414 9.145977 -0.91306138
-1.9378793 9.1570683 -0.91296035
-1.8834552 9.1775579 -0.91386986
-1.8282706 9.1947966 -0.91447622
-1.7693752 9.193141 -0.91316247
-1.708568 9.1803493 -0.9107371
-1.6476327 9.1652012 -0.90810966
-1.5862682 9.14573 -0.90507793
-1.5286463 9.1464596 -0.90416843
-1.4668132 9.1203051 -0.9005304
-1.4026262 9.0760393 -0.89507335
-1.3463271 9.0805378 -0.89466918
-1.290305 9.0866585 -0.89446706
-1.2301141 9.0618706 -0.89113218
-1.1704036 9.0376749 -0.88789839
-1.109699 9.0022268 -0.88355297
-1.0498204 8.9693403 -0.8795107
-0.99126291 8.9439707 -0.87627691
-0.93357348 8.9231682 -0.87354839
-0.87646866 8.9049664 -0.87112302
-0.81989616 8.8893719 -0.86900085
-0.76312232 8.8684635 -0.86637342
-0.70718962 8.8541355 -0.86445332
-0.65109646 8.8344955 -0.862028
-0.59607393 8.8264132 -0.86081529
-0.54105347 8.8160019 -0.85940051
-0.48574555 8.7973013 -0.85717726
-0.43190306 8.8030977 -0.85748047
-0.37822032 8.8135338 -0.85828888
-0.32329664 8.7928219 -0.8559646
-0.26852009 8.7677898 -0.85323608
-0.21355432 8.7215328 -0.84838539
-0.15943812 8.6898537 -0.84505051
-0.10586289 8.6697769 -0.84292835
-0.052605059 8.6603146 -0.84191775
0.00053071673 8.6405773 -0.83989662
0.053434893 8.6225033 -0.8380776
0.10617932 8.6090813 -0.83676392
0.15883508 8.5993147 -0.83585441
0.211375 8.5892277 -0.8349449
0.26318285 8.5589304 -0.83201426
0.31473735 8.5313053 -0.82938677
0.36579111 8.4993954 -0.8263551
0.41641617 8.4661865 -0.82322234
0.46538007 8.409831 -0.8177653
0.51605505 8.391923 -0.81624949
0.56753719 8.3885984 -0.81624949
0.61775047 8.3680906 -0.81453151
0.66622359 8.3284416 -0.81089348
0.71389127 8.2845497 -0.80685121
0.76058739 8.2354336 -0.80230373
0.80729407 8.1919994 -0.79836249
0.85650623 8.1769972 -0.79735196
0.90644348 8.16961 -0.79714984
0.81571484 6.963347 -0.67436641
0.857328 6.9493246 -0.67345691
0.95154983 7.341536 -0.71418262
0.97713637 7.1926179 -0.69952947
0.9665997 6.8023515 -0.66011751
0.9792316 6.6004596 -0.64000732
1.0194085 6.5923605 -0.6398052
1.0612633 6.5948215 -0.6407147
1.0992445 6.5734673 -0.63919884
1.135982 6.5460143 -0.63707668
1.1581446 6.4390492 -0.62676889
1.1894288 6.3878098 -0.62222141
1.2184335 6.3276386 -0.61676437
1.2372251 6.2195439 -0.60635555
1.2631478 6.1523895 -0.60019112
1.2973683 6.1279778 -0.59847313
1.3309125 6.1014342 -0.59655309
1.3619982 6.0650039 -0.59362245
1.3911183 6.0216374 -0.58998442
1.4082546 5.9297476 -0.58129358
1.4316323 5.8678389 -0.57573551
1.4509169 5.7923574 -0.5687626
1.4797391 5.7573309 -0.56603408
1.5069175 5.71736 -0.56280029
1.5411912 5.7051249 -0.56249714
1.5748405 5.6907668 -0.56199181
1.5983294 5.6407967 -0.55774748
1.6279196 5.6136851 -0.55592847
1.6623338 5.6035905 -0.55592847
1.6978415 5.5970931 -0.55633265
1.7351009 5.5960722 -0.55734324
1.7639934 5.5682497 -0.55552423
1.79261 5.5402842 -0.55370522
1.8115823 5.4838395 -0.54885453
1.8213426 5.4019203 -0.54127526
1.8525108 5.3849988 -0.54066896
1.8911208 5.3894887 -0.54238689
1.9288495 5.3908968 -0.54380167
1.9646198 5.3864365 -0.54461014
1.9900033 5.353766 -0.54238689
2.0288091 5.3572702 -0.54410487
2.0637918 5.3502898 -0.54471117
2.090759 5.322711 -0.54309428
2.111552 5.2802243 -0.53986049
2.137907 5.2524266 -0.53824359
2.1670477 5.2318573 -0.53743517
2.1917648 5.2010441 -0.53551507
2.2228522 5.1856689 -0.53531295
2.2645731 5.1947303 -0.53783935
2.3093116 5.2098393 -0.5410732
2.3420532 5.1973858 -0.54127526
2.3805311 5.1973882 -0.54289216
2.4052367 5.1673517 -0.54117423
2.4334934 5.1453023 -0.54036576
2.4697599 5.1401367 -0.54147738
2.5029991 5.1284618 -0.54188162
2.5348616 5.1138983 -0.54198271
2.5661922 5.0982485 -0.54198271
2.6010494 5.0894933 -0.54279113
2.6473548 5.1025767 -0.54612601
2.6883528 5.1047206 -0.54824817
2.7224391 5.0933928 -0.54885453
2.7669272 5.1010761 -0.55168408
2.7847378 5.0596008 -0.54885453
2.8196125 5.049367 -0.54966295
2.8525038 5.0354333 -0.55006719
2.883347 5.0178361 -0.55006719
2.9110749 4.9948931 -0.54946083
2.936604 4.9683733 -0.54845029
2.9675457 4.9511142 -0.54855132
3.0014875 4.9387631 -0.54925871
3.0317347 4.9202533 -0.54925871
3.0645039 4.905777 -0.54976404
3.0993395 4.8944449 -0.55067354
3.1336133 4.8820324 -0.55148196
3.1635101 4.8627133 -0.55148196
3.1954787 4.8465328 -0.5518862
3.2152042 4.8119464 -0.55006719
3.2575023 4.8110728 -0.55239147
3.297658 4.8065796 -0.55431157
3.338449 4.8025908 -0.55633265
3.3896291 4.8129206 -0.5601728
3.4335468 4.8122759 -0.5626992
3.4735029 4.8056288 -0.56451821
3.5041001 4.7858305 -0.56472033
3.5328066 4.7634406 -0.5646193
3.5667496 4.7480369 -0.56542772
3.5891876 4.7173543 -0.56431609
3.6235321 4.7023339 -0.5652256
3.6535411 4.6815801 -0.56542772
3.7007091 4.682487 -0.56845945
3.7573524 4.6946392 -0.57300699
3.7992451 4.6877251 -0.57512915
3.8374064 4.675859 -0.57664502
3.8768368 4.6652308 -0.57836294
3.9169214 4.655055 -0.58018196
3.9660616 4.6551638 -0.58341575
4.01015 4.6488175 -0.58584112
4.0457997 4.6323657 -0.58695275
4.0781021 4.6119246 -0.58755904
4.1209254 4.6031199 -0.5897823
4.1551065 4.5843806 -0.5906918
4.1925764 4.5690598 -0.59210658
4.2232418 4.546164 -0.59251082
4.2776442 4.5484242 -0.596452
4.3253708 4.5429835 -0.59938264
4.3731904 4.537127 -0.60231328
4.410677 4.5201755 -0.60372806
4.4446225 4.4993958 -0.60463756
4.4904408 4.4903264 -0.60726506
4.514369 4.4591942 -0.60675979
4.5687089 4.4578075 -0.61059994
4.6167526 4.4497085 -0.61353052
4.6576614 4.4343286 -0.61545062
4.7043538 4.4240646 -0.61817914
4.7496367 4.4120407 -0.62070554
4.798614 4.4029889 -0.62373722
4.8528199 4.3981771 -0.62747633
4.8938012 4.3809237 -0.62939638
4.9325171 4.3613553 -0.63101327
4.9771719 4.3467112 -0.63343865
5.059505 4.3641663 -0.64091682
5.1202722 4.3620667 -0.6454643
5.1674981 4.3478575 -0.64819282
5.202497 4.323061 -0.64930445
5.2566152 4.3137736 -0.65294248
5.2814393 4.2801857 -0.65274036
5.3379002 4.2719378 -0.6566816
5.38587 4.2563729 -0.65951115
5.4785619 4.27526 -0.66810095
5.5094204 4.2452064 -0.66870725
5.5583296 4.2287865 -0.67163789
5.5778074 4.1898227 -0.67082947
5.6513634 4.1910686 -0.67689282
5.6713533 4.1522002 -0.67618543
5.7064009 4.1243153 -0.67739815
5.814218 4.1481471 -0.68770587
5.8932528 4.1501918 -0.69437557
5.9259601 4.1190629 -0.69528508
5.9683528 4.0944405 -0.69740725
6.0650439 4.106256 -0.70619917
6.1273551 4.0938296 -0.71074671
6.1897402 4.0807924 -0.71529424
6.2071567 4.0378547 -0.71438473
6.2770324 4.0287032 -0.71984178
6.3167653 3.9996901 -0.72166079
6.3167157 3.945575 -0.71873015
6.3365707 3.9041333 -0.71822488
6.367209 3.8693116 -0.7190333
6.4633732 3.873631 -0.72762311
6.5675364 3.881469 -0.73712242
6.6471062 3.8736498 -0.74369103
6.7190604 3.8605394 -0.74935019
6.8768101 3.895221 -0.76501393
6.9396734 3.8747723 -0.76956147
7.0496144 3.8795931 -0.77956605
7.1327596 3.8685091 -0.78643787
7.209012 3.8527992 -0.79250127
7.2439613 3.8145175 -0.79381496
7.2884269 3.7809896 -0.79624033
7.3354106 3.7484174 -0.79896885
7.4124856 3.7306128 -0.80513328
7.4022522 3.6687183 -0.80139422
7.4147882 3.6184318 -0.8002826
7.4180174 3.5638227 -0.79816037
7.4271531 3.5122869 -0.7967456
7.4413476 3.4632914 -0.79593718
7.4579349 3.4154963 -0.79543185
7.4751234 3.3680367 -0.79502767
7.490191 3.3196888 -0.79442132
7.5058589 3.2716804 -0.79391605
7.5084167 3.2181196 -0.79199594
7.5206866 3.1688988 -0.79118752
7.5335546 3.1200294 -0.79048014
7.5470276 3.0714962 -0.78987378
7.558341 3.0221767 -0.7890653
7.5785947 2.97647 -0.78926742
7.6013565 2.9317019 -0.78977275
7.6257153 2.8874707 -0.79048014
7.6460872 2.8416653 -0.79078329
7.6624446 2.7943556 -0.79068226
7.6710148 2.7442722 -0.78977275
7.6867704 2.6968229 -0.78967166
7.6965871 2.6473427 -0.78896427
7.7126861 2.6000676 -0.78896427
7.7379417 2.5558133 -0.78997481
