# .PCD v0.7 - Point Cloud Data file format
VERSION 0.7
FIELDS x y z
SIZE 4 4 4
TYPE F F F
COUNT 1 1 1
WIDTH 1570
HEIGHT 1
VIEWPOINT 0 0 0 1 0 0 0
POINTS 1570
DATA ascii
-0.78840339 3.5088217 -0.77007329
-0.7676897 3.517406 -0.77095199
-0.74427611 3.5134602 -0.76897496
-0.72387993 3.5236948 -0.770293
-0.70262557 3.5299838 -0.77073234
-0.68021572 3.5303965 -0.76985365
-0.66103816 3.5479317 -0.77292907
-0.63977349 3.5548015 -0.77358812
-0.6162836 3.5490477 -0.77139139
-0.59465617 3.5537245 -0.77161103
-0.5705179 3.5428581 -0.76831591
-0.54832196 3.5433996 -0.76765686
-0.52442539 3.5322218 -0.76436174
-0.50233114 3.5324755 -0.76370269
-0.48143342 3.5412915 -0.76502079
-0.45994574 3.546114 -0.76546013
-0 0 -0
-0.41775429 3.5631187 -0.76809621
-0.39760095 3.5811293 -0.77161103
-0.37511313 3.5786502 -0.77051264
-0.35324332 3.5818553 -0.77073234
-0.32937989 3.5635548 -0.76611912
-0.30608845 3.5489848 -0.76238465
-0.28446162 3.5527411 -0.762824
-0.26201287 3.5456631 -0.76084691
-0.24005534 3.5442839 -0.76018786
-0.21836314 3.546664 -0.76040757
-0.19654344 3.546963 -0.76018786
-0.17482367 3.5490766 -0.76040757
-0.15254328 3.5383863 -0.75777143
-0.13086499 3.5402305 -0.75799114
-0.10934822 3.5477927 -0.75952888
-0.087601066 3.5493722 -0.75974852
-0.065891936 3.5537446 -0.76062727
-0.044002872 3.5472534 -0.75908953
-0.022224916 3.5455055 -0.75865018
-0.00047045073 3.5416727 -0.75777143
0 0 -0
0.042833235 3.5287304 -0.75491565
0.064320974 3.5196226 -0.75293857
0.085650295 3.5084336 -0.75052214
0.10708568 3.5049167 -0.74986315
0.12826453 3.4954195 -0.74788606
0.14924672 3.4838455 -0.74546963
0.17086068 3.487736 -0.74656796
0.19193359 3.4807775 -0.74524993
0.21316759 3.4775867 -0.74481058
0.23436968 3.4742668 -0.74437124
0.25481945 3.4610882 -0.7417351
0.27550602 3.4526525 -0.74019736
0.29702148 3.4547849 -0.74107611
0.31839374 3.4548402 -0.74151546
0.34064022 3.463501 -0.74393189
0.3622925 3.4652264 -0.74481058
0.38473284 3.473604 -0.74722701
0.40740323 3.482805 -0.74986315
0.42984217 3.4889536 -0.75184023
0.45174408 3.4901204 -0.75271893
0.47341353 3.4892161 -0.75315827
0.49275285 3.4717579 -0.74986315
0.51662594 3.4860389 -0.75381732
0.53696138 3.4760547 -0.75227958
0.55657309 3.4620998 -0.74986315
0.57732242 3.4557331 -0.7492041
0.59601092 3.4377079 -0.74590898
0.61450005 3.419584 -0.74261379
0.63636446 3.4205446 -0.74371219
0.65438634 3.4012485 -0.74019736
0.67562467 3.3990827 -0.74063671
0.69489729 3.3872283 -0.73887932
0.71445441 3.3771746 -0.73756129
0.73349822 3.3651021 -0.73580384
0.75498801 3.3643456 -0.73668259
0.77166116 3.3425407 -0.73272842
0.79373527 3.3443868 -0.7342661
0.8119269 3.3299763 -0.73206937
0.83234394 3.3249319 -0.73206937
0 0 -0
0.87308329 3.3144672 -0.73206937
0.89926004 3.3307083 -0.73712194
0 0 -0
0.94219446 3.3269308 -0.73887932
0.96449363 3.3276453 -0.74041706
0.98378301 3.3179238 -0.73953837
1.0035561 3.3099577 -0.73909903
1.021823 3.2972155 -0.73756129
1.0405611 3.2862339 -0.73646289
1.0619075 3.2834997 -0.73734158
1.0786664 3.2667332 -0.73492515
1.0961955 3.2526581 -0.73316777
0 0 -0
1.1337656 3.232518 -0.73163003
1.159169 3.2411146 -0.7353645
1.1797031 3.2357738 -0.73580384
1.1961344 3.2193308 -0.73360711
1.2186308 3.219229 -0.7353645
1.2373068 3.2089605 -0.73470551
1.2537616 3.1931365 -0.73272842
1.2736932 3.1862893 -0.73294806
1.2924839 3.1766069 -0.73250872
1.3100834 3.1641104 -0.73141032
1.3317475 3.161406 -0.73272842
1.3549659 3.1621408 -0.73492515
1.3688824 3.1412485 -0.73184967
1.389713 3.1363573 -0.73272842
1.4069263 3.1233244 -0.73163003
1.4191549 3.0995557 -0.72789556
1.4393822 3.0934427 -0.72855455
1.4579189 3.0836709 -0.7283349
1.4725856 3.0658746 -0.72613811
1.493082 3.060288 -0.72701681
1.5087974 3.044951 -0.72547907
1.5322793 3.0452204 -0.72789556
1.5487149 3.0314181 -0.72679716
1.5645894 3.0166631 -0.72547907
1.5857984 3.0121846 -0.72679716
1.6083914 3.0101404 -0.72877425
1.625435 2.9976423 -0.7281152
1.6550914 3.0081224 -0.73338741
1.6730419 2.9970586 -0.73316777
1.6923621 2.9884341 -0.73360711
1.7165016 2.988143 -0.73624319
1.730873 2.9708123 -0.73448581
1.7530414 2.9668539 -0.73624319
1.7722161 2.9577148 -0.73668259
1.7842489 2.9367821 -0.73404646
1.8053068 2.9307616 -0.7353645
1.8211875 2.9163201 -0.73448581
1.8348707 2.8984976 -0.73272842
1.8589467 2.8970354 -0.7353645
1.8750911 2.8831215 -0.73470551
1.8863002 2.8617895 -0.73206937
1.9081615 2.8566499 -0.73382676
1.9201825 2.8368108 -0.73163003
1.9314799 2.8161275 -0.7292136
1.948723 2.8042233 -0.7292136
1.9647689 2.7906184 -0.72877425
1.9818548 2.7785103 -0.72877425
2.0045826 2.7742031 -0.73097098
2.0232964 2.7642119 -0.73163003
2.0408006 2.7525287 -0.73184967
2.0588236 2.7415144 -0.73228908
2.0732429 2.7257252 -0.73141032
2.0893331 2.7121799 -0.73119068
2.108937 2.7031538 -0.73228908
2.1176178 2.6802142 -0.72943324
2.137682 2.6717396 -0.73075134
2.1558783 2.660846 -0.73141032
2.1734025 2.6490757 -0.73184967
2.1902397 2.6364403 -0.73206937
2.2095165 2.6266835 -0.73316777
2.2224278 2.6093643 -0.73206937
2.2428584 2.6008487 -0.73360711
2.2581327 2.5863032 -0.73338741
2.2668493 2.5643611 -0.73097098
2.2857955 2.5540373 -0.73206937
2.3033898 2.5421319 -0.73272842
2.3222432 2.5315442 -0.73382676
2.3463662 2.5265377 -0.73668259
2.367841 2.5184879 -0.73865968
2.3886323 2.5095632 -0.74041706
2.4080486 2.4990733 -0.7417351
2.4219744 2.4828544 -0.74129575
2.433049 2.4637833 -0.73997772
2.442601 2.4432902 -0.73822027
2.4526873 2.4234586 -0.73668259
2.4689081 2.4097259 -0.73712194
2.4836473 2.3945317 -0.73712194
2.5074801 2.3879905 -0.73997772
2.5220854 2.37256 -0.73997772
2.5423148 2.3623507 -0.7417351
2.5589187 2.3486853 -0.74239415
2.5711129 2.3309748 -0.7417351
2.5890021 2.3184075 -0.7428335
2.6024477 2.3018322 -0.74261379
2.6143179 2.2838957 -0.7419548
2.62976 2.2690856 -0.74239415
2.647347 2.2560697 -0.74349254
2.6536741 2.2335038 -0.74129575
2.6650774 2.2153089 -0.74063671
2.6831458 2.2026272 -0.7419548
2.6875138 2.1787529 -0.73931867
2.7008319 2.1622217 -0.73931867
2.7148137 2.1462138 -0.73953837
2.7248547 2.1271152 -0.73865968
2.7424924 2.1139278 -0.73997772
2.7608471 2.1011944 -0.74151546
2.7775884 2.0871437 -0.74261379
2.7981796 2.0758712 -0.74481058
2.8124387 2.0598152 -0.74524993
2.8273969 2.0442336 -0.74590898
2.8438582 2.0296788 -0.74700731
2.8522699 2.0093832 -0.74590898
2.8637445 1.9912875 -0.74568927
2.8726907 1.9714714 -0.74481058
2.8806937 1.9510738 -0.74371219
2.8885546 1.9306523 -0.74261379
2.9052339 1.9161131 -0.74393189
2.9234791 1.9025056 -0.74568927
2.9400244 1.8876926 -0.74700731
2.9548488 1.8717045 -0.74788606
2.9613128 1.8504385 -0.74656796
2.9792564 1.8363262 -0.74832541
2.9787948 1.8109202 -0.74524993
2.9839923 1.7890989 -0.74371219
3.0024731 1.7752219 -0.74568927
3.0057225 1.752346 -0.74371219
3.0299535 1.7416445 -0.74722701
3.0397341 1.7225395 -0.74700731
3.0493944 1.7033802 -0.74678767
3.0751743 1.6931018 -0.75074184
3.0795019 1.670946 -0.7492041
3.0914176 1.6529385 -0.74964345
3.0997751 1.6330299 -0.7492041
3.1071386 1.612632 -0.74854505
3.1117623 1.5908738 -0.74722701
3.1249511 1.5735043 -0.7481057
3.1441629 1.5590645 -0.75052214
3.1519163 1.5388875 -0.75008279
3.1639378 1.5207857 -0.75074184
3.1749735 1.5021774 -0.75118119
3.1752856 1.4785527 -0.7489844
3.182524 1.4582294 -0.74854505
3.1958592 1.4406776 -0.74964345
3.2001791 1.4190652 -0.74854505
3.2115092 1.4005716 -0.7492041
3.2236295 1.3823766 -0.75008279
3.2311518 1.362192 -0.74986315
3.2430546 1.3438331 -0.75074184
3.2476246 1.3224382 -0.74986315
3.253866 1.3017622 -0.74942374
3.2645166 1.2828419 -0.75008279
3.2732368 1.2631379 -0.75030249
3.2763636 1.2413033 -0.7492041
3.293978 1.2249136 -0.75162053
3.3023484 1.2050132 -0.75184023
0 0 -0
3.3270137 1.1679487 -0.75425667
3.3322725 1.1468782 -0.75381732
3.3401713 1.1267217 -0.75403696
3.3488746 1.1068172 -0.75447631
3.3509617 1.0847473 -0.75337791
3.3668551 1.0671103 -0.7555747
3.3752034 1.047009 -0.75601405
3.3703606 1.0228833 -0.75337791
3.385927 1.0049567 -0.7555747
3.3957775 0.98524827 -0.75645339
3.4017589 0.96439362 -0.75645339
3.409493 0.94402266 -0.75689274
3.4076862 0.92105073 -0.75513536
3.4104433 0.8993789 -0.75447631
3.4187324 0.87916386 -0.75513536
3.4287944 0.85935462 -0.75623375
3.4292636 0.83714455 -0.75513536
3.436234 0.81653768 -0.7555747
3.4421301 0.79565734 -0.75579435
3.4526589 0.77580327 -0.75711244
3.4602137 0.75522667 -0.75777143
3.4561925 0.7321642 -0.75579435
3.4567971 0.7101596 -0.75491565
3.4620464 0.68912584 -0.75513536
3.4556715 0.66584331 -0.75271893
3.4702423 0.64658934 -0.75513536
3.4712639 0.62476671 -0.75447631
3.4673421 0.60212284 -0.75271893
3.4777071 0.58196121 -0.75425667
3.4715803 0.55906355 -0.75205988
3.4797659 0.5384962 -0.75315827
3.492655 0.51856416 -0.755355
3.4745214 0.49410915 -0.75052214
3.4900551 0.47448495 -0.75337791
3.4996734 0.45393762 -0.75491565
3.4888372 0.43078625 -0.75184023
3.5030425 0.41073048 -0.75447631
3.5025878 0.38890648 -0.75381732
3.498116 0.36669797 -0.75227958
3.5070965 0.34589505 -0.75381732
3.5091529 0.3243694 -0.75381732
3.5169091 0.3033326 -0.75513536
3.5216215 0.28198019 -0.75579435
3.5213394 0.26022345 -0.755355
3.5287101 0.23900566 -0.7566731
3.5203726 0.21675308 -0.75447631
3.5255327 0.19536301 -0.755355
3.5266652 0.17372708 -0.755355
3.5149939 0.15154253 -0.75249922
3.5129328 0.12986492 -0.75184023
3.5126884 0.10827779 -0.75162053
3.5201137 0.086888559 -0.75315827
3.5313101 0.065483332 -0.7555747
3.5355473 0.043861508 -0.75645339
3.5386765 0.022184355 -0.75711244
3.5455751 0.00046968454 -0.75865018
3.5347803 -0.021217611 -0.75623375
3.5326324 -0.042881887 -0.75579435
3.5274258 -0.064466164 -0.75469601
3.5230627 -0.086012296 -0.75381732
3.5263691 -0.10774825 -0.75469601
3.5402651 -0.1299251 -0.75799114
3.5355027 -0.15147699 -0.75711244
3.5315835 -0.1730234 -0.75645339
3.5158441 -0.19387896 -0.75315827
3.5175097 -0.21562816 -0.75381732
3.5141737 -0.23707516 -0.75337791
3.5058424 -0.25812957 -0.75184023
3.5022476 -0.27948028 -0.75140083
3.4936631 -0.30037716 -0.74986315
3.5043828 -0.32297635 -0.75271893
3.5081604 -0.34504762 -0.75403696
3.4991853 -0.36585441 -0.75249922
3.5104492 -0.38882622 -0.7555747
3.511873 -0.41081327 -0.75645339
3.5015404 -0.43139711 -0.75469601
0 -0 -0
3.4689159 -0.47065237 -0.74854505
3.4959042 -0.49618816 -0.755355
3.4715641 -0.51447588 -0.75052214
3.469306 -0.53591657 -0.75074184
3.4784734 -0.5592109 -0.75359762
3.4740145 -0.58038282 -0.75337791
3.4694269 -0.60152107 -0.75315827
0 -0 -0
3.4589067 -0.64351475 -0.75249922
3.4548931 -0.66472608 -0.75249922
3.4507494 -0.68591237 -0.75249922
3.4493425 -0.70766199 -0.75315827
3.4449356 -0.72881347 -0.75315827
3.4384925 -0.74952126 -0.75271893
3.4462025 -0.77338654 -0.7555747
3.4233329 -0.79034179 -0.75140083
3.4222155 -0.81223452 -0.75227958
3.4238014 -0.83483744 -0.75381732
3.4091516 -0.85345751 -0.75162053
3.4151883 -0.877276 -0.75425667
3.3908751 -0.89323813 -0.74986315
3.3928647 -0.9160642 -0.75162053
3.3871799 -0.93686521 -0.75162053
3.380429 -0.9573648 -0.75140083
3.3773019 -0.97890437 -0.75205988
3.3702967 -0.99933106 -0.75184023
3.370636 -1.0219756 -0.75337791
3.3717558 -1.044951 -0.75513536
3.3717904 -1.0676837 -0.7566731
3.3605351 -1.0868499 -0.7555747
3.3547292 -1.1077555 -0.75579435
3.3469446 -1.1280071 -0.7555747
3.3381155 -1.1478872 -0.75513536
3.3337708 -1.1693175 -0.75579435
3.3155115 -1.1858051 -0.75315827
3.3136718 -1.2081331 -0.75447631
3.3043675 -1.2277625 -0.75403696
3.2958598 -1.247669 -0.75381732
3.2826815 -1.2657608 -0.75249922
3.2657733 -1.2823105 -0.75030249
3.2542207 -1.3008751 -0.74942374
3.2380459 -1.3175063 -0.74744672
3.2253947 -1.3354822 -0.74634832
3.2342193 -1.3624494 -0.75052214
3.2284882 -1.3834221 -0.75118119
3.2145736 -1.4008656 -0.74986315
3.2085931 -1.4217499 -0.75052214
3.1882474 -1.436198 -0.74766636
3.1758275 -1.454108 -0.74678767
3.165961 -1.4731553 -0.74656796
3.1498077 -1.4892153 -0.74481058
3.1502826 -1.5131636 -0.74722701
3.1409385 -1.5324649 -0.74722701
3.1157446 -1.5439065 -0.74327284
3.1253817 -1.5726488 -0.7481057
3.1121988 -1.5900197 -0.74722701
3.0980546 -1.6068385 -0.74612862
3.0890002 -1.6262723 -0.74634832
3.0695002 -1.6401349 -0.74393189
3.0645235 -1.6617301 -0.74524993
3.0568333 -1.6819141 -0.74590898
3.0439007 -1.6992114 -0.74524993
3.0368121 -1.7197804 -0.74612862
3.0304315 -1.7408128 -0.74722701
3.0163219 -1.7574087 -0.74634832
3.0096805 -1.7783663 -0.74744672
3.0062423 -1.8013153 -0.74942374
2.9942994 -1.8192204 -0.7492041
2.9872327 -1.8401186 -0.75030249
2.9833314 -1.8630664 -0.75227958
2.9718437 -1.8813368 -0.75227958
2.969274 -1.9053348 -0.75469601
0 -0 -0
2.9513695 -1.945389 -0.75623375
2.9312668 -1.9580401 -0.75403696
2.9183896 -1.9754421 -0.75381732
2.9054093 -1.9927597 -0.75359762
2.8923264 -2.0099924 -0.75337791
2.8783438 -2.0265777 -0.75293857
2.8618846 -2.0413668 -0.75184023
2.8508861 -2.0600319 -0.75227958
2.8452756 -2.0826743 -0.75425667
2.8206909 -2.0913739 -0.75096148
0 -0 -0
2.8103397 -2.1376481 -0.755355
2.7948525 -2.1530647 -0.75469601
2.7831268 -2.1713738 -0.75513536
2.768986 -2.1878049 -0.75491565
2.7562711 -2.2053635 -0.75513536
2.7343519 -2.2154758 -0.75271893
2.7191985 -2.2309737 -0.75227958
2.7107096 -2.251982 -0.75381732
2.6983333 -2.2698288 -0.75425667
2.6761878 -2.2793815 -0.75184023
2.6665831 -2.2995837 -0.75315827
2.653892 -2.3171859 -0.75359762
2.6469312 -2.33989 -0.75579435
2.6339777 -2.357389 -0.75623375
2.6245224 -2.3780935 -0.75777143
2.612756 -2.3967915 -0.75865018
2.5887103 -2.4041443 -0.75579435
2.5781732 -2.4239941 -0.75711244
2.5653706 -2.4417863 -0.75777143
2.5468283 -2.4540954 -0.7566731
2.535213 -2.4730835 -0.75777143
2.5262361 -2.4947643 -0.75974852
2.5108807 -2.5102179 -0.75974852
2.4995439 -2.5297422 -0.76106662
2.4771628 -2.5380478 -0.75886983
2.4581585 -2.5496869 -0.75777143
2.4364147 -2.5583615 -0.75579435
2.420671 -2.5732629 -0.75579435
2.4021809 -2.5852079 -0.75491565
2.3875921 -2.6013367 -0.755355
2.3742056 -2.6188297 -0.75623375
2.3626461 -2.638437 -0.75777143
2.3477046 -2.6543462 -0.75821084
2.3281655 -2.6650269 -0.75711244
2.3085842 -2.6755681 -0.75601405
2.2914913 -2.68894 -0.75579435
2.2692974 -2.6962304 -0.75381732
2.2533343 -2.7108543 -0.75403696
2.2416084 -2.7306635 -0.75579435
2.2241971 -2.7436082 -0.7555747
2.2085395 -2.7587276 -0.75601405
2.1951993 -2.7768199 -0.75733209
2.1775198 -2.7894681 -0.75711244
2.156791 -2.7981393 -0.75579435
2.1389906 -2.810544 -0.7555747
2.1158473 -2.8158145 -0.75337791
2.0933011 -2.8216908 -0.75140083
2.0799813 -2.8399925 -0.75293857
2.0493755 -2.8345139 -0.74788606
2.0404418 -2.8589492 -0.75118119
2.0279155 -2.8785949 -0.75315827
2.0063179 -2.8853755 -0.75162053
1.9957486 -2.9080911 -0.75447631
1.9762269 -2.9178581 -0.75381732
1.9615371 -2.9347968 -0.75513536
1.9504716 -2.9573667 -0.75799114
1.9237794 -2.9561932 -0.75447631
1.909292 -2.9736896 -0.75601405
1.890488 -2.9845243 -0.75579435
1.8638726 -2.9828279 -0.75227958
1.8516746 -3.0041761 -0.75491565
1.8200372 -2.993803 -0.7492041
1.8146693 -3.0266728 -0.75491565
1.8054923 -3.0537093 -0.75908953
1.7867211 -3.0647302 -0.75908953
1.7746851 -3.0874789 -0.76216495
1.7638791 -3.1127419 -0.76589948
1.7380898 -3.1115801 -0.762824
1.7199053 -3.1238959 -0.76326334
1.698845 -3.1309597 -0.76238465
1.6754645 -3.1335804 -0.76040757
1.6548424 -3.141212 -0.75974852
1.635088 -3.1504409 -0.75952888
1.6179454 -3.1647582 -0.76062727
1.5967425 -3.1711402 -0.75974852
1.5746561 -3.175633 -0.75843048
1.5551412 -3.185235 -0.75843048
1.5381017 -3.1999936 -0.75974852
1.518855 -3.210253 -0.75996822
1.5077704 -3.2380874 -0.76458138
1.4882796 -3.2481649 -0.76480108
1.4687219 -3.2581251 -0.76502079
1.4487028 -3.2670758 -0.76502079
1.4274601 -3.2732203 -0.76436174
1.4015862 -3.2684662 -0.76106662
1.3815049 -3.2770047 -0.76106662
1.3557742 -3.271899 -0.75777143
0 -0 -0
0 -0 -0
1.2931805 -3.2908514 -0.75645339
1.2754203 -3.3050961 -0.75799114
1.2551166 -3.3128598 -0.75799114
1.2337465 -3.3177552 -0.75733209
1.2170411 -3.3353453 -0.75974852
0 -0 -0
0 -0 -0
0 -0 -0
0 -0 -0
1.1104873 -3.3599913 -0.75711244
1.0907503 -3.3695266 -0.75777143
1.0706437 -3.3780162 -0.75821084
1.0478753 -3.3779988 -0.7566731
1.0285436 -3.3890331 -0.75777143
0 -0 -0
0 -0 -0
0 -0 -0
0.9370023 -3.3841052 -0.75096148
0.91952533 -3.402035 -0.75381732
0.90285724 -3.423651 -0.75755179
0.87625188 -3.4073935 -0.75249922
0.85959148 -3.4297407 -0.75645339
0.83437198 -3.4178898 -0.75249922
0.81406015 -3.4257927 -0.75315827
0.79104996 -3.422168 -0.75118119
0.77003706 -3.4269574 -0.75118119
0.75086462 -3.4401965 -0.75315827
0.72792506 -3.4361489 -0.75118119
0.70917958 -3.4520187 -0.75381732
0.6857034 -3.4448228 -0.75118119
0.66547477 -3.4537554 -0.75227958
0.64498389 -3.4616103 -0.75315827
0.62355924 -3.4645424 -0.75293857
0.60328907 -3.4740708 -0.75425667
0.58292538 -3.4834805 -0.7555747
0.56030184 -3.479286 -0.75381732
0.54177141 -3.5009773 -0.75799114
0.51885009 -3.4945853 -0.75579435
0.49671277 -3.4928734 -0.75469601
0.47527155 -3.4958556 -0.75469601
0.45293626 -3.4919333 -0.75315827
0.43293241 -3.5062659 -0.75579435
0.41186336 -3.5127323 -0.7566731
0.3906239 -3.5181022 -0.75733209
0.36984098 -3.5281951 -0.75908953
0.34828085 -3.5313687 -0.75930917
0.32660621 -3.5334394 -0.75930917
0.30433473 -3.528573 -0.75777143
0.28298825 -3.5342638 -0.75865018
0.26179814 -3.5427444 -0.76018786
0.24012095 -3.5452573 -0.76040757
0.21842276 -3.5476377 -0.76062727
0.19654344 -3.546963 -0.76018786
0.17477599 -3.5481021 -0.76018786
0.15266837 -3.5413103 -0.75843048
0.13072212 -3.5363309 -0.75711244
0.10916981 -3.5419419 -0.75821084
0.087102309 -3.5288911 -0.75513536
0.065714285 -3.5439904 -0.75843048
0.043861508 -3.5355473 -0.75645339
0.022166971 -3.5357499 -0.75645339
0.00047198316 -3.5338683 -0.75601405
-0.021205256 -3.532829 -0.75579435
-0.042918377 -3.5355589 -0.75645339
-0.064484313 -3.5284011 -0.75491565
-0.086277761 -3.5337908 -0.75623375
-0.10777837 -3.5273442 -0.75491565
-0.1297446 -3.5353906 -0.75689274
-0.15092994 -3.5228319 -0.75425667
-0.17287922 -3.5286603 -0.75579435
-0.19479761 -3.5324035 -0.75689274
-0.21580821 -3.5204308 -0.75447631
-0.23766905 -3.5229337 -0.755355
-0.25877717 -3.5145986 -0.75381732
-0.27986991 -3.5071099 -0.75249922
-0.30138388 -3.5053267 -0.75249922
-0.32180822 -3.4917543 -0.74986315
-0.34303555 -3.4877722 -0.74942374
-0.36453143 -3.486572 -0.74964345
-0.38602549 -3.4852393 -0.74986315
-0.40888092 -3.4954011 -0.75271893
-0.43055981 -3.4947629 -0.75315827
-0.45237184 -3.4949577 -0.75381732
-0.47499132 -3.5008161 -0.75579435
-0.49605075 -3.4949384 -0.75513536
-0.51748592 -3.4918287 -0.75513536
-0.53845388 -3.4856956 -0.75447631
-0.5615384 -3.4929206 -0.75689274
-0.58070499 -3.4759388 -0.75381732
-0.60102016 -3.4665432 -0.75249922
-0.62297064 -3.4666307 -0.75337791
-0.64369351 -3.4598658 -0.75271893
-0.66564924 -3.4596827 -0.75359762
-0.68705547 -3.45649 -0.75381732
-0.70805478 -3.4512537 -0.75359762
-0.72840899 -3.4430268 -0.75271893
-0.74827272 -3.4327738 -0.75140083
-0.76654059 -3.4157441 -0.74854505
-0.78638589 -3.406224 -0.74744672
-0.80749691 -3.4022837 -0.74766636
-0.82928336 -3.4010558 -0.74854505
-0.85179687 -3.4025276 -0.75008279
-0.87460262 -3.4047954 -0.75184023
-0.89746821 -3.4069114 -0.75359762
-0.92166561 -3.4135833 -0.75645339
-0.94285399 -3.4088042 -0.7566731
-0.96188927 -3.3963847 -0.75513536
-0.97999197 -3.3810496 -0.75293857
-0.99822044 -3.3665557 -0.75096148
-1.0165914 -3.3528993 -0.7492041
-1.0342543 -3.337281 -0.74700731
-1.0529431 -3.3252923 -0.74568927
-1.0754305 -3.3252659 -0.74722701
-1.0942827 -3.3139732 -0.74612862
-1.1164676 -3.3127427 -0.74744672
-1.1367731 -3.3058298 -0.74744672
-0 -0 -0
-1.1792282 -3.2971418 -0.74876475
-1.2061263 -3.3081729 -0.75315827
-1.2175599 -3.2769363 -0.74744672
-1.2449034 -3.2885616 -0.75205988
-1.2583839 -3.2635686 -0.74788606
-1.288734 -3.2821167 -0.75425667
-1.3073987 -3.2705243 -0.75337791
-1.3274417 -3.2624407 -0.75337791
-1.3493022 -3.2587404 -0.75447631
-1.3700302 -3.2521977 -0.75491565
-1.3926512 -3.2500064 -0.75645339
-1.4113966 -3.2387173 -0.75579435
-1.4304514 -3.2282126 -0.755355
-1.4518363 -3.2229323 -0.75623375
-1.4707717 -3.2121894 -0.75579435
-1.4982791 -3.2199075 -0.75996822
-1.505072 -3.1833172 -0.75315827
-1.528803 -3.1828148 -0.755355
-1.5495878 -3.1760042 -0.75601405
-1.5720804 -3.1725543 -0.75755179
-1.5884457 -3.1567492 -0.75601405
-1.6126707 -3.156498 -0.75843048
-1.6333566 -3.1491411 -0.75908953
-1.6571963 -3.1476905 -0.76128626
-1.6778591 -3.1400437 -0.76194531
-1.6975597 -3.130547 -0.76216495
-1.7186188 -3.1234903 -0.7630437
-1.7387034 -3.1145897 -0.76348305
-1.7577814 -3.1038625 -0.76348305
-1.7787381 -3.0964017 -0.76436174
-1.7962296 -3.082901 -0.76370269
-1.8166019 -3.0743406 -0.76436174
-1.8369366 -3.0656464 -0.76502079
-1.8546988 -3.0526502 -0.76458138
-1.8759543 -3.0453649 -0.76567978
-1.894605 -3.0337968 -0.76567978
-1.9131844 -3.0221148 -0.76567978
-1.9353817 -3.0160649 -0.76721752
-1.9538515 -3.004133 -0.76721752
-1.9743963 -2.9953451 -0.76809621
-1.9981599 -2.9912846 -0.770293
-2.0164764 -2.9789679 -0.770293
-2.0380294 -2.971365 -0.77161103
-2.0567801 -2.959605 -0.77183074
-2.070406 -2.9405489 -0.77007329
-2.0878432 -2.9269958 -0.76985365
-2.1006186 -2.9070151 -0.76787657
-2.1178398 -2.8932841 -0.76765686
-2.1332276 -2.8771009 -0.76677817
-2.1525993 -2.8662972 -0.76743722
-2.1707368 -2.8538115 -0.76765686
-2.1882067 -2.8404384 -0.76765686
-2.2055941 -2.8269582 -0.76765686
-2.2210832 -2.8110759 -0.76699787
-2.2291436 -2.7859716 -0.76370269
-2.2418952 -2.7669368 -0.76216495
-2.2464497 -2.7380486 -0.75777143
-2.2588422 -2.7189617 -0.75623375
-2.2798808 -2.7102749 -0.75777143
-2.295835 -2.6954925 -0.75755179
-2.30532 -2.6732302 -0.75513536
-2.3191116 -2.656096 -0.75425667
-2.3308408 -2.6367013 -0.75271893
-2.3424194 -2.6172628 -0.75118119
-2.3584347 -2.6028407 -0.75118119
-2.3704026 -2.5840085 -0.74986315
-2.3855491 -2.5687008 -0.74964345
-2.397923 -2.5504622 -0.74854505
-2.4081445 -2.5300493 -0.74678767
-2.4188831 -2.5103097 -0.74524993
-2.4253817 -2.4863451 -0.74239415
-2.4364777 -2.4672527 -0.74107611
-2.4481206 -2.448808 -0.73997772
-2.4561584 -2.4268858 -0.73778093
-2.4710031 -2.4117696 -0.73778093
-2.4766219 -2.3877628 -0.73492515
-2.4777992 -2.3597431 -0.73075134
-2.4936533 -2.3458316 -0.73119068
-2.4987066 -2.3218567 -0.7283349
-2.5114682 -2.3051624 -0.72789556
-2.5197814 -2.2844689 -0.72613811
-2.5330241 -2.2683141 -0.72591847
-2.5410469 -2.2475605 -0.72416103
-2.5533199 -2.2306433 -0.72372168
-2.5640035 -2.2123861 -0.72284299
-2.5715883 -2.1915519 -0.72108555
-2.5797608 -2.1713359 -0.71954787
-2.5885327 -2.1517258 -0.71822977
-2.5979154 -2.1327085 -0.71713144
-2.6056464 -2.1124291 -0.7155937
-2.6117029 -2.0909164 -0.71361661
-2.6206558 -2.0718281 -0.71251822
-2.6302421 -2.053309 -0.71163952
-2.6373813 -2.0329642 -0.71010178
-2.6435938 -2.0120187 -0.7083444
-2.6449678 -1.987559 -0.70526892
-2.6563296 -1.9707114 -0.70504922
-2.6612864 -1.9491897 -0.70307213
-2.6684518 -1.9293957 -0.70175409
-2.6715031 -1.9067549 -0.69933766
-2.6791639 -1.887519 -0.69823927
-2.6890926 -1.8699311 -0.69779992
-2.6932747 -1.84843 -0.69582283
-2.702142 -1.8302293 -0.69516379
-2.7116988 -1.8125311 -0.69472444
-2.7252128 -1.7974689 -0.69538349
-2.7353728 -1.7801815 -0.69516379
-2.7413177 -1.7602032 -0.69384575
-2.7504179 -1.7423061 -0.6934064
-2.7569191 -1.7228136 -0.69230801
-2.758301 -1.7002373 -0.68989158
-2.7636788 -1.6802417 -0.68857354
-2.7613835 -1.6557317 -0.68527842
-2.7664511 -1.6357796 -0.68396032
-2.7764361 -1.6187742 -0.68396032
-2.7803948 -1.5983065 -0.68242264
-2.7901495 -1.5812163 -0.68242264
-2.792984 -1.5602627 -0.68066519
-2.7948122 -1.5388638 -0.67868811
-2.7990561 -1.5188962 -0.67737007
-2.7954161 -1.4947972 -0.67407495
-2.7889965 -1.4694371 -0.67012078
-2.7988265 -1.4527457 -0.67034042
-2.8050811 -1.4342136 -0.66968143
-2.816443 -1.4182904 -0.67034042
-2.8312118 -1.404014 -0.67187816
-2.841527 -1.3874711 -0.6723175
-2.8455896 -1.367898 -0.67121911
-2.8574574 -1.3520797 -0.67209786
-2.8550854 -1.329583 -0.66946173
-2.8543193 -1.3079786 -0.667265
-2.8542857 -1.2868346 -0.66528791
-2.8514242 -1.2645547 -0.66265178
-2.8546579 -1.2450866 -0.66155338
-2.8568635 -1.2252421 -0.66023535
-2.8607314 -1.206175 -0.65935665
-2.8662758 -1.1878527 -0.65891731
-2.8735104 -1.1702433 -0.65891731
-2.8724835 -1.1493311 -0.65694022
-2.8912871 -1.1363188 -0.659796
-2.8963842 -1.117855 -0.65935665
-0.26815593 -0.10273976 -0.024932528
-0.2687813 -0.10109245 -0.024932528
-0.27581257 -0.10178011 -0.026470259
-0.27183884 -0.098443441 -0.025371879
-0.27151716 -0.096450776 -0.025152205
-0.26841357 -0.093514234 -0.0242735
-0.27175581 -0.092800066 -0.024932528
-0.27232009 -0.091130853 -0.024932528
-0.27565891 -0.09035866 -0.025591556
-0.27620813 -0.088665545 -0.025591556
-0.27674699 -0.086969092 -0.025591556
-0.27447453 -0.084420338 -0.024932528
-0.27031067 -0.081348225 -0.023834148
-0.26705664 -0.078601964 -0.022955444
-0.26471788 -0.076164529 -0.022296418
-0.26329967 -0.074018784 -0.021857064
-0.2656326 -0.072910294 -0.022296418
-0.26041454 -0.0697883 -0.020978361
-0.2721768 -0.071101055 -0.023614472
-0.27071518 -0.06895595 -0.02317512
-0.27302882 -0.067755669 -0.023614472
-0.27343944 -0.066079125 -0.023614472
-0 -0 -0
-0.27422974 -0.062718622 -0.023614472
-0.26317096 -0.058542192 -0.020978361
-0.25779846 -0.055715114 -0.019660305
-0 -0 -0
-0 -0 -0
-0 -0 -0
-0 -0 -0
-0 -0 -0
-0 -0 -0
-0 -0 -0
-0 -0 -0
-0 -0 -0
-0 -0 -0
-0 -0 -0
-0 -0 -0
-0 -0 -0
-0 -0 -0
-0 -0 -0
-0 -0 -0
-0 -0 -0
-0.26819408 -0.027533118 -0.020978361
-0.28487283 -0.027408035 -0.024712851
-0 -0 -0
-0.28518772 -0.023910144 -0.024712851
-0.28435612 -0.022088237 -0.024493176
-0.28351292 -0.020277441 -0.0242735
-0 -0 -0
-0.27984402 -0.016582152 -0.023394797
-0 -0 -0
-0.2780771 -0.01306339 -0.022955444
-0.27815199 -0.011356895 -0.022955444
-0.28114182 -0.0097391745 -0.023614472
-0.27827042 -0.0079426868 -0.022955444
-0 -0 -0
-0.27639595 -0.0045037218 -0.022516092
-0.27349171 -0.0027903204 -0.021857064
-0.27155253 -0.0011125373 -0.021417713
-0 0 -0
-0.26959473 0.0021955869 -0.020978361
-0 0 -0
-0.27734968 0.0056968299 -0.022735769
-0 0 -0
-0.28115851 0.0092443069 -0.023614472
-0 0 -0
-0.28394708 0.01283804 -0.0242735
-0.2858111 0.014688141 -0.024712851
-0.28668931 0.016501581 -0.024932528
-0.28658268 0.018260363 -0.024932528
-0 -0 -0
-0 -0 -0
-0 -0 -0
-0 -0 -0
-0 -0 -0
-0 0 -0
-0 0 -0
-0 0 -0
-0 0 -0
-0 0 -0
-0 0 -0
-0 0 -0
-0 0 -0
-0 0 -0
-0 0 -0
-0 0 -0
-0 0 -0
-0 0 -0
-0 0 -0
-0 0 -0
-0 0 -0
-0 0 -0
-0 0 -0
-0 0 -0
-0 0 -0
-0 0 -0
-0 0 -0
-0 0 -0
-0 0 -0
-0 0 -0
-0 0 -0
-0 0 -0
-0 0 -0
-0 0 -0
-0 0 -0
-0 0 -0
-0 0 -0
-0 0 -0
-0 0 -0
-0 0 -0
-0 0 -0
-0 0 -0
-0 0 -0
-0 0 -0
-0 0 -0
-0 0 -0
-0 0 -0
-0 0 -0
-0 0 -0
-0 0 -0
-0 0 -0
-0 0 -0
-0 0 -0
-0 0 -0
-0 0 -0
-0 0 -0
-0 0 -0
-0 0 -0
-0 0 -0
-0 0 -0
-0 0 -0
-0 0 -0
-0 0 -0
-0 0 -0
-0 0 -0
-0 0 -0
-0 0 -0
-0 0 -0
-0 0 -0
-0 0 -0
-0 0 -0
-0 0 -0
-0 0 -0
-0 0 -0
-0 0 -0
-0 0 -0
-0 0 -0
-0 0 -0
-0 0 -0
-0 0 -0
-0 0 -0
-0 0 -0
-0 0 -0
-0 0 -0
-0 0 -0
-0 0 -0
-0 0 -0
-0 0 -0
-0 0 -0
-0 0 -0
-0 0 -0
-0 0 -0
-0 0 -0
-0 0 -0
-0 0 -0
-0 0 -0
-0 0 -0
-0 0 -0
-0 0 -0
-0 0 -0
-0 0 -0
-0 0 -0
-0 0 -0
-0.22786079 0.15879089 -0.025930885
-0.26746079 0.18875015 -0.037698071
-0.28134957 0.20112179 -0.042081922
-0.28011021 0.20284434 -0.042081922
-0.24509606 0.17985009 -0.032160573
-0.28150827 0.20916364 -0.043235566
-0.26076695 0.1962814 -0.037467342
-0.28589085 0.21790332 -0.045312129
-0.26450565 0.20421647 -0.039313175
-0.28549698 0.22319056 -0.046004318
-0.28564921 0.22614443 -0.046465773
-0.26450098 0.21208964 -0.040466819
-0.26697502 0.21677093 -0.041620463
-0.28444743 0.23383237 -0.047388691
-0.26803729 0.2231393 -0.042774111
-0.26815245 0.22603232 -0.043235566
-0.28454006 0.24281353 -0.048773065
-0.2683062 0.23184742 -0.044158485
-0.25295123 0.2213316 -0.03977463
-0.25085932 0.22223514 -0.039543901
-0.27414474 0.24583039 -0.047388691
-0.24667104 0.22399031 -0.039082445
-0.26895609 0.24720302 -0.046696503
-0.27028641 0.25149691 -0.047619421
-0.24888703 0.23449062 -0.041159008
-0.26577008 0.25345328 -0.047157962
-0.28032687 0.27060604 -0.052464731
-0.26263979 0.2566956 -0.047157962
-0.26105979 0.2583023 -0.047157962
-0.27805117 0.27847156 -0.053387649
-0.25445059 0.25802609 -0.046004318
-0.26305807 0.27002636 -0.049465254
-0.26274708 0.27303618 -0.049926713
-0.26173794 0.27534777 -0.050157439
-0.26804474 0.28545237 -0.05292619
-0.25436482 0.27426261 -0.048773065
-0.25662532 0.28011885 -0.050157439
-0.25098005 0.27736339 -0.048773065
-0 0 -0
-0 0 -0
-0 0 -0
-0 0 -0
-0 0 -0
-0 0 -0
-0 0 -0
-0 0 -0
-2.1344509 2.6329539 -0.76380253
-2.1237288 2.6528368 -0.76587909
-0 0 -0
-2.1035895 2.6948042 -0.77072436
-0 0 -0
-2.0809703 2.7343514 -0.77487749
-2.0653226 2.7486243 -0.77533895
-0 0 -0
-2.0440874 2.7910306 -0.780415
-2.0337658 2.8129818 -0.78318375
-2.019294 2.8293674 -0.7843374
-2.004137 2.8448858 -0.78526032
-1.9883102 2.8595259 -0.78595251
-1.9685245 2.8684633 -0.78502959
-1.9492496 2.8780713 -0.7843374
-1.929931 2.8875508 -0.78364521
-1.9105697 2.8969016 -0.78295302
-1.889043 2.9028618 -0.78133792
-1.8727732 2.9168541 -0.78203011
-1.8527575 2.9250028 -0.78110719
-1.8363222 2.9387913 -0.78179938
-1.8182555 2.9500034 -0.78179938
-1.7970872 2.9561162 -0.780415
-1.777914 2.9654183 -0.77995354
-1.7591898 2.9754341 -0.77972281
-1.7374687 2.9802885 -0.7781077
-1.7215743 2.995111 -0.77926135
-1.6974065 2.99546 -0.7764926
-1.6818424 3.0109153 -0.77787697
-1.6614586 3.0177689 -0.77695405
-1.6429106 3.0279067 -0.77695405
-1.623842 3.0370722 -0.77672333
-1.6069907 3.0504222 -0.77764624
-1.5927266 3.0688608 -0.77995354
-1.5769676 3.08464 -0.78156865
-1.5610747 3.1003411 -0.78318375
-1.5424544 3.110733 -0.78341448
-1.5259001 3.1253848 -0.78479886
-1.5083809 3.1381965 -0.78572178
-1.4870157 3.1429951 -0.78456813
-1.4652377 3.1467679 -0.78318375
-1.4442803 3.1521609 -0.78226084
-1.4201121 3.1503196 -0.77949208
-1.3983883 3.1536372 -0.7781077
-1.3774555 3.1585908 -0.77718478
-1.3553637 3.1607237 -0.77556968
-1.3336759 3.1636012 -0.7741853
-1.3149844 3.1735225 -0.77464676
-1.2958543 3.1824324 -0.77487749
-1.2737724 3.1840003 -0.77326238
-1.2531438 3.1890392 -0.77257019
-1.2370566 3.2057457 -0.77487749
-1.2177081 3.2141857 -0.77510822
-1.1969455 3.2188611 -0.77441603
-1.1768389 3.2252307 -0.7741853
-1.1576831 3.2342231 -0.77464676
-1.1362045 3.2366753 -0.77349311
-1.1175903 3.2472661 -0.77441603
-1.1010665 3.2642038 -0.77695405
-1.0834606 3.2782891 -0.77879989
-1.0615263 3.2793212 -0.77741551
-1.041973 3.2876279 -0.77787697
-1.0209157 3.2911716 -0.77718478
-0.99363536 3.2740974 -0.77141654
-0.97546583 3.2866621 -0.77303165
-0.95256865 3.283241 -0.77072436
-0.93107766 3.2843435 -0.76957071
-0.91220647 3.2946832 -0.77072436
-0 0 -0
-0.86996949 3.2990437 -0.76910925
-0.84922564 3.3024349 -0.76864785
-0.82989293 3.3113587 -0.76957071
-0.80932832 3.3154433 -0.76933998
-0.78694445 3.3118269 -0.76726347
-0.76792407 3.3222811 -0.76864785
-0 0 -0
-0.72626638 3.3276522 -0.76772493
-0.70603639 3.3329978 -0.76795566
-0.055338856 0.27116999 -0.025700158
-0.056144666 0.28391004 -0.028699635
-0.053848982 0.28138292 -0.028007448
-0.051229779 0.27692536 -0.026853802
-0.60243034 3.3473411 -0.76657128
-0.049326833 0.28616104 -0.028930364
-0.55809408 3.3352888 -0.76195669
-0.53761864 3.3386502 -0.76195669
-0.5165273 3.3380399 -0.76103377
-0.49717978 3.3488462 -0.76287961
-0.47717068 3.3556869 -0.76380253
-0.4577522 3.367229 -0.76587909
-0.43783423 3.3757637 -0.76726347
-0.41484526 3.360039 -0.76287961
-0.39354014 3.3567228 -0.76149523
-0.3712166 3.3436012 -0.75780356
-0.34967822 3.336139 -0.75549626
-0.3277674 3.3236971 -0.75203532
-0.30817434 3.3343656 -0.75411189
-0.28737441 3.3323162 -0.75318897
-0.26700005 3.3349867 -0.7534197
-0.24717826 3.3452954 -0.75549626
-0.22585696 3.3350997 -0.75272751
-0.20526913 3.3344803 -0.75226605
-0.18491316 3.3376203 -0.75272751
-0.16414256 3.3328609 -0.75134313
-0.14343734 3.3279727 -0.74995875
-0.12305063 3.3297625 -0.75018948
-0.10234655 3.3217018 -0.74811292
-0.081938937 3.3212945 -0.74788219
-0.061540168 3.3207619 -0.74765146
-0.040919717 3.3016183 -0.74303687
-0 0 -0
-0.00040560533 3.3223052 -0.74788219
0.019956736 3.3183532 -0.74695927
0.040270563 3.3142765 -0.74603635
0.061012387 3.3363426 -0.75134313
0.080891512 3.3115871 -0.74557489
0.10132796 3.3149188 -0.74649781
0.12159485 3.31229 -0.74603635
0.14145938 3.3007879 -0.74349833
0.16218507 3.3095765 -0.74580562
0.18264963 3.3114338 -0.74649781
0.20314306 3.3131642 -0.74719
0.2236646 3.3147678 -0.74788219
0.24328595 3.3036292 -0.74557489
0.26362938 3.3030441 -0.74580562
0.28414124 3.3042727 -0.74649781
0.30387536 3.2966535 -0.74511343
0.32343155 3.2879484 -0.74349833
0.34339777 3.2839665 -0.74303687
0.36418343 3.2876003 -0.74442124
0.3828806 3.2727401 -0.74142176
0.40390554 3.278055 -0.7432676
0.4242613 3.2774448 -0.74372905
0.44488621 3.2786367 -0.74465197
0.46472192 3.2739186 -0.74419051
0.48579934 3.2777431 -0.74580562
0.50530827 3.270854 -0.7448827
0.52274454 3.2513602 -0.74096036
0.54172325 3.2423329 -0.73957598
0.55994648 3.2293606 -0.73726869
0.57940692 3.2239487 -0.73680723
0.60077864 3.2289424 -0.73888379
0.61819112 3.2127736 -0.73588431
0.64035749 3.2213268 -0.73888379
0.65874296 3.2106647 -0.73726869
0.67742437 3.2018025 -0.73611504
0.69581473 3.1918814 -0.73473066
0.71538663 3.1875517 -0.73473066
0.73361892 3.1774137 -0.73334628
0.75399971 3.1766393 -0.7342692
0.77255541 3.1681716 -0.73334628
0.79292518 3.1671474 -0.7342692
0.81282747 3.1641073 -0.73473066
0.83222681 3.1590605 -0.73473066
0.85311598 3.1595309 -0.73611504
0.87170851 3.1514235 -0.73542285
0.89367932 3.1553776 -0.73773015
0.9119404 3.1460965 -0.73680723
0.93260986 3.1451061 -0.73796088
0.9479391 3.1262879 -0.73473066
0.96767968 3.1222715 -0.73519212
0.98652571 3.1153474 -0.73496139
1.0044253 3.1055322 -0.73403847
1.0243765 3.1020827 -0.73473066
1.0424592 3.0929725 -0.73403847
1.0595199 3.080997 -0.73265409
1.0784047 3.0744379 -0.73265409
1.0949557 3.0613494 -0.73103899
1.1137191 3.0545733 -0.73103899
1.1317631 3.0458579 -0.73057753
1.1504308 3.0388563 -0.73057753
1.1743047 3.0453587 -0.73403847
1.1904799 3.0317557 -0.73242337
1.2126708 3.0334294 -0.73473066
1.2312608 3.0259316 -0.73473066
1.2445943 3.005733 -0.73150045
1.2581042 2.9863822 -0.72850096
1.2867496 3.0027554 -0.73473066
1.3024296 2.9885592 -0.73311555
1.3211366 2.981401 -0.73334628
1.3358094 2.9652538 -0.73126972
1.3527638 2.9543474 -0.73057753
1.3733282 2.9512846 -0.73196191
1.3864214 2.9322462 -0.72919315
1.4069145 2.928947 -0.73057753
1.4248596 2.920259 -0.73057753
1.4449108 2.9158208 -0.73173118
1.4640865 2.9095078 -0.73242337
1.4863374 2.9091349 -0.73473066
1.5068469 2.9051428 -0.73611504
1.5269102 2.9001474 -0.73726869
1.542384 2.8864329 -0.73611504
1.5600659 2.8769145 -0.73611504
1.5781579 2.8681405 -0.73634577
1.59383 2.8550045 -0.73542285
1.611318 2.8451712 -0.73542285
1.6287452 2.8352308 -0.73542285
1.6461112 2.8251836 -0.73542285
1.6653949 2.8183811 -0.73634577
1.6831568 2.8089442 -0.7365765
1.6983399 2.7952371 -0.73565358
1.7169899 2.7872493 -0.73634577
1.7407589 2.7873912 -0.73934525
1.7599106 2.7799463 -0.74026817
1.7753588 2.7666385 -0.73957598
1.7933619 2.7573245 -0.74003744
1.8107822 2.7470813 -0.74026817
1.8259827 2.7334912 -0.73957598
1.8449022 2.7254591 -0.7404989
1.8560877 2.706063 -0.7381916
1.8709913 2.6922259 -0.73749942
1.885795 2.6783082 -0.73680723
1.9021933 2.6666868 -0.73680723
1.9202294 2.657331 -0.73749942
1.9376476 2.6470692 -0.73796088
1.9526944 2.6335669 -0.73749942
1.9705695 2.6238701 -0.7381916
1.9878101 2.6132784 -0.73865306
2.0038075 2.6010323 -0.73865306
2.0119495 2.5787144 -0.73565358
2.0283375 2.5670843 -0.73588431
2.0446587 2.5553501 -0.73611504
2.0633616 2.5465367 -0.73726869
2.0814166 2.5368373 -0.7381916
2.0938346 2.5202756 -0.73703796
2.1105118 2.5088701 -0.73749942
2.1290205 2.499577 -0.73865306
2.1430469 2.4849927 -0.7381916
2.1614535 2.4754615 -0.73934525
2.1772463 2.4628816 -0.73957598
2.1897218 2.4465754 -0.73865306
2.2059991 2.4345357 -0.73911452
2.2208958 2.4209542 -0.73911452
2.2330604 2.4044292 -0.7381916
2.2497709 2.3928092 -0.73888379
2.2650812 2.3796647 -0.73911452
2.2816651 2.3678238 -0.73980671
2.3036239 2.3614416 -0.74234468
2.323539 2.3528016 -0.74419051
2.3351805 2.3357475 -0.7432676
2.3515446 2.323427 -0.74395978
2.3671491 2.3103139 -0.74442124
2.3770778 2.2916932 -0.74303687
2.3868675 2.2730381 -0.74165249
2.3993523 2.2570162 -0.74119103
2.4117305 2.2409267 -0.74072963
2.426152 2.2267444 -0.74096036
2.4440942 2.2157376 -0.74234468
2.4583685 2.2013485 -0.74257541
2.4754732 2.1894462 -0.74372905
2.4895935 2.1748562 -0.74395978
2.5043645 2.1608107 -0.74442124
2.5153544 2.1435101 -0.74372905
2.5210156 2.1217694 -0.74142176
2.5347352 2.1068828 -0.74165249
2.5453591 2.089438 -0.74096036
2.5513299 2.0682652 -0.73888379
2.566251 2.0543962 -0.73957598
2.5849142 2.0434391 -0.74142176
2.5981708 2.0281389 -0.74165249
2.6213546 2.0204759 -0.7448827
2.6321542 2.0031748 -0.74442124
2.6513963 1.9922479 -0.74649781
2.6729474 1.9828995 -0.74926656
2.6874187 1.9681864 -0.74995875
2.6939254 1.9476683 -0.74834365
2.7129529 1.93619 -0.75042021
2.7287591 1.9223095 -0.75157386
2.7333133 1.9005299 -0.74949729
2.7481322 1.8859254 -0.75042021
2.7644856 1.8723021 -0.75180459
2.7613616 1.8455703 -0.74765146
2.7750704 1.8301996 -0.74834365
2.7756469 1.8062371 -0.74534416
2.7768528 1.7828625 -0.74257541
2.7844522 1.7637075 -0.74165249
2.8001723 1.7496835 -0.74303687
2.805886 1.7294052 -0.74165249
2.8214328 1.7151893 -0.74303687
2.8319039 1.6978451 -0.74303687
2.8489685 1.6843992 -0.7448827
2.8575692 1.6659063 -0.74442124
2.8727984 1.6512512 -0.74580562
2.8854156 1.6350323 -0.74649781
2.8902972 1.6144494 -0.74511343
2.9052627 1.5995007 -0.74649781
2.9167328 1.5825726 -0.74695927
2.9212403 1.5618927 -0.74557489
2.943681 1.5507431 -0.74903584
2.9565952 1.534445 -0.74995875
2.9685535 1.5176039 -0.75065094
2.9778097 1.4993606 -0.75065094
2.9834666 1.4793315 -0.74972802
3.0012307 1.4652673 -0.75203532
3.0013957 1.4426084 -0.74972802
3.003155 1.4208351 -0.74788219
3.0144625 1.4036139 -0.74857438
3.0212491 1.3842802 -0.74811292
3.0261381 1.3641163 -0.74719
3.0282249 1.3427609 -0.74557489
3.036407 1.3241549 -0.74557489
3.0516284 1.3085674 -0.74742073
3.0551174 1.287928 -0.74626708
3.0818386 1.2769819 -0.7511124
3.0842092 1.2558458 -0.74972802
3.0873401 1.2350901 -0.74857438
3.1093495 1.2218188 -0.75226605
3.1104336 1.2002645 -0.75065094
3.1204693 1.182191 -0.75134313
3.1304004 1.1640396 -0.75203532
3.1310856 1.1424745 -0.75042021
3.143533 1.1252091 -0.75180459
3.1549683 1.1075115 -0.75295824
3.1423843 1.0814804 -0.74811292
3.1756973 1.0712007 -0.75480407
3.1831341 1.0520003 -0.7550348
3.1811979 1.0297512 -0.75295824
3.1985865 1.0137413 -0.75572699
3.2038171 0.99380767 -0.75549626
3.1930959 0.96904254 -0.75134313
3.2036455 0.95081663 -0.75249678
3.2140915 0.93249768 -0.75365043
3.2160084 0.91169685 -0.75272751
3.2252927 0.89298564 -0.75365043
3.223197 0.87114692 -0.75180459
3.2294223 0.8516016 -0.75203532
3.251549 0.83613408 -0.75618845
3.2679439 0.81900698 -0.75895721
3.2615647 0.79616958 -0.75618845
3.2796414 0.7792927 -0.75941867
3.2815173 0.75849682 -0.75872648
3.2918055 0.73962808 -0.76011086
3.2706153 0.7138111 -0.75388116
3.3015859 0.69937861 -0.76034158
3.3058152 0.67910725 -0.76034158
3.2994227 0.6567198 -0.75780356
3.2909696 0.63406801 -0.75480407
3.2814069 0.61136639 -0.75157386
3.2755201 0.58949602 -0.74926656
3.2733238 0.56838721 -0.74788219
3.2681127 0.5468455 -0.74580562
3.2742884 0.52724689 -0.74649781
3.2909236 0.50923097 -0.74972802
3.3007236 0.49002966 -0.75134313
3.3084848 0.47045305 -0.75249678
3.3064883 0.44948781 -0.75134313
3.312079 0.42956692 -0.75203532
3.312721 0.4089976 -0.75157386
3.3180673 0.38900366 -0.75226605
3.325227 0.36917448 -0.7534197
3.3322682 0.34927204 -0.75457335
3.3420951 0.32958388 -0.75641918
3.3450234 0.30916062 -0.75664991
3.3381326 0.2878767 -0.75457335
3.351475 0.26832208 -0.7573421
3.3530583 0.24775276 -0.7573421
3.351603 0.22697653 -0.75664991
3.3626444 0.2070062 -0.75895721
3.3531644 0.18577617 -0.75641918
3.3552132 0.16524602 -0.75664991
3.3542197 0.14457169 -0.75618845
3.3462925 0.12366344 -0.75411189
3.3460157 0.10309856 -0.75388116
3.3533943 0.082734644 -0.75549626
3.3480017 0.062048186 -0.75411189
3.3463736 0.041479718 -0.75365043
3.343646 0.020927364 -0.75295824
3.3524687 0.00041284406 -0.7550348
3.3514352 -0.020151788 -0.75480407
3.3561132 -0.040773962 -0.75595772
3.347044 -0.061206829 -0.75388116
3.3407691 -0.081600882 -0.75249678
3.346041 -0.1022756 -0.75388116
3.3463228 -0.12284017 -0.75411189
3.345506 -0.14337051 -0.75411189
3.3426197 -0.16380043 -0.75365043
3.3347509 -0.18393297 -0.75203532
3.3442426 -0.20504493 -0.75457335
3.3380675 -0.22523399 -0.7534197
3.3308003 -0.24528366 -0.75203532
3.3234129 -0.26525265 -0.75065094
3.3197839 -0.28547323 -0.75018948
3.3315346 -0.30708644 -0.7534197
3.3315244 -0.32771283 -0.75388116
3.3323541 -0.34845176 -0.75457335
3.3340218 -0.36932021 -0.75549626
3.3287935 -0.3894316 -0.75480407
3.3302042 -0.41032484 -0.75572699
3.3189392 -0.42962769 -0.75365043
3.3114195 -0.44933063 -0.75249678
3.3057101 -0.46923077 -0.75180459
3.3037312 -0.48964792 -0.75203532
3.2948947 -0.50901937 -0.75065094
3.2974737 -0.53015292 -0.75203532
3.2931988 -0.5502156 -0.75180459
3.2888021 -0.57024586 -0.75157386
3.2900298 -0.5912748 -0.75272751
3.2825134 -0.61073941 -0.75180459
3.2739265 -0.62995034 -0.75065094
3.2699995 -0.65002692 -0.75065094
3.2669027 -0.6702745 -0.75088167
3.2627285 -0.6903072 -0.75088167
3.2660372 -0.71197098 -0.75272751
3.2597082 -0.73157173 -0.75226605
3.2627428 -0.75330937 -0.75411189
3.2580593 -0.77331501 -0.75411189
3.2579796 -0.79444355 -0.75526553
3.2558753 -0.81512779 -0.75595772
3.2479854 -0.83436418 -0.75526553
3.2484503 -0.85576427 -0.75664991
3.2375019 -0.8741591 -0.75526553
3.2273879 -0.8927111 -0.75411189
3.2209134 -0.91223216 -0.75388116
3.2133863 -0.9314366 -0.7534197
3.2029459 -0.94975346 -0.75226605
3.200783 -0.9705174 -0.75318897
3.2049916 -0.9933061 -0.75572699
3.2016194 -1.0138338 -0.75641918
3.1888573 -1.0313642 -0.75480407
3.1806211 -1.0503012 -0.75434262
3.165818 -1.0670015 -0.75226605
3.1564507 -1.0854576 -0.75157386
3.1515675 -1.1054486 -0.75203532
3.1392279 -1.1228 -0.75065094
3.1295369 -1.1410412 -0.74995875
3.1297739 -1.1629326 -0.75180459
3.1180291 -1.1803926 -0.75065094
3.115267 -1.2012521 -0.75180459
3.1114607 -1.2217666 -0.75272751
3.0966773 -1.2379465 -0.75088167
3.0899243 -1.2572906 -0.7511124
3.0812526 -1.2758542 -0.75088167
3.0670888 -1.2920929 -0.74926656
3.0662582 -1.313953 -0.7511124
3.0429735 -1.3261359 -0.74719
3.0294414 -1.3424177 -0.74580562
3.0344555 -1.3669739 -0.74926656
3.0242414 -1.3847573 -0.74880511
3.0148056 -1.4028772 -0.74857438
3.0131783 -1.4246757 -0.75042021
3.0052571 -1.4435586 -0.75065094
2.9928451 -1.460265 -0.74972802
2.9916756 -1.4824888 -0.75180459
2.9816537 -1.50038 -0.75157386
2.9585271 -1.5115653 -0.74788219
2.9595621 -1.5350649 -0.75065094
2.9449213 -1.5504764 -0.74926656
2.934494 -1.5680585 -0.74903584
2.9410701 -1.5948455 -0.7534197
2.9278188 -1.6109856 -0.75249678
2.9178786 -1.6289201 -0.75249678
2.9061356 -1.6458344 -0.75203532
2.8985136 -1.6650889 -0.75272751
2.8831973 -1.679904 -0.75134313
2.8795376 -1.7015226 -0.75318897
2.8698776 -1.7196591 -0.7534197
2.86343 -1.7397616 -0.75457335
2.8527012 -1.7572986 -0.75457335
2.8509438 -1.7804377 -0.75711137
2.8399656 -1.7978973 -0.75711137
2.8206909 -1.8100351 -0.75480407
2.7997427 -1.8209435 -0.75203532
2.7868919 -1.8370173 -0.75157386
2.7731402 -1.8524616 -0.75088167
2.7584982 -1.8672611 -0.74995875
2.7461865 -1.8836014 -0.74972802
2.7417691 -1.905413 -0.75180459
2.7284348 -1.9210801 -0.75134313
2.7189724 -1.9394802 -0.75203532
2.7070208 -1.9561269 -0.75203532
2.6941822 -1.9721255 -0.75180459
2.6828122 -1.989199 -0.75203532
2.668222 -2.0038702 -0.75134313
2.6558762 -2.0202045 -0.75134313
2.6411178 -2.0346813 -0.75065094
2.6331868 -2.0544393 -0.75203532
2.6274033 -2.0759859 -0.75411189
2.6062579 -2.0853822 -0.75157386
2.5979495 -2.1050096 -0.75295824
2.585737 -2.1215277 -0.75318897
2.5696766 -2.1348667 -0.75226605
2.5639758 -2.1568568 -0.75457335
2.5447669 -2.1675017 -0.75272751
2.5321562 -2.1837106 -0.75295824
2.5297048 -2.2088046 -0.75641918
2.5182915 -2.2262182 -0.75711137
2.5038593 -2.2409794 -0.75688064
2.4857349 -2.2523811 -0.75549626
2.465414 -2.2616718 -0.7534197
2.4557686 -2.2807291 -0.75480407
2.4374743 -2.2917559 -0.7534197
2.4219565 -2.3053272 -0.75295824
2.4084666 -2.3208199 -0.75318897
2.3913946 -2.3328366 -0.75226605
2.3818824 -2.3522515 -0.75388116
2.3694689 -2.3688858 -0.75457335
2.338474 -2.3667703 -0.74903584
2.3375018 -2.3949993 -0.75365043
2.3281658 -2.4149003 -0.75549626
2.3092778 -2.4249129 -0.75411189
2.2930217 -2.4376194 -0.75365043
2.2806711 -2.454494 -0.75457335
2.2649097 -2.467725 -0.75434262
2.2523398 -2.4844589 -0.75526553
2.2454925 -2.5076547 -0.75826502
2.2319977 -2.523572 -0.75895721
2.2081482 -2.5276945 -0.75595772
2.1976829 -2.5470889 -0.75780356
2.1794882 -2.5575635 -0.75688064
2.1618743 -2.5686555 -0.75618845
2.1442063 -2.5796275 -0.75549626
2.1308076 -2.5957434 -0.75641918
2.1166787 -2.6110363 -0.75711137
2.0963607 -2.6186583 -0.75549626
2.0802534 -2.6314719 -0.75549626
2.0622714 -2.6418858 -0.75480407
2.0495868 -2.6591134 -0.75618845
0 -0 -0
2.0074475 -2.6716197 -0.75249678
1.9933362 -2.6870124 -0.7534197
1.9785365 -2.7015476 -0.75411189
0 -0 -0
1.9463661 -2.7272077 -0.75457335
1.9290351 -2.7383037 -0.75434262
1.9160858 -2.7556801 -0.75595772
1.9085025 -2.7810228 -0.75988013
1.8892196 -2.7894583 -0.75895721
1.872609 -2.8018069 -0.75918794
1.8569896 -2.8156807 -0.75988013
1.8306543 -2.813159 -0.75595772
1.8044201 -2.8104203 -0.75203532
0 -0 -0
1.7605133 -2.8174996 -0.74788219
1.7447243 -2.8307338 -0.74857438
1.7359165 -2.8555193 -0.75249678
1.7193636 -2.8677859 -0.75295824
1.7126315 -2.8967073 -0.75803429
1.7021776 -2.9197693 -0.76149523
1.6832603 -2.9284716 -0.76103377
1.6681386 -2.9438238 -0.76241815
1.6476713 -2.9497569 -0.7612645
1.6276634 -2.9564018 -0.76034158
1.610885 -2.968899 -0.76103377
1.5912613 -2.9761531 -0.76034158
1.5711555 -2.9824178 -0.75941867
1.5505846 -2.987684 -0.75826502
1.5308943 -2.9945431 -0.75757283
1.5098652 -2.998666 -0.75618845
1.4914372 -3.007874 -0.75618845
1.4691103 -3.0090997 -0.75411189
1.4451381 -3.0066574 -0.7511124
1.445809 -3.0559247 -0.76172596
1.4303175 -3.0717947 -0.7635718
1.4122533 -3.0822823 -0.76403326
1.3829149 -3.0678275 -0.75803429
1.3565692 -3.0593557 -0.75365043
1.3338811 -3.0587032 -0.75134313
1.3120196 -3.0596764 -0.74949729
1.292465 -3.0658762 -0.74903584
1.2795899 -3.0881307 -0.75272751
1.2635539 -3.103133 -0.75457335
1.266542 -3.1659329 -0.76864785
1.2357014 -3.1446664 -0.7612645
1.2093749 -3.1340346 -0.75664991
1.1894324 -3.1395767 -0.75618845
1.1650573 -3.1331363 -0.75272751
1.1481463 -3.1466241 -0.75434262
1.1238971 -3.139869 -0.75088167
1.1039653 -3.1448698 -0.75042021
1.0843312 -3.1506643 -0.75018948
1.0643564 -3.1554146 -0.74972802
1.0468078 -3.1674287 -0.7511124
1.0348473 -3.1969347 -0.75688064
1.0078597 -3.1800363 -0.7511124
0.99236578 -3.1991708 -0.75434262
0.96904254 -3.1930959 -0.75134313
0.94693923 -3.1905868 -0.74926656
0.92653066 -3.1935337 -0.74857438
0.90691805 -3.1991587 -0.74857438
0.88805056 -3.2074764 -0.74926656
0.86962301 -3.2175612 -0.75042021
0.84986407 -3.2228367 -0.75042021
0.83758867 -3.2572029 -0.75757283
0.81403732 -3.2481239 -0.75411189
0.79270673 -3.2473862 -0.75272751
0.77411658 -3.2578688 -0.75411189
0.75718141 -3.2758293 -0.7573421
0.73237187 -3.2595286 -0.75226605
0.71443385 -3.2734671 -0.75457335
0.69413304 -3.2768373 -0.75434262
0.67420959 -3.2819879 -0.75457335
0.65234852 -3.2774744 -0.75249678
0.63296282 -3.2852371 -0.7534197
0.61279303 -3.2890592 -0.7534197
0.59260023 -3.2927573 -0.7534197
0.57138562 -3.2905793 -0.75203532
0.55054146 -3.2901847 -0.7511124
0.53003329 -3.2915797 -0.75065094
0.51086891 -3.3015008 -0.75226605
0.49002966 -3.3007236 -0.75134313
0.46894503 -3.2978883 -0.74995875
0.44935665 -3.3055243 -0.7511124
0.42981744 -3.3140087 -0.75249678
0.41007167 -3.3214121 -0.75365043
0.39059144 -3.3315969 -0.75549626
