# .PCD v0.7 - Point Cloud Data file format
VERSION 0.7
FIELDS x y z
SIZE 4 4 4
TYPE F F F
COUNT 1 1 1
WIDTH 1570
HEIGHT 1
VIEWPOINT 0 0 0 1 0 0 0
POINTS 1570
DATA ascii
-2.0725188 5.184917 -0.80491072
-2.0424716 5.2021384 -0.80565757
-2.0126467 5.2201085 -0.80655372
-1.9802289 5.2314348 -0.80640435
-1.9449947 5.2351441 -0.80506009
-1.9196053 5.2655611 -0.80804735
-1.8759462 5.2455826 -0.80296904
-1.8519008 5.2803226 -0.80670309
-1.8204304 5.2943916 -0.8071512
-1.7800211 5.2820354 -0.80341709
-1.7413813 5.2740779 -0.80042988
-1.7202371 5.3194761 -0.8059563
-1.6935304 5.3487854 -0.80894351
-1.6600941 5.3571873 -0.80864483
-1.6274785 5.3682184 -0.80879414
-1.5959134 5.382844 -0.80954099
-1.5606545 5.3849368 -0.80834609
-1.5310835 5.4067802 -0.81028777
-1.4984061 5.4179788 -0.81058651
-1.4597259 5.407023 -0.80744988
-1.4255149 5.4120531 -0.80685246
-1.3790083 5.3689795 -0.79878688
-1.3474783 5.3830953 -0.79968303
-1.3216771 5.4210434 -0.8043133
-1.2886174 5.4300132 -0.80446267
-1.2546086 5.4349275 -0.80401456
-1.2160461 5.4193673 -0.80042988
-1.1876088 5.4489479 -0.80386519
-1.1541524 5.4561324 -0.80386519
-1.1194615 5.4572997 -0.80296904
-1.0869178 5.468915 -0.80371583
-1.0563262 5.4910173 -0.80610561
-1.0246009 5.5080891 -0.80774862
-0.99043524 5.5123258 -0.80744988
-0.95659363 5.5182991 -0.80744988
-0.92320406 5.5269909 -0.80789798
-0.89162445 5.5471959 -0.81013846
-0.85757071 5.5525622 -0.81013846
-0.81856412 5.5244632 -0.80506009
-0.78520614 5.5332975 -0.80565757
-0.75163776 5.5409513 -0.80610561
-0.71762502 5.5454588 -0.80610561
-0.68370587 5.5507388 -0.80625498
-0.64906108 5.5499191 -0.8055082
-0.61358309 5.5410209 -0.80356646
-0.57916212 5.5407476 -0.80296904
-0.54486418 5.5412445 -0.80252093
-0.50985783 5.5336528 -0.80087793
-0.47530311 5.5297809 -0.7998324
-0.43995243 5.5148511 -0.79714388
-0.40487531 5.5006824 -0.79460472
-0.37045294 5.4931979 -0.79311109
-0.33601713 5.4835238 -0.79131871
-0.3011719 5.4637623 -0.78803277
-0.26783383 5.4694576 -0.78863019
-0.23464765 5.4798889 -0.78997445
-0.20098323 5.4802375 -0.78982508
-0.16774288 5.494216 -0.79176682
-0.13395615 5.4921761 -0.79131871
-0.099897593 5.4731221 -0.78833145
-0.065948479 5.4429822 -0.78370124
-0.032447126 5.4254866 -0.78101271
0.00084364612 5.4255834 -0.78101271
0.033819132 5.377027 -0.77369392
0.067073822 5.397481 -0.77683055
0.10054365 5.4157515 -0.77966845
0.13384607 5.4179978 -0.7801165
0.16671941 5.4052148 -0.77832419
0.20032316 5.4159474 -0.7801165
0.2336795 5.4175797 -0.78056461
0.26613462 5.4002428 -0.77817482
0.29739684 5.3649416 -0.77309644
0.32988289 5.3561072 -0.77205092
0.36133304 5.3332658 -0.76891428
0.39543954 5.3496838 -0.77175218
0.42833629 5.3481421 -0.77190155
0.46012139 5.3335924 -0.77010924
0.49439019 5.3474059 -0.77264839
0.52592725 5.33148 -0.77070665
0.55739087 5.3163524 -0.76891428
0.59043831 5.3167629 -0.76951176
0.62155032 5.3002739 -0.76757002
0.65114689 5.272809 -0.76398534
0.67864597 5.2314539 -0.75830954
0.70939845 5.2173939 -0.75681591
0.7434901 5.2276263 -0.75905639
0.77729756 5.2347026 -0.7608487
0.80773658 5.2190862 -0.75920576
0.8376984 5.2013416 -0.75726402
0.86747295 5.1834264 -0.75532228
0.89858389 5.1741095 -0.75472486
0.93189311 5.1772561 -0.75606912
0.9558447 5.1296444 -0.74964648
0.97924733 5.0819349 -0.74322391
0.99726933 5.0098906 -0.73306727
1.0122532 4.927165 -0.72126758
1.0297476 4.8608904 -0.71200711
1.0380241 4.7559495 -0.6967721
1.0374573 4.6173301 -0.67630941
1.0481588 4.5347748 -0.66450971
1.0713875 4.5090189 -0.66152251
1.0896453 4.4639397 -0.65554798
1.1064281 4.4149709 -0.64897603
1.1261023 4.3793716 -0.64449513
1.1963587 4.536818 -0.67018551
1.1931868 4.4148555 -0.65226197
1.2252707 4.4255557 -0.65509987
1.2575308 4.4360275 -0.65793777
1.2770052 4.4016404 -0.65375561
1.3034259 4.3918262 -0.65345687
1.3266132 4.3714466 -0.65151519
1.353411 4.3632245 -0.65151519
1.3831474 4.3642631 -0.65300882
1.4117284 4.3613377 -0.65390497
1.425421 4.3131657 -0.64763176
1.4452177 4.2846646 -0.64449513
1.4679387 4.2654324 -0.64285213
1.5009657 4.2759356 -0.64598876
1.5301752 4.2750235 -0.64733303
1.5475593 4.241405 -0.6434496
1.5711409 4.2253428 -0.64240402
1.5931817 4.2054524 -0.64076108
1.621093 4.2011323 -0.64165723
1.6569721 4.2168717 -0.64583939
1.6872251 4.2176409 -0.64763176
1.7138184 4.2090402 -0.64793044
1.7350676 4.1874847 -0.64613813
1.758423 4.1712933 -0.64524192
1.785544 4.1640601 -0.64583939
1.8114561 4.1539321 -0.64598876
1.8413213 4.1526809 -0.64763176
1.8566029 4.1187711 -0.64389765
1.880604 4.1046052 -0.6434496
1.9045012 4.0903001 -0.6430015
1.9524097 4.1267967 -0.65106708
1.9639804 4.0862246 -0.6462875
1.9838078 4.063436 -0.64449513
2.0152953 4.0644732 -0.64673555
2.041976 4.0555634 -0.64733303
2.0632195 4.0359154 -0.64613813
2.0847547 4.0170369 -0.64509255
2.1227348 4.0295358 -0.64942408
2.1483524 4.0181789 -0.64972281
2.1710801 4.0014453 -0.6491254
2.2008395 3.9975753 -0.65076834
2.2262917 3.9857221 -0.65106708
2.2541194 3.9780078 -0.6521126
2.2819364 3.9701018 -0.65315819
2.3102391 3.9628582 -0.65435308
2.3395457 3.9571185 -0.65584671
2.3815849 3.9723659 -0.6610744
2.4079692 3.9610572 -0.66167182
2.4384568 3.9563069 -0.66346419
2.4663556 3.9471393 -0.66450971
2.4984679 3.9444594 -0.66675019
2.5317087 3.9431975 -0.66928935
2.5563955 3.9284174 -0.66943872
2.5858977 3.9209108 -0.67093235
2.6159534 3.9140115 -0.67257529
2.6415842 3.9003422 -0.6730234
2.6990476 3.9329684 -0.6819852
2.6790841 3.8530221 -0.67033488
2.7152076 3.8542914 -0.67362088
2.7359331 3.8335352 -0.67287403
2.7617218 3.8198802 -0.67347151
2.7880304 3.8068507 -0.6742183
2.8172293 3.7976117 -0.67571193
2.854738 3.7992225 -0.67929667
2.8905752 3.7981551 -0.68243325
2.9331481 3.8054032 -0.68721288
2.9661806 3.7998025 -0.68960267
2.9949603 3.7885106 -0.69094694
3.0280399 3.7824106 -0.69333673
3.0648942 3.7806544 -0.69662273
3.1018405 3.7785878 -0.69990873
3.1369796 3.7739286 -0.70274663
3.1912847 3.7916706 -0.71006536
3.2420752 3.8043721 -0.716488
3.2821565 3.8038678 -0.72037143
3.3275588 3.8089702 -0.72544974
3.3711805 3.8114362 -0.73008001
3.402421 3.7995167 -0.73187232
3.4542353 3.8100612 -0.73829496
3.4996181 3.8128288 -0.74322391
3.5350654 3.8043189 -0.74591243
3.5712173 3.7962375 -0.74875033
3.6026282 3.7828438 -0.7505427
3.6415598 3.7770357 -0.75397801
3.6715748 3.7616949 -0.75547165
3.6876357 3.7320638 -0.75397801
3.7076681 3.7065709 -0.7533806
3.7127488 3.6663861 -0.74964648
3.7351754 3.6435361 -0.74964648
3.744642 3.6082022 -0.74695796
3.7824714 3.6001515 -0.75024396
3.8016081 3.5741665 -0.74964648
3.8278153 3.5548091 -0.7505427
3.8386233 3.5212317 -0.74830222
3.8579581 3.4956207 -0.74785417
3.8623846 3.4567204 -0.7444188
3.8961184 3.4440861 -0.74695796
3.9343121 3.4350686 -0.75039333
3.9373403 3.3953698 -0.74680865
3.9927332 3.4006312 -0.75367934
4.0195785 3.3811588 -0.75487423
4.0303602 3.3482196 -0.75293249
4.0240684 3.301482 -0.7477048
4.081902 3.3072209 -0.7550236
4.102118 3.2821126 -0.7550236
4.0988998 3.2384963 -0.7505427
4.1420856 3.2315261 -0.7550236
4.1594853 3.2042401 -0.75457549
4.1798553 3.1792562 -0.75472486
4.2056103 3.158298 -0.75591975
4.2264991 3.1336107 -0.75621849
4.2296867 3.0959418 -0.75323123
4.2461987 3.0681937 -0.75278312
4.264945 3.0420818 -0.75278312
4.2778702 3.0118721 -0.75173759
4.3043909 2.9912076 -0.75323123
4.342237 2.978158 -0.75681591
4.3448682 2.9409311 -0.75397801
4.3644767 2.9153142 -0.75427675
4.4020991 2.901535 -0.75786144
4.4264522 2.8787808 -0.75905639
4.4223924 2.8376875 -0.75517291
4.4347076 2.8073266 -0.75427675
4.4845624 2.8004813 -0.76010191
4.4822955 2.760989 -0.75666654
4.4754877 2.719064 -0.75248438
4.5243225 2.7108564 -0.75816017
4.5093694 2.6644409 -0.75263375
4.572629 2.6640882 -0.7608487
4.5537314 2.6157959 -0.75472486
4.5869064 2.5975463 -0.75771213
4.596714 2.5659804 -0.75666654
4.6470284 2.5567853 -0.76264107
4.6600213 2.5268102 -0.76219296
4.6614828 2.4907167 -0.75980318
4.6696773 2.4583843 -0.75860828
4.6662388 2.4201293 -0.75547165
4.6836424 2.3928013 -0.75591975
4.6982365 2.364018 -0.75591975
4.7348051 2.3461158 -0.75965381
4.7428904 2.3139858 -0.75860828
4.7454109 2.2792778 -0.75666654
4.7816572 2.2606783 -0.76040065
4.7963352 2.2317128 -0.76055002
4.8117366 2.203064 -0.7608487
4.8224587 2.1722806 -0.76040065
4.8239436 2.137445 -0.75845891
4.8333416 2.1062262 -0.75786144
4.8525372 2.0792544 -0.75890702
4.8451548 2.0410004 -0.75562102
4.8594141 2.0119889 -0.75591975
4.8881555 1.988838 -0.75860828
4.9094486 1.9624755 -0.76010191
4.915875 1.9301478 -0.75920576
4.9174767 1.8960375 -0.75756276
4.9456644 1.872126 -0.76025128
4.9311042 1.832108 -0.75606912
4.9450397 1.8028322 -0.75651717
4.9588022 1.7734544 -0.75696528
4.9462624 1.7348183 -0.75323123
4.9942183 1.7172885 -0.75920576
4.9924798 1.6825098 -0.75726402
5.0214891 1.6580411 -0.76025128
5.0456815 1.6317594 -0.7624917
5.0367441 1.5948036 -0.75950444
5.0388784 1.5615288 -0.75830954
5.0483651 1.5305815 -0.75830954
5.0586095 1.4998573 -0.75845891
5.0268779 1.4569632 -0.75203633
5.0195484 1.4215149 -0.74949718
5.0691581 1.4020135 -0.75591975
5.0757561 1.3703684 -0.75562102
5.0697255 1.3354235 -0.7533806
5.0806971 1.3050284 -0.75382864
5.0780573 1.2711904 -0.7521857
5.131875 1.2512405 -0.75935507
5.1442666 1.2208689 -0.76010191
5.1381717 1.1861705 -0.7580108
5.157896 1.1574327 -0.75995255
5.1677995 1.1263937 -0.76040065
5.1571999 1.0909837 -0.75771213
5.1657343 1.0597162 -0.7580108
5.1643806 1.0264596 -0.75681591
5.1171756 0.98448986 -0.74860096
5.1697831 0.961743 -0.75577039
5.1960244 0.93367153 -0.75890702
5.165607 0.89553046 -0.7533806
5.1817331 0.86560774 -0.7550236
5.1859703 0.83364022 -0.75487423
5.1861019 0.80105042 -0.75412738
5.187007 0.76863509 -0.75352997
5.1769404 0.73471302 -0.75128949
5.2176051 0.70784426 -0.75681591
5.2130241 0.67467606 -0.75547165
5.2003822 0.64062542 -0.75293249
5.2346606 0.61225855 -0.75756276
5.1999898 0.57589149 -0.75173759
5.2211275 0.54582071 -0.75442612
5.2046971 0.51184314 -0.75143886
5.2225094 0.4812558 -0.75367934
5.2430968 0.45072249 -0.75636786
5.2556205 0.4193272 -0.75786144
5.2669697 0.38772276 -0.75920576
5.2672763 0.35526532 -0.75890702
5.2525792 0.3219147 -0.75636786
5.2663031 0.29032993 -0.75816017
5.2590966 0.25757769 -0.75681591
5.2309418 0.22404091 -0.75233507
5.2529688 0.19269682 -0.75547165
5.2323089 0.15980238 -0.7521857
5.2549376 0.1282203 -0.75547165
5.2467279 0.095813699 -0.75412738
5.2580929 0.063748017 -0.75577039
5.2435536 0.031398263 -0.75352997
5.277266 -0.00078863779 -0.75860828
5.2860608 -0.033227224 -0.75995255
5.2521415 -0.065236241 -0.75487423
5.2743802 -0.097888581 -0.75830954
5.2341413 -0.12926443 -0.75233507
5.2599339 -0.1622069 -0.75636786
5.2529111 -0.19425763 -0.75547165
5.2427297 -0.22609983 -0.75412738
5.2432189 -0.25836211 -0.75442612
5.2444963 -0.29069388 -0.75487423
5.2228761 -0.32164806 -0.75188696
5.2267232 -0.35409129 -0.75278312
5.2550206 -0.38842145 -0.75741339
5.2495813 -0.42042086 -0.75696528
5.2528138 -0.45313498 -0.75786144
5.2450113 -0.48490089 -0.75711465
5.2399697 -0.51687998 -0.75681591
5.2927513 -0.55491126 -0.7653296
5.2460074 -0.58256513 -0.75875765
5.2109094 -0.61105096 -0.75397801
5.266921 -0.65041846 -0.76308918
5.2275319 -0.67813629 -0.75771213
5.23209 -0.71139997 -0.75905639
5.2540569 -0.74725509 -0.76308918
5.2317681 -0.77686125 -0.76040065
5.2650104 -0.8148545 -0.76622576
5.2355075 -0.84320873 -0.7624917
5.225359 -0.87450022 -0.76174492
5.2286625 -0.90807056 -0.76308918
5.229804 -0.94136363 -0.76413471
5.2044892 -0.9698084 -0.76114744
5.2139745 -1.0047213 -0.76353723
5.2018933 -1.0355351 -0.76264107
5.2361188 -1.0758005 -0.76891428
5.2062049 -1.102985 -0.7653296
5.213829 -1.1380751 -0.76757002
5.1749134 -1.1628841 -0.76264107
5.1734605 -1.1959523 -0.76353723
5.1929593 -1.2340807 -0.76771939
5.1612763 -1.2600528 -0.76398534
5.1045356 -1.2794269 -0.75636786
5.1387219 -1.3215692 -0.76293981
5.1400766 -1.3555986 -0.76443344
5.1144814 -1.3824639 -0.76174492
5.1249599 -1.4191014 -0.76473218
5.1199608 -1.4516004 -0.7653296
5.089118 -1.4766464 -0.76189429
5.1245103 -1.5210786 -0.76891428
5.0885901 -1.5444467 -0.76473218
5.0790176 -1.5756407 -0.76473218
5.0701966 -1.6070743 -0.76488149
5.0527153 -1.6357162 -0.7636866
5.0660524 -1.674451 -0.76742071
5.0425673 -1.7010765 -0.7653296
5.0516672 -1.7387472 -0.76846623
4.9961247 -1.7539796 -0.76129681
5.0038857 -1.7912713 -0.76428407
4.9928002 -1.8219408 -0.76428407
4.9500194 -1.8408167 -0.75920576
4.9700665 -1.883073 -0.76428407
4.975944 -1.9203011 -0.76712197
4.9502645 -1.945369 -0.76488149
4.9189577 -1.9679892 -0.76174492
4.9534898 -2.0171633 -0.76936239
4.9154449 -2.0369151 -0.76518023
4.9292741 -2.0781827 -0.76951176
4.883718 -2.0943522 -0.76413471
4.8943381 -2.1345613 -0.76801813
4.9001284 -2.1729739 -0.77115476
4.8731828 -2.1969011 -0.76891428
4.8506231 -2.22264 -0.76742071
4.8601971 -2.2632186 -0.77130413
4.8435378 -2.2917283 -0.77085602
4.8071079 -2.3106904 -0.76712197
4.821269 -2.3540316 -0.77190155
4.8014197 -2.3809333 -0.77100539
4.7708254 -2.4023414 -0.76831686
4.7612767 -2.4342711 -0.76921302
4.7664337 -2.4739211 -0.77264839
4.7266726 -2.4902105 -0.76846623
4.7461782 -2.5378234 -0.77444071
4.7157445 -2.5588775 -0.77190155
4.6930261 -2.5839477 -0.77070665
4.6563683 -2.6011174 -0.76712197
4.6506419 -2.6354916 -0.76891428
4.6275263 -2.6600342 -0.76771939
4.6333241 -2.7013314 -0.77160287
4.6328311 -2.7392755 -0.77444071
4.6320467 -2.7773147 -0.7772786
4.6005569 -2.7969489 -0.77473944
4.5555353 -2.807997 -0.7698105
4.549119 -2.8427107 -0.77175218
4.5265799 -2.8673942 -0.77085602
4.5130601 -2.8977869 -0.77160287
4.5150819 -2.9383724 -0.77518755
4.4598289 -2.9415145 -0.76846623
4.4934783 -3.0034516 -0.77787608
4.4479527 -3.0126622 -0.77294713
4.401669 -3.0208683 -0.76786876
4.3879209 -3.0512075 -0.76876497
4.4062934 -3.1042778 -0.77563566
4.3702645 -3.1191893 -0.77249902
4.3470378 -3.1430485 -0.77175218
4.3388367 -3.1778443 -0.77384329
4.3025823 -3.1920314 -0.77070665
4.3074164 -3.2367909 -0.77533692
4.2630873 -3.2445903 -0.77070665
4.2454476 -3.2724986 -0.77115476
4.2377563 -3.3082244 -0.77354455
4.1584377 -3.2875471 -0.76219296
4.1389589 -3.3136189 -0.76234233
4.1331401 -3.3507872 -0.76518023
4.1545281 -3.4106002 -0.77339518
4.1396046 -3.4410856 -0.77459008
4.0949659 -3.4466774 -0.76995987
4.0699782 -3.4685311 -0.76921302
4.0426316 -3.4882698 -0.76801813
4.0315747 -3.5221193 -0.77010924
3.9713819 -3.5127165 -0.76234233
4.0189805 -3.5990388 -0.77638245
4.0063424 -3.632267 -0.77832419
3.9788818 -3.6520996 -0.7772786
3.9498804 -3.6703856 -0.77593434
3.9301651 -3.6972632 -0.77653182
3.9045417 -3.7185805 -0.77593434
3.878093 -3.7390358 -0.77518755
3.8720565 -3.7793405 -0.77877223
3.8044927 -3.7592344 -0.76936239
3.8100104 -3.8111844 -0.77548629
3.8372602 -3.8858612 -0.78638977
3.8299117 -3.9263241 -0.78997445
3.7995746 -3.9433403 -0.78863019
3.7739441 -3.9651473 -0.78833145
3.7183955 -3.9550841 -0.78146076
3.6624408 -3.9437649 -0.77444071
3.69631 -4.0295687 -0.78743529
3.6277077 -4.0038023 -0.77757734
3.6241684 -4.0495687 -0.78235698
3.5992525 -4.0717297 -0.78235698
3.5872042 -4.1086373 -0.78534424
3.5541797 -4.121583 -0.78355187
3.5333099 -4.1485839 -0.7845974
3.4906073 -4.1497517 -0.78056461
3.4903462 -4.20152 -0.78653914
3.4588573 -4.2159758 -0.78519487
3.4242115 -4.2263622 -0.78310376
3.3926566 -4.2403431 -0.7817595
3.3488028 -4.2385769 -0.77742797
3.229702 -4.1397462 -0.75457549
3.1559806 -4.0968099 -0.74262649
3.1265945 -4.1105876 -0.7415809
3.1013136 -4.1296949 -0.7415809
3.077682 -4.1510296 -0.74202901
3.0626631 -4.1841998 -0.74471754
3.0461946 -4.2157388 -0.74710733
3.0317497 -4.2504525 -0.75009459
3.0118721 -4.2778702 -0.75173759
3.0239241 -4.3514929 -0.76189429
3.0664933 -4.4710932 -0.78041524
3.0329065 -4.4808159 -0.77877223
3.0141404 -4.5124989 -0.78116208
2.992923 -4.5408168 -0.78295439
2.9628491 -4.5557795 -0.78235698
2.9268327 -4.5613885 -0.7801165
2.899318 -4.5800972 -0.78026587
2.8722076 -4.5994782 -0.78056461
2.8439317 -4.6170154 -0.78056461
2.8227336 -4.6462107 -0.78265566
2.7611506 -4.608304 -0.77294713
2.7413702 -4.6396332 -0.77548629
2.0247068 -3.4746401 -0.56891757
1.9920255 -3.4672756 -0.5654822
1.9575628 -3.4561994 -0.56144941
1.9305379 -3.4577839 -0.5596571
1.9011854 -3.4548354 -0.55711788
1.8733553 -3.4542651 -0.55502683
1.8432751 -3.4491231 -0.55218893
1.8151706 -3.4472427 -0.54994851
1.7907993 -3.4521704 -0.54890293
1.7709324 -3.4657354 -0.54935104
1.750078 -3.4774199 -0.54950041
1.723881 -3.4783459 -0.5478574
1.7046727 -3.4933016 -0.54860425
1.6840619 -3.5054784 -0.54890293
1.6574519 -3.5050175 -0.54711062
1.6359142 -3.5151215 -0.54711062
1.6176065 -3.5322859 -0.54830551
1.5902197 -3.5295222 -0.5462144
1.5733373 -3.5500624 -0.54800677
1.5558678 -3.5696213 -0.54964978
1.5331573 -3.5772829 -0.54935104
1.5169334 -3.6002927 -0.55159146
1.5012407 -3.6250646 -0.55413067
0 -0 -0
0 -0 -0
1.4443736 -3.6778564 -0.55831277
1.4303119 -3.7087934 -0.56189752
1.8871695 -4.9854321 -0.76667386
1.8730639 -5.0414114 -0.77384329
0 -0 -0
1.3834534 -3.8675461 -0.5819121
1.3508662 -3.8507676 -0.57787931
0 -0 -0
1.3076121 -3.8792367 -0.57982105
1.2906008 -3.907845 -0.58310699
1.2711592 -3.9298034 -0.58534747
1.2628306 -3.9874935 -0.59326369
1.232198 -3.9753318 -0.59012705
1.2679849 -4.1815434 -0.62149328
1.2383715 -4.175972 -0.61940217
1.169268 -4.0334301 -0.59580284
1.2088387 -4.26792 -0.63150054
0 -0 -0
1.4174935 -5.2504587 -0.78295439
1.3905354 -5.2791381 -0.78609103
1.3534471 -5.2693739 -0.78325313
1.3297257 -5.3121119 -0.78863019
1.3013183 -5.3374634 -0.79131871
1.264666 -5.3289914 -0.78877956
1.2281666 -5.320272 -0.7862404
1.1970129 -5.3344612 -0.78728592
1.1663624 -5.351367 -0.78877956
1.1351404 -5.3661623 -0.78997445
1.1012005 -5.3681831 -0.78922766
1.0651605 -5.3593211 -0.78683782
1.0350552 -5.3803215 -0.7890783
0.99588132 -5.353518 -0.78399998
0.96703112 -5.3819122 -0.78743529
0.93382144 -5.3867702 -0.78728592
0.9027037 -5.4041023 -0.7890783
0.86560988 -5.3851323 -0.78534424
0.83571619 -5.4108644 -0.78848082
0.79931611 -5.3943715 -0.78519487
0.76897621 -5.4187541 -0.78818208
0.73491663 -5.4174914 -0.78728592
0.69710076 -5.3865962 -0.78190887
0.66669089 -5.4123626 -0.78519487
0.63163429 -5.4006376 -0.78280503
0.5967468 -5.3886871 -0.78041524
0.56500489 -5.4050322 -0.78235698
0.53453302 -5.4359508 -0.78653914
0.50026351 -5.4292817 -0.7850455
0.46592698 -5.4204273 -0.78325313
0.42913008 -5.378829 -0.77653182
0.39908543 -5.421792 -0.78265566
0.36581042 -5.424139 -0.78265566
0.33276272 -5.4302292 -0.78325313
0.29938298 -5.4311814 -0.78310376
0.26547444 -5.4210649 -0.78131139
0.23195387 -5.4166641 -0.78041524
0.19723633 -5.3774724 -0.7742914
0.15650631 -5.1235929 -0.7357558
0.12200648 -4.9979296 -0.71663731
0.09128397 -4.9956179 -0.71618927
0.060500275 -4.985208 -0.71454626
0.030121386 -5.0220699 -0.72007269
-0.00076736789 -5.2199168 -0.74994522
-0.033709757 -5.360218 -0.77115476
-0.066748805 -5.3717747 -0.77294713
-0.099726707 -5.3722525 -0.77309644
-0.13256519 -5.3665972 -0.77234966
-0.16527663 -5.3587646 -0.77130413
-0.19951443 -5.3942094 -0.77683055
-0.23290868 -5.3997984 -0.77787608
-0.2661835 -5.4012303 -0.77832419
-0.29948464 -5.4024572 -0.77877223
-0.32719895 -5.3126841 -0.76547897
-0.35744393 -5.2760487 -0.76025128
-0.39397743 -5.3299623 -0.76876497
-0.42738643 -5.3363152 -0.77010924
-0.4592694 -5.323741 -0.7686156
-0.49439019 -5.3474059 -0.77264839
-0.52767837 -5.3491917 -0.77339518
-0.55945724 -5.3360195 -0.77190155
-0.59371883 -5.3462443 -0.77399266
-0.62016582 -5.2884893 -0.76577771
-0.6551531 -5.305192 -0.76891428
-0.68476218 -5.2785196 -0.76547897
-0.71700424 -5.2732391 -0.7653296
-0.75004393 -5.2736349 -0.76607645
-0.77482498 -5.2180758 -0.75830954
-0.80940247 -5.2298346 -0.7608487
-0.83958763 -5.2130556 -0.75905639
-0.84786195 -5.0664043 -0.73739874
-0.87317306 -5.0279851 -0.73232043
-0.90120167 -5.0069628 -0.72993064
-0.93390167 -5.0120311 -0.73157364
-0.96875811 -5.027566 -0.73485959
-1.0297372 -5.172802 -0.75816017
-1.0510988 -5.116024 -0.75039333
-1.0900607 -5.145267 -0.75591975
-1.1247772 -5.1529713 -0.75816017
-1.158327 -5.154655 -0.75950444
-1.186144 -5.131074 -0.75696528
-1.2162324 -5.117928 -0.75606912
-1.2452654 -5.1007638 -0.75457549
-1.2784644 -5.1006994 -0.75577039
-1.3087517 -5.0889287 -0.75517291
-1.3457565 -5.1027913 -0.75860828
-1.3842715 -5.1211629 -0.76279044
-1.4249109 -5.1459231 -0.76801813
-1.4621272 -5.1570587 -0.77115476
-1.4885036 -5.1299486 -0.76831686
-1.4602597 -4.919776 -0.73665196
-1.4921438 -4.9164 -0.73754811
-1.543391 -4.9751425 -0.74830222
-1.5792702 -4.9825439 -0.75099075
-1.6162125 -4.9925137 -0.75412738
-1.6430894 -4.9712377 -0.75233507
-1.6678686 -4.9441991 -0.74964648
-1.7277989 -5.0198812 -0.76338786
-1.7647949 -5.0269098 -0.76622576
-1.7906044 -5.0020237 -0.76398534
-1.8216016 -4.9918714 -0.76413471
-1.8625425 -5.0084014 -0.7686156
-1.9005996 -5.0162945 -0.77175218
-1.9292061 -4.9990039 -0.77085602
-1.957672 -4.9815512 -0.76995987
-1.979014 -4.9464965 -0.76622576
-2.0007463 -4.9131999 -0.76279044
-2.031234 -4.9017444 -0.76293981
-2.0651157 -4.8982987 -0.76443344
-2.0935726 -4.8819008 -0.76383597
-2.1310019 -4.8861818 -0.76667386
-2.1585367 -4.8675914 -0.76577771
-2.1871433 -4.8515511 -0.7653296
-2.2218158 -4.8488255 -0.76712197
-2.2481852 -4.8279314 -0.76592708
-2.267189 -4.7917037 -0.76219296
-2.2875478 -4.7589893 -0.75905639
-2.310195 -4.7315373 -0.75681591
-2.3268785 -4.692472 -0.75263375
-2.3507335 -4.6683927 -0.75099075
-2.376632 -4.6485991 -0.75009459
-2.3991866 -4.6225214 -0.74815291
-2.4067562 -4.5683517 -0.74143153
-2.4398725 -4.5630884 -0.74307454
-2.4645228 -4.5419488 -0.74202901
-2.4842346 -4.5120182 -0.73948985
-2.51525 -4.5027323 -0.74053538
-2.5355155 -4.4743118 -0.73829496
-2.549119 -4.4346704 -0.7341128
-2.5757833 -4.4180918 -0.73396343
-2.5862303 -4.3741202 -0.72903442
-2.6074255 -4.3488417 -0.72739148
-2.6299496 -4.3260026 -0.72619659
-2.6631913 -4.3207254 -0.72813827
-2.6875558 -4.3009491 -0.72754085
-2.7091317 -4.2768612 -0.72619659
-2.7214282 -4.2385278 -0.72231311
-2.7322776 -4.1985483 -0.71813095
-2.7536311 -4.1751018 -0.71693605
-2.7769988 -4.1548395 -0.71633863
-2.7830265 -4.1090727 -0.71111089
-2.809866 -4.0943646 -0.711559
-2.8151717 -4.0486374 -0.70633131
-2.8154659 -3.9965351 -0.69990873
-2.8158021 -3.9453874 -0.69363546
-2.841696 -3.930439 -0.69408357
-2.8581617 -3.9025602 -0.69214183
-2.8679101 -3.8658938 -0.68855715
-2.909996 -3.8727248 -0.69318736
-2.9534712 -3.8807571 -0.69811636
-2.9434133 -3.8187141 -0.68975204
-2.9613116 -3.7935684 -0.68840778
-2.9722648 -3.7598162 -0.68542051
-2.9754984 -3.7168119 -0.68064094
-2.9720881 -3.6662309 -0.67436767
-3.0064514 -3.6624436 -0.67720556
-3.0016809 -3.611237 -0.67078298
-3.0046759 -3.5700605 -0.66630208
-3.0124114 -3.5350037 -0.66301608
-3.0275838 -3.5089686 -0.66152251
-3.0418997 -3.4821362 -0.65987951
-3.0586216 -3.4582224 -0.65883392
-3.0830822 -3.4430723 -0.65958077
-3.1081362 -3.4284844 -0.66047692
-3.1224267 -3.4020655 -0.65898329
-3.127085 -3.3654623 -0.65539861
-3.1259909 -3.3231702 -0.65061897
-3.1319993 -3.2888937 -0.6474824
-3.136332 -3.2532456 -0.64404702
-3.1396554 -3.2169616 -0.64046234
-3.1544693 -3.192714 -0.63941681
-3.1635084 -3.1628149 -0.63717633
-3.1807444 -3.1412604 -0.63672829
-3.2020829 -3.1237555 -0.63717633
-3.1891415 -3.0731826 -0.63045502
-3.2036397 -3.0494673 -0.62955886
-3.1963511 -3.0053759 -0.62418181
-3.1973391 -2.9695623 -0.62059706
-3.2169576 -2.9512243 -0.6208958
-3.2181489 -2.9161634 -0.61746049
-3.2359815 -2.8963623 -0.61746049
-3.2551744 -2.8777616 -0.61775917
-3.256381 -2.8434308 -0.61447322
-3.2640305 -2.8150041 -0.61253148
-3.2616661 -2.7782586 -0.60864806
-3.265029 -2.7467391 -0.60595953
-3.2848639 -2.7291801 -0.60655695
-3.2740235 -2.6864016 -0.6011799
-3.2804561 -2.6581721 -0.59923822
-3.2843492 -2.6281126 -0.59684837
-3.2848935 -2.5956545 -0.59386116
-3.3179123 -2.5888267 -0.59714711
-3.3321679 -2.5672131 -0.59684837
-3.3258176 -2.529963 -0.59266627
-3.3278351 -2.4994178 -0.59012705
-3.3582025 -2.4901371 -0.59296495
-3.3790045 -2.4735715 -0.59401053
-3.374079 -2.4383185 -0.59027642
-3.3777051 -2.4095337 -0.58818537
-3.3568466 -2.3637249 -0.58161342
-3.3582933 -2.334058 -0.57922357
-3.3586874 -2.3039036 -0.57668442
-3.3547435 -2.2710621 -0.57339847
-3.3710823 -2.2520823 -0.57384652
-3.3608921 -2.21558 -0.56951499
-3.3802264 -2.1986885 -0.57056057
-3.3903244 -2.1757712 -0.5699631
-3.3927486 -2.1480546 -0.56802136
-3.3999932 -2.1235318 -0.56697583
-3.412117 -2.1021116 -0.56682646
-3.4173446 -2.0765166 -0.5654822
-3.4232352 -2.051445 -0.5642873
-3.4297984 -2.0268822 -0.56324178
-3.430208 -1.9988332 -0.56115067
-3.430403 -1.9708556 -0.55905962
-3.453618 -1.9561017 -0.56100136
-3.4551935 -1.9290926 -0.55920899
-3.4522362 -1.899756 -0.55666983
-3.4499185 -1.8709997 -0.55427998
-3.4595895 -1.8488646 -0.5539813
-3.4586182 -1.8211561 -0.55189019
-3.4679718 -1.7989901 -0.55159146
-3.4683774 -1.7722813 -0.54979914
-3.4641693 -1.7434143 -0.54725999
-3.4712572 -1.7203705 -0.54666251
-3.4835253 -1.6999056 -0.54696125
-3.4947815 -1.6789271 -0.54711062
-3.4987595 -1.6544949 -0.54606503
-3.4918103 -1.625074 -0.54322714
-3.5134044 -1.6089666 -0.54516888
-3.5051782 -1.5792605 -0.54218161
-3.5283639 -1.5637287 -0.54442209
-3.528827 -1.5381016 -0.54292846
-3.538198 -1.5164201 -0.54292846
-3.5547266 -1.4977509 -0.54412335
-3.5611088 -1.4747771 -0.54367524
-3.5700908 -1.4528989 -0.54367524
-3.5559828 -1.4217955 -0.53994119
-0.29884744 -0.11851719 -0.010002073
-0.24790014 -0.096772388 -0.0016377573
-0.26236159 -0.10049719 -0.0038781988
-0.2666811 -0.10026214 -0.0044756499
-0.26729128 -0.098623931 -0.0044756499
-0.26696029 -0.096649244 -0.0043262872
-0.26661515 -0.094682343 -0.0041769245
-0.27093157 -0.094329894 -0.0047743754
-0.27056819 -0.092350148 -0.0046250126
-0.27300775 -0.091307864 -0.0049237381
-0.27732638 -0.090847187 -0.0055211894
-0.27693585 -0.088845566 -0.0053718267
-0.28125393 -0.088314563 -0.0059692776
-0.2798979 -0.086013801 -0.0056705521
-0.27662817 -0.083171301 -0.0050731013
-0.27713329 -0.081472374 -0.0050731013
-0.27572513 -0.079231963 -0.0047743754
-0.27620611 -0.077538654 -0.0047743754
-0.27476734 -0.075327396 -0.0044756499
-0.27235571 -0.072885081 -0.0040275618
-0.27279779 -0.071212567 -0.0040275618
-0.27514809 -0.070017166 -0.0043262872
-0.27269045 -0.067625545 -0.0038781988
-0.27021393 -0.065266751 -0.0034301106
-0.26868233 -0.063163117 -0.003131385
-0.26906481 -0.061513323 -0.003131385
-0.26943719 -0.059861213 -0.003131385
-0.26979944 -0.058206849 -0.003131385
-0.27112016 -0.056748785 -0.0032807479
-0 -0 -0
-0.28247732 -0.055469915 -0.0049237381
-0.29058954 -0.055180632 -0.0061186403
-0 -0 -0
-0.29514194 -0.052285228 -0.0067160917
-0 -0 -0
-0.29283249 -0.048189305 -0.006268003
-0 -0 -0
-0.2787298 -0.042421345 -0.0040275618
-0.27604783 -0.040294137 -0.0035794734
-0.27237052 -0.038068753 -0.0029820222
-0 -0 -0
-0.27379856 -0.034844153 -0.003131385
-0 -0 -0
-0.28010231 -0.03213333 -0.0040275618
-0.28029421 -0.030414049 -0.0040275618
-0.28145963 -0.028790174 -0.0041769245
-0.28163096 -0.027062628 -0.0041769245
-0.28277689 -0.025418535 -0.0043262872
-0.28095621 -0.023526123 -0.0040275618
-0 -0 -0
-0 -0 -0
-0.28430247 -0.018531453 -0.0044756499
-0.28441083 -0.016786657 -0.0044756499
-0.28154564 -0.014896776 -0.0040275618
-0 -0 -0
-0.28170726 -0.011440656 -0.0040275618
-0.28177214 -0.0097119175 -0.0040275618
-0.28380343 -0.008030612 -0.0043262872
-0 -0 -0
-0.28388059 -0.0045473026 -0.0043262872
-0 -0 -0
-0 0 -0
-0.28193867 0.00066591369 -0.0040275618
-0 0 -0
-0 0 -0
-0 0 -0
-0 0 -0
-0.28474987 0.0094242962 -0.0044756499
-0 0 -0
-0 0 -0
-0 0 -0
-0.28245902 0.016287573 -0.0041769245
-0.28038076 0.017886294 -0.0038781988
-0 -0 -0
-0 -0 -0
-0 -0 -0
-0 -0 -0
-0 -0 -0
-0 0 -0
-0 0 -0
-0 0 -0
-0 0 -0
-0 0 -0
-0 0 -0
-0 0 -0
-0 0 -0
-0 0 -0
-0 0 -0
-0 0 -0
-0 0 -0
-0 0 -0
-0 0 -0
-0 0 -0
-0 0 -0
-0 0 -0
-0 0 -0
-0 0 -0
-0 0 -0
-0 0 -0
-0 0 -0
-0 0 -0
-0 0 -0
-0 0 -0
-0 0 -0
-0 0 -0
-0 0 -0
-0 0 -0
-0 0 -0
-0 0 -0
-0 0 -0
-0 0 -0
-0 0 -0
-0 0 -0
-0 0 -0
-0 0 -0
-0 0 -0
-0 0 -0
-0 0 -0
-0 0 -0
-0 0 -0
-0 0 -0
-0 0 -0
-0 0 -0
-0 0 -0
-0 0 -0
-0 0 -0
-0 0 -0
-0 0 -0
-0 0 -0
-0 0 -0
-0 0 -0
-0 0 -0
-0 0 -0
-0 0 -0
-0 0 -0
-0 0 -0
-0 0 -0
-0 0 -0
-0 0 -0
-0 0 -0
-0 0 -0
-0 0 -0
-0 0 -0
-0 0 -0
-0 0 -0
-0 0 -0
-0 0 -0
-0 0 -0
-0 0 -0
-0 0 -0
-0 0 -0
-0 0 -0
-0 0 -0
-0 0 -0
-0 0 -0
-0 0 -0
-0 0 -0
-0 0 -0
-0 0 -0
-0 0 -0
-0 0 -0
-0 0 -0
-0 0 -0
-0 0 -0
-0 0 -0
-0 0 -0
-0 0 -0
-0 0 -0
-0 0 -0
-0 0 -0
-0 0 -0
-0 0 -0
-0 0 -0
-0 0 -0
-0 0 -0
-0 0 -0
-0 0 -0
-0 0 -0
-0 0 -0
-0 0 -0
-0 0 -0
-0 0 -0
-0 0 -0
-0 0 -0
-0 0 -0
-0 0 -0
-0 0 -0
-0.22190639 0.17795599 -0.0076200501
-0.24842308 0.20167436 -0.013412984
-0.26778725 0.22009173 -0.017757684
-0.2527636 0.21038204 -0.014861218
-0.2658217 0.22399645 -0.0179186
-0.23438035 0.2000332 -0.011482006
-0.25632441 0.22144246 -0.016470365
-0.26314089 0.23014925 -0.018240429
-0.24619123 0.21803652 -0.014861218
-0.24631999 0.22085901 -0.015183047
-0.26690727 0.24224137 -0.020010492
-0.26614338 0.24454151 -0.020171408
-0.26897821 0.25019851 -0.021136895
-0.26528022 0.24981666 -0.020654151
-0.26588765 0.25348046 -0.021136895
-0.24726562 0.23867594 -0.01727494
-0.24720986 0.24156661 -0.01759677
-0.27101111 0.26803792 -0.023389703
-0.27005956 0.27039337 -0.023550618
-0.2718648 0.27555469 -0.024355192
-0.23982792 0.24614845 -0.01727494
-0.26914808 0.27958047 -0.024516108
-0.2694701 0.28337026 -0.024998851
-0.26231465 0.27926883 -0.023711532
-0.27067661 0.29171553 -0.026125256
-0.23483485 0.25629705 -0.0179186
-0.25447735 0.28112578 -0.023067873
-0.2692129 0.30105883 -0.027090745
-0.24446744 0.27683643 -0.021458725
-0.24536237 0.28130364 -0.022102384
-0 0 -0
-0 0 -0
-0 0 -0
-0 0 -0
-0 0 -0
-0 0 -0
-0 0 -0
-0 0 -0
-0 0 -0
-2.9671609 3.8478935 -0.75346029
-2.9321339 3.8511081 -0.75040287
-2.9161592 3.879282 -0.75249481
-2.9075963 3.9177072 -0.75667858
-2.8893371 3.943435 -0.75828773
-2.8494668 3.9394987 -0.75394303
-2.8418746 3.980201 -0.75860953
-2.8037517 3.9782028 -0.75474757
-2.7956357 4.0188265 -0.75941414
-2.7837741 4.0546174 -0.76311517
-2.7505376 4.0593667 -0.76070142
-2.7584982 4.1253915 -0.77035636
-2.7157373 4.1158795 -0.76520705
-2.7238226 4.1837444 -0.7751838
-2.6628909 4.1455746 -0.76456338
-2.6310635 4.1518321 -0.76263243
-2.6228058 4.1955142 -0.76794261
-2.6224003 4.2526903 -0.77582741
-2.5824077 4.2459345 -0.77148271
-2.5552909 4.2600074 -0.7711609
-2.5703132 4.3452601 -0.78435594
-2.5092869 4.3021264 -0.77325279
-2.4976051 4.3431087 -0.77808022
-2.4606857 4.3403225 -0.774701
-2.4325631 4.3527546 -0.77421826
-2.4077144 4.3710561 -0.77486193
-2.386029 4.3952885 -0.77663201
-2.358084 4.4081059 -0.77631021
-2.3461807 4.451303 -0.78162038
-2.3142748 4.4568563 -0.78001124
-2.2963245 4.4894242 -0.7833904
-2.2682905 4.5025487 -0.78322953
-2.2423756 4.519918 -0.7838732
-2.2405956 4.5867991 -0.79352808
-2.2188268 4.613802 -0.79594177
-2.1676681 4.5791597 -0.78725237
-2.1424482 4.5986366 -0.78837878
-2.1121342 4.6072102 -0.78757423
-2.0789549 4.6092873 -0.78564322
-2.0558381 4.6336842 -0.7877351
-2.02263 4.6353569 -0.78580415
-1.9848083 4.6259127 -0.78194219
-1.9517831 4.6270919 -0.78001124
-1.9214646 4.6344223 -0.77920663
-1.8915023 4.6424689 -0.77856296
-1.8644484 4.6576529 -0.77920663
-1.8293324 4.6524725 -0.77631021
-1.8249308 4.7262158 -0.78725237
-1.785399 4.7096391 -0.78242493
-1.7592217 4.7279053 -0.78371227
-1.7366117 4.7562251 -0.78676963
-1.7093927 4.772366 -0.7877351
-1.6810594 4.7855582 -0.7882179
-1.6513426 4.7948499 -0.78805697
-1.6162078 4.7880602 -0.78516048
-1.5982678 4.8325567 -0.79111433
-1.5685856 4.8422728 -0.79111433
-1.568392 4.9449415 -0.80704492
-1.5230942 4.9064007 -0.79883826
-1.4964031 4.9269857 -0.80076921
-1.4742953 4.9635115 -0.80543578
-1.4121544 4.8634672 -0.78693056
-1.3984538 4.929009 -0.79658544
-1.3784653 4.9745898 -0.80286109
-1.3314173 4.9219813 -0.79256254
-1.3039628 4.9405551 -0.79433262
-1.2714089 4.9398608 -0.79288441
-1.2545264 5.0011773 -0.80189562
-1.2128025 4.9637194 -0.79433262
-1.1809522 4.9653068 -0.79336715
-1.1433418 4.94169 -0.7882179
-1.1077992 4.9255028 -0.78435594
-1.0760808 4.925458 -0.78322953
-1.0587418 4.9927931 -0.79336715
-1.0149603 4.9353919 -0.78274679
-0.98465812 4.9415269 -0.78274679
-0.95506698 4.9513516 -0.7833904
-0.92521125 4.9600296 -0.7838732
-0.89528495 4.9685268 -0.78435594
-0.87188554 5.0147662 -0.79111433
-0.83816212 5.0025005 -0.7882179
-0.81373924 5.046524 -0.79465449
-0.77398884 4.994854 -0.78532141
-0.74376208 5.0024376 -0.78580415
-0.71361059 5.0108156 -0.78644782
-0.68138582 5.0043426 -0.78467774
-0.65168476 5.0162592 -0.78596509
-0.620166 5.0142865 -0.78499955
-0.58397239 4.9719267 -0.77743655
-0.56339079 5.0646791 -0.79207981
-0.52322477 4.9816632 -0.77791935
-0.49274516 4.9857621 -0.77808022
-0.45704117 4.9336576 -0.76906902
-0.42854702 4.9570184 -0.77244824
-0.40017864 4.9851332 -0.77663201
-0.36710042 4.95403 -0.7711609
-0.33843747 4.981791 -0.77534467
-0.30755875 4.9788485 -0.77454013
-0.278101 5.0003505 -0.77775842
-0.24746303 5.0029488 -0.77791935
-0.21633297 4.9945126 -0.77631021
-0.18608725 5.0065951 -0.77808022
-0.15505701 4.9977779 -0.77647108
-0.12436368 4.9976482 -0.77631021
-0.093789227 5.0032516 -0.77711475
-0.06273751 4.9761 -0.77260911
-0.032074254 4.9566522 -0.76939082
-0.0016540679 4.9419513 -0.76697713
0.028725673 4.9517379 -0.76858628
0.05839457 4.8912673 -0.75877047
0.089204825 4.9352236 -0.76601166
0.1175563 4.8546619 -0.75297755
0.14994009 4.9396763 -0.76697713
0.18092901 4.9574032 -0.77003449
0.21050425 4.9364781 -0.7668162
0.23939738 4.9065056 -0.76214969
0.2660383 4.8418732 -0.75185114
0.29796666 4.8765993 -0.75780499
0.32609707 4.8480911 -0.75346029
0.35713783 4.8637171 -0.75635672
0.39237261 4.9293203 -0.76745987
0.4180603 4.8737187 -0.75877047
0.44660243 4.856319 -0.75635672
0.47475418 4.8367891 -0.75362116
0.50247842 4.8151336 -0.7505638
0.53201407 4.8119597 -0.7505638
0.55878419 4.7850776 -0.74670184
0.58753228 4.7766609 -0.74589729
0.61556613 4.7631774 -0.74428815
0.64292693 4.7456179 -0.74203533
0.67092603 4.7337661 -0.74074799
0.69967043 4.7276077 -0.74042618
0.72550684 4.7027411 -0.73704696
0.7501263 4.6718893 -0.73270226
0.78153849 4.6837487 -0.73543781
0.80992603 4.6769199 -0.735116
0.83703923 4.6631193 -0.73366773
0.86491477 4.6540141 -0.73302406
0.89364123 4.6495886 -0.73318499
0.93252963 4.6962943 -0.7418744
0.96687436 4.717557 -0.74638003
0.98907012 4.6796689 -0.74106985
1.0074787 4.6262574 -0.73318499
1.0213841 4.5554624 -0.72240371
1.0282503 4.4577446 -0.70711678
1.0371436 4.3735628 -0.69408268
1.0583549 4.3441024 -0.69022077
1.0763708 4.3030567 -0.6844278
1.0998101 4.2848992 -0.68249685
1.1195512 4.2532539 -0.67831308
1.1425437 4.2348695 -0.67638206
1.1643013 4.2125578 -0.67380744
1.1815295 4.1749444 -0.66865814
1.2010853 4.1467595 -0.66511804
1.2189385 4.1137609 -0.66077334
1.2355738 4.0778666 -0.6559459
1.2617394 4.0739794 -0.65658957
1.2870108 4.067102 -0.65675044
1.313459 4.0638242 -0.65755504
1.3368235 4.051002 -0.65675044
1.3679538 4.0614305 -0.65996873
1.3838694 4.026825 -0.65546316
1.3971273 3.9856577 -0.64983112
1.4228849 3.9807277 -0.65047479
1.4466078 3.9700675 -0.65015298
1.4819323 3.990725 -0.65530223
1.5161676 4.0074048 -0.65980786
1.5453408 4.0099993 -0.66189975
1.5746027 4.0123858 -0.66399163
1.6028535 4.0118141 -0.66560078
1.6296698 4.0073895 -0.66656625
1.6474363 3.9808989 -0.66366982
1.6626418 3.9488835 -0.65980786
1.6996603 3.9685481 -0.66511804
1.7196443 3.9480906 -0.66334796
1.7174643 3.8779023 -0.6527276
1.7432519 3.8717911 -0.65353215
1.7788843 3.887049 -0.65819871
1.8060303 3.8832204 -0.659486
1.8555417 3.9265013 -0.66930181
1.8753285 3.9061441 -0.66769266
1.8975308 3.8910153 -0.66704899
1.9108586 3.8580716 -0.66318703
1.9358255 3.8489194 -0.66366982
1.9594055 3.8369689 -0.66366982
1.9829119 3.8248742 -0.66366982
2.0454047 3.886879 -0.67734754
2.0450411 3.8289833 -0.66898
2.0680265 3.8154953 -0.66881907
2.094728 3.8087881 -0.66994548
2.1209438 3.8010349 -0.67091095
2.1520045 3.8016927 -0.67348558
2.1752908 3.7884166 -0.67348558
2.2094207 3.7937622 -0.67702574
2.2426941 3.7971313 -0.68024403
2.2801483 3.8070083 -0.68474966
2.312685 3.8081312 -0.68764609
2.3442862 3.8073168 -0.69022077
2.3770092 3.8079319 -0.6931172
2.4056063 3.801616 -0.69472635
2.4347479 3.7959228 -0.69649643
2.4628344 3.7883596 -0.69794464
2.4909194 3.7805946 -0.69939291
2.5211937 3.7759106 -0.7014848
2.5526099 3.7726319 -0.70389849
2.5868709 3.7731798 -0.70711678
2.6217971 3.7742596 -0.71049601
2.6556976 3.7734375 -0.71355337
2.6879675 3.7699301 -0.71612805
2.7220275 3.7685685 -0.71918541
2.7608335 3.773303 -0.72353011
2.7939236 3.7697728 -0.72626567
2.8300359 3.7699246 -0.72980577
2.8835766 3.7925601 -0.73801243
2.8983636 3.7638471 -0.73575962
2.9377894 3.7670069 -0.74010432
2.9406636 3.7233486 -0.73479414
2.9314015 3.6651525 -0.7264266
2.9550776 3.6486309 -0.72674841
2.9880483 3.6434045 -0.72948396
2.979454 3.5877938 -0.72159916
3.0014122 3.5694447 -0.72159916
3.0290151 3.557725 -0.72304738
3.0456331 3.5330915 -0.72176003
3.0685523 3.5158246 -0.7220819
3.0959485 3.503587 -0.72353011
3.1417339 3.5117426 -0.72948396
3.1387098 3.4653311 -0.72353011
3.1905947 3.4794717 -0.73093218
3.2232985 3.4721267 -0.73366773
3.2384598 3.4458103 -0.73221952
3.2289302 3.3936954 -0.72497833
3.2503774 3.3745301 -0.72513926
3.2758448 3.3594694 -0.72626567
3.2929299 3.3357937 -0.72546107
3.316824 3.3190169 -0.72626567
3.3378286 3.2992966 -0.7264266
3.3961401 3.3159907 -0.735116
3.4270778 3.3053682 -0.7375297
3.4387205 3.2761075 -0.73559874
3.4673817 3.2630639 -0.7375297
3.4728818 3.2282863 -0.7343114
3.4889901 3.2035785 -0.73350686
3.5444012 3.2146025 -0.74139166
3.5199542 3.1532772 -0.73173678
3.5769305 3.1649785 -0.73994344
3.567302 3.1176391 -0.73366773
3.6371653 3.1395497 -0.74460995
3.6248181 3.0902777 -0.73785156
3.6437116 3.0679781 -0.73785156
3.6404619 3.0272608 -0.73318499
3.6635444 3.008625 -0.73415047
3.6850021 2.9885762 -0.73479414
3.6847827 2.9511003 -0.73093218
3.7051432 2.9302723 -0.73141491
3.7549441 2.9323919 -0.73801243
3.7970936 2.9279821 -0.74300081
3.8071358 2.898649 -0.74139166
3.8327386 2.8811653 -0.74300081
3.8733275 2.8746536 -0.74766731
3.873379 2.8379986 -0.74412721
3.8795245 2.8060796 -0.7418744
3.8918502 2.7787809 -0.74090892
3.9120541 2.7571232 -0.74155259
3.9556332 2.7516689 -0.74686277
3.9415255 2.7061152 -0.74074799
3.9547875 2.6796649 -0.74010432
3.9711552 2.6553483 -0.74010432
4.0244427 2.6553948 -0.74734551
4.0133662 2.6128788 -0.74203533
4.0409484 2.5956728 -0.74428815
4.0601335 2.5729427 -0.74493176
4.0967655 2.5610628 -0.74895465
4.1014824 2.5291421 -0.74686277
4.0966864 2.4916177 -0.74300081
4.1186686 2.4704959 -0.74428815
4.1218576 2.4381421 -0.74203533
4.1341825 2.4113131 -0.74155259
4.1762776 2.4016476 -0.74670184
4.2003794 2.3813324 -0.74847192
4.2054348 2.3502173 -0.74670184
4.1903849 2.3081763 -0.74123073
4.2157445 2.2885435 -0.74332261
4.2514634 2.2742734 -0.74734551
4.2295418 2.2292731 -0.74074799
4.2834315 2.2242048 -0.74815011
4.2882118 2.1933849 -0.7465409
4.2901311 2.1612582 -0.74444902
4.3537059 2.1598997 -0.75362116
4.3207641 2.1106153 -0.74525362
4.3523111 2.0930481 -0.74863285
4.3677478 2.0675704 -0.74911559
4.3884034 2.0444834 -0.7505638
4.379334 2.0076451 -0.74670184
4.3834734 1.9770834 -0.74525362
4.4279985 1.9645618 -0.75104654
4.3893137 1.9152468 -0.74203533
4.4046106 1.8898354 -0.742679
4.4424949 1.8738998 -0.74734551
4.4083247 1.8277022 -0.73929977
4.4962316 1.8319066 -0.75281662
4.5064707 1.8039168 -0.75265568
4.4586716 1.753113 -0.74235713
4.5061717 1.7399457 -0.74879372
4.475235 1.6965166 -0.74155259
4.4874101 1.6697136 -0.7418744
4.5467057 1.6600927 -0.75040287
4.5410113 1.6265044 -0.74766731
4.5676665 1.6044998 -0.7505638
4.555963 1.5690495 -0.74686277
4.5533485 1.5369606 -0.74477088
4.5589452 1.5077529 -0.74412721
4.5662332 1.4791429 -0.74380541
4.5648746 1.4478141 -0.74203533
4.5925236 1.4256309 -0.74525362
4.5747428 1.3893919 -0.74074799
4.563314 1.3553927 -0.73736876
4.6094565 1.3383785 -0.74380541
4.6489148 1.3189625 -0.74911559
4.6407514 1.2859308 -0.74638003
4.6818991 1.2664541 -0.75201201
4.6619077 1.2303964 -0.74734551
4.6884856 1.20669 -0.7505638
4.6527233 1.1670897 -0.74332261
4.6262407 1.1303176 -0.73769063
4.6359696 1.1025954 -0.73817337
4.7224565 1.0926006 -0.75152928
4.6886301 1.0545045 -0.74477088
4.7210455 1.0314054 -0.74911559
4.6683908 0.98992473 -0.73929977
4.6811442 0.96265358 -0.74042618
4.7343907 0.943367 -0.74831098
4.7720704 0.92047077 -0.75362116
4.7659855 0.88899988 -0.75169021
4.744154 0.85483682 -0.74718457
4.7638955 0.8282482 -0.74959832
4.7757015 0.80014408 -0.75072473
4.7590852 0.76736766 -0.74718457
4.800766 0.74389797 -0.75329936
4.8237882 0.71718627 -0.75635672
4.8036704 0.68409383 -0.75233388
4.8439612 0.65953577 -0.75828773
4.8528104 0.63043749 -0.75909227
4.8810749 0.6036799 -0.76311517
4.8817463 0.5733732 -0.76263243
4.8537836 0.53991437 -0.75748312
4.8766365 0.51218539 -0.76070142
4.827632 0.47710449 -0.75217295
4.8147445 0.44601583 -0.74959832
4.8400064 0.41842172 -0.75329936
4.8611746 0.39021811 -0.75635672
4.8270597 0.35768163 -0.75040287
4.8567352 0.32993186 -0.7549085
4.8419213 0.29908946 -0.75217295
4.846622 0.26953903 -0.75265568
4.8422699 0.23950262 -0.75169021
4.8515368 0.2101288 -0.75297755
4.8379402 0.17980532 -0.7505638
4.8507905 0.15048511 -0.75249481
4.8654356 0.12106321 -0.75474757
4.8789153 0.091448665 -0.75683945
4.8705025 0.061397795 -0.75539124
4.885592 0.031608772 -0.75780499
4.842267 0.0016127474 -0.75072473
4.858964 -0.028194873 -0.75346029
4.8419223 -0.057809442 -0.75072473
4.8256879 -0.087233707 -0.74815011
4.8546619 -0.1175563 -0.75297755
0 -0 -0
4.8637033 -0.17751673 -0.75474757
4.8516755 -0.20689483 -0.75297755
4.8680592 -0.23752461 -0.75587398
4.8320184 -0.26549762 -0.75024199
4.8825102 -0.29832736 -0.75877047
4.8569541 -0.32669249 -0.7549085
4.8312345 -0.35475528 -0.75104654
4.8781595 -0.38830432 -0.75909227
4.845201 -0.41561642 -0.75410396
4.8533707 -0.44633153 -0.75587398
4.8760796 -0.47860751 -0.76005781
4.8681426 -0.50800574 -0.7592532
4.87082 -0.53851682 -0.76021868
4.871345 -0.56885105 -0.76086235
4.8579674 -0.59752631 -0.7592532
4.8777013 -0.63035697 -0.76311517
4.8238616 -0.65352064 -0.7549085
4.8490772 -0.68725961 -0.75973594
4.8564854 -0.71873301 -0.76166695
4.8344259 -0.7458111 -0.75877047
4.8151412 -0.77311474 -0.75635672
4.8229623 -0.80475605 -0.75844866
4.789731 -0.82945246 -0.75378209
4.7942662 -0.860569 -0.75539124
4.7840438 -0.8890686 -0.7545867
4.7940063 -0.92138547 -0.75716132
4.7892303 -0.95097572 -0.75732225
4.7891068 -0.98153251 -0.75828773
4.7955475 -1.0135516 -0.76037961
4.7882738 -1.0427475 -0.76021868
4.7817855 -1.0721081 -0.76021868
4.7654996 -1.099211 -0.75860953
4.762507 -1.1293414 -0.7592532
4.7506928 -1.1573746 -0.75844866
4.7454171 -1.1869814 -0.75877047
4.7609882 -1.2219633 -0.76263243
4.7429018 -1.2483906 -0.76086235
4.7084708 -1.2702729 -0.75635672
4.6729994 -1.2915171 -0.75169021
4.6706848 -1.3217779 -0.75265568
4.6615386 -1.3501374 -0.75249481
4.6578984 -1.3801161 -0.75329936
4.6417856 -1.4063816 -0.75201201
4.6670103 -1.4453449 -0.75780499
4.637352 -1.4674051 -0.75426483
4.6508007 -1.5031145 -0.7581268
4.6124344 -1.5220375 -0.75313842
4.6413584 -1.5632232 -0.75973594
4.6260791 -1.5897485 -0.75877047
4.6311402 -1.6233262 -0.76134509
4.5932102 -1.6417483 -0.75651765
4.5709944 -1.6655093 -0.75442576
4.5745683 -1.6986774 -0.75683945
4.588984 -1.736142 -0.76118416
4.5183811 -1.7412033 -0.75072473
4.4883175 -1.7613249 -0.74734551
4.538835 -1.8133602 -0.7581268
4.5504804 -1.8504686 -0.76214969
4.5436006 -1.8802416 -0.76295424
4.4783077 -1.8854938 -0.75346029
4.5074825 -1.9304184 -0.76070142
4.4711208 -1.9474002 -0.75635672
4.4509654 -1.9712017 -0.7549085
4.4540868 -2.005362 -0.75764406
4.4264407 -2.0256734 -0.7549085
4.4676251 -2.0777631 -0.76456338
4.4717474 -2.1131475 -0.7676208
4.4497995 -2.1362751 -0.76601166
4.4348335 -2.1626732 -0.76568979
4.3268418 -2.1429815 -0.74847192
4.3356552 -2.1805749 -0.75249481
4.3547182 -2.2237422 -0.75844866
4.3532591 -2.2567787 -0.76070142
4.3332157 -2.2802305 -0.75957501
4.3278489 -2.3114247 -0.76118416
4.3335433 -2.3487515 -0.76488525
4.302618 -2.3662622 -0.76182783
4.3069801 -2.4031966 -0.76536798
4.2483468 -2.4047863 -0.75716132
4.2181039 -2.4219635 -0.75426483
4.1988993 -2.4453166 -0.75346029
4.2297082 -2.4981344 -0.76214969
4.1965184 -2.5133922 -0.75877047
4.2097011 -2.5565104 -0.76424158
4.1451879 -2.552283 -0.7549085
4.1696391 -2.6027517 -0.76263243
4.1686034 -2.6377854 -0.76552886
4.1340618 -2.6515925 -0.76198876
4.1259894 -2.6822875 -0.76359791
4.1061568 -2.7053819 -0.76295424
4.1009717 -2.7381978 -0.76520705
4.066926 -2.7516959 -0.76182783
4.0467091 -2.7743661 -0.76118416
4.0061011 -2.7828169 -0.75651765
4.028502 -2.835176 -0.76440251
4.0110297 -2.8598411 -0.76440251
3.9862053 -2.8791981 -0.76295424
3.9437702 -2.8855381 -0.75796586
3.9466081 -2.9249601 -0.76214969
3.8954334 -2.9242375 -0.75539124
3.86956 -2.9421115 -0.75378209
3.8748958 -2.9838624 -0.75860953
3.8479526 -3.0009062 -0.75683945
3.8550284 -3.0446451 -0.76214969
3.8439825 -3.0744057 -0.76375884
3.8104725 -3.0861328 -0.76070142
3.773911 -3.0950618 -0.75700039
3.7783885 -3.1377046 -0.76198876
3.7583094 -3.1601942 -0.76182783
3.6877429 -3.1396921 -0.75088561
3.7229841 -3.2092984 -0.76263243
3.6898365 -3.220401 -0.75973594
3.6589124 -3.2331786 -0.75732225
3.6654875 -3.2792566 -0.76311517
3.6394448 -3.2963858 -0.76182783
3.6511595 -3.348002 -0.76890808
3.6023359 -3.3441563 -0.76263243
3.591099 -3.3749831 -0.76472431
3.5738983 -3.4003553 -0.76552886
3.5167108 -3.3873041 -0.75732225
3.4937406 -3.4067514 -0.75683945
3.4720688 -3.4274313 -0.75667858
3.4537659 -3.4514613 -0.75732225
3.4359925 -3.4760976 -0.7581268
3.420805 -3.5034702 -0.75957501
3.3944471 -3.5194216 -0.75844866
3.3782353 -3.5458994 -0.75973594
3.3658848 -3.5766227 -0.76198876
3.4070466 -3.665154 -0.77711475
3.3724771 -3.6729052 -0.77421826
3.3326361 -3.6745229 -0.77003449
3.3040996 -3.6882865 -0.76858628
3.285331 -3.7129254 -0.76955175
3.2637861 -3.7345002 -0.76987356
3.2311356 -3.7432499 -0.76745987
3.1946588 -3.7472339 -0.76408064
3.158891 -3.7516668 -0.76086235
3.1976604 -3.8453431 -0.77663201
3.209713 -3.9083638 -0.78580415
3.1707492 -3.9095883 -0.78194219
3.1392963 -3.9197266 -0.78001124
3.1280444 -3.9551706 -0.7833904
3.058152 -3.9159529 -0.77132183
3.0437105 -3.9471483 -0.77389646
2.9913306 -3.9288447 -0.76633346
2.9570842 -3.9337144 -0.76359791
2.9240677 -3.9398971 -0.76118416
2.9173398 -3.9816475 -0.76601166
2.8992174 -4.0082693 -0.76778167
2.8676856 -4.0163445 -0.76585072
2.8293405 -4.014504 -0.76198876
2.8052182 -4.0325994 -0.76214969
2.8223243 -4.1107569 -0.77421826
2.7671485 -4.0838776 -0.76552886
2.7491708 -4.111445 -0.7676208
2.7070394 -4.1026993 -0.76263243
2.7065885 -4.1572781 -0.77003449
2.6879642 -4.1846018 -0.77212638
2.6585388 -4.1951809 -0.77099997
2.6332707 -4.2122512 -0.7711609
2.6151469 -4.2409301 -0.77357465
2.5788171 -4.2400322 -0.77035636
2.5537677 -4.2574682 -0.77067816
2.539155 -4.2925949 -0.77437919
2.4784524 -4.2492709 -0.7632761
2.4793978 -4.3114533 -0.77212638
2.4334233 -4.2922435 -0.76568979
2.404633 -4.3027864 -0.76488525
2.3767576 -4.3148665 -0.76440251
2.362011 -4.3510532 -0.76842535
2.3273535 -4.3506703 -0.76568979
2.3236277 -4.4085226 -0.77373552
0 -0 -0
2.2787933 -4.4551568 -0.77711475
2.2327611 -4.4320364 -0.77035636
2.1783252 -4.3908381 -0.76037961
2.178205 -4.4591022 -0.77035636
2.1341186 -4.437696 -0.76408064
2.1402152 -4.5211778 -0.77679294
0 -0 -0
2.0985589 -4.5776043 -0.78226405
2.0623145 -4.572401 -0.7790457
2.0069973 -4.5236244 -0.76810354
1.9795978 -4.5367584 -0.76826441
1.9816945 -4.6186566 -0.78065485
1.9207065 -4.5534348 -0.76697713
1.908232 -4.6025133 -0.77357465
0 -0 -0
0 -0 -0
0 -0 -0
1.7705261 -4.585351 -0.76263243
1.7507559 -4.6182766 -0.76649439
1.7244513 -4.6344824 -0.76745987
1.5297396 -4.1897817 -0.68845069
1.4304352 -3.9937499 -0.65288848
1.4003412 -3.9866219 -0.65015298
1.3649237 -3.963412 -0.64468187
0 -0 -0
1.3040944 -3.9433193 -0.63840616
0 -0 -0
1.2469504 -3.9317436 -0.63373965
0 -0 -0
0 -0 -0
0 -0 -0
0 -0 -0
0 -0 -0
