# .PCD v0.7 - Point Cloud Data file format
VERSION 0.7
FIELDS x y z
SIZE 4 4 4
TYPE F F F
COUNT 1 1 1
WIDTH 1628
HEIGHT 1
VIEWPOINT 0 0 0 1 0 0 0
POINTS 1628
DATA ascii
0.33131632 -5.4065423 -0.77966845
0.29667249 -5.3818164 -0.77563566
0.26499292 -5.4111886 -0.77981782
0.23178551 -5.4127126 -0.77981782
0.19813703 -5.4021754 -0.77802545
0.15713556 -5.1443477 -0.73889238
0.12174359 -4.9870558 -0.71499437
0.091141298 -4.987709 -0.71499437
0.060759153 -5.0069599 -0.71783227
0.030104285 -5.0191035 -0.71962458
-0.00077726942 -5.246614 -0.75397801
-0.033806261 -5.3750491 -0.77339518
-0.067173824 -5.4053907 -0.77802545
-0.10002378 -5.3880701 -0.77548629
-0.13359976 -5.408113 -0.77862287
-0.16635104 -5.3933554 -0.77653182
-0.19914682 -5.3843284 -0.77533692
-0.23252328 -5.3909078 -0.77653182
-0.26315272 -5.3400011 -0.76906365
-0.29569361 -5.3343368 -0.76846623
-0.32603997 -5.2939329 -0.76264107
-0.35932145 -5.3036709 -0.76443344
-0.39339259 -5.3220739 -0.76757002
-0.42667404 -5.3274446 -0.76876497
-0.4624218 -5.3601899 -0.77414203
-0.49320403 -5.3346066 -0.77070665
-0.52505171 -5.3226242 -0.76936239
-0.55749422 -5.3173356 -0.76906365
-0.58879805 -5.3020225 -0.76727134
-0.61947352 -5.2825971 -0.76488149
-0.65005428 -5.2639771 -0.76264107
-0.68743801 -5.2991109 -0.7686156
-0.72140759 -5.3055701 -0.77025855
-0.75534278 -5.310833 -0.77175218
-0.78471541 -5.2845817 -0.76846623
-0.80894816 -5.226903 -0.76040065
-0.85171038 -5.2882204 -0.77055728
-0.85358179 -5.1005354 -0.74262649
-0.87147897 -5.0182433 -0.7308268
-0.90067554 -5.0040436 -0.72948253
-0.93118149 -4.9974508 -0.72933316
-0.96894544 -5.0285368 -0.73500896
-1.0260652 -5.1543775 -0.75532228
-1.0656409 -5.1867247 -0.76129681
-1.0951895 -5.1694489 -0.75965381
-1.1197113 -5.1297879 -0.75457549
-1.147911 -5.1083508 -0.75233507
-1.1683108 -5.054008 -0.74501628
-1.2009013 -5.0534778 -0.7460618
-1.2478473 -5.1113296 -0.75621849
-1.2801487 -5.1074128 -0.75681591
-1.3122026 -5.1023345 -0.75726402
-1.3465136 -5.1056595 -0.75905639
-1.3767831 -5.0934834 -0.75845891
-1.4288721 -5.1602159 -0.77025855
-1.4683353 -5.178937 -0.77459008
-1.4920883 -5.142293 -0.77025855
-1.4636385 -4.93115 -0.73844433
-1.5145593 -4.9901958 -0.74919844
-1.5445637 -4.97892 -0.7488997
-1.5801672 -4.9853716 -0.75143886
-1.6143839 -4.9868698 -0.75323123
-1.6430894 -4.9712377 -0.75233507
-1.6703987 -4.9516935 -0.75084144
-1.7223248 -5.0039883 -0.7608487
-1.7654504 -5.0287757 -0.76652449
-1.7929386 -5.0085397 -0.76503086
-1.824315 -4.9993019 -0.7653296
-1.8556454 -4.9898672 -0.76562834
-1.8855267 -4.9765382 -0.7653296
-1.9185201 -4.9713321 -0.76637512
-1.9486257 -4.9585466 -0.76622576
-1.9771765 -4.9419069 -0.76547897
-2.0093279 -4.9342604 -0.76622576
-2.0282042 -4.8944373 -0.76174492
-2.0697277 -4.9092312 -0.76622576
-2.0920129 -4.8782663 -0.76323855
-2.12942 -4.8825564 -0.76607645
-2.1633492 -4.878437 -0.76757002
-2.1944616 -4.867775 -0.76801813
-2.2111015 -4.8254561 -0.76323855
-2.2344043 -4.7983541 -0.76099807
-2.2549195 -4.7657866 -0.75786144
-2.278548 -4.7402768 -0.75591975
-2.3062887 -4.7235413 -0.75547165
-2.3295155 -4.6977863 -0.75352997
-2.3654149 -4.6975331 -0.75591975
-2.383837 -4.662684 -0.75248438
-2.4037435 -4.6312966 -0.74964648
-2.4168999 -4.587595 -0.74471754
-2.4408054 -4.5648322 -0.74337327
-2.4616921 -4.5367351 -0.74113286
-2.480895 -4.5059557 -0.73844433
-2.5002956 -4.4759755 -0.73590511
-2.5247865 -4.455389 -0.73500896
-2.537288 -4.4140992 -0.73052806
-2.5673139 -4.4035721 -0.73142427
-2.5892508 -4.3792262 -0.72993064
-2.614038 -4.3598647 -0.72933316
-2.6412542 -4.3445878 -0.72948253
-2.6631913 -4.3207254 -0.72813827
-2.6713066 -4.2749586 -0.72291058
-2.6980162 -4.2593222 -0.72305995
-2.7043266 -4.2119064 -0.71753353
-2.7317381 -4.1977196 -0.71798158
-2.7547204 -4.1767526 -0.71723479
-2.7709527 -4.1457982 -0.71469563
-2.7802529 -4.10498 -0.7103641
-2.805948 -4.0886583 -0.71051347
-2.8033135 -4.0315924 -0.70319468
-2.8354037 -4.0248222 -0.70513642
-2.847405 -3.9896455 -0.70185041
-2.8677747 -3.966491 -0.70080489
-2.8616683 -3.9073458 -0.69303805
-2.8926611 -3.899241 -0.69483036
-2.9123728 -3.8758862 -0.69378483
-2.9247189 -3.8429961 -0.69094694
-2.9416018 -3.8163652 -0.68930393
-2.9759183 -3.8122709 -0.69199246
-2.9814658 -3.7714491 -0.68766099
-2.9699352 -3.709866 -0.67929667
-2.9683509 -3.6616232 -0.67347151
-2.961267 -3.6074278 -0.66645145
-2.9877717 -3.5945117 -0.66749698
-3.0142293 -3.5814059 -0.6685425
-3.0226758 -3.5470426 -0.66540593
-3.0275838 -3.5089686 -0.66152251
-3.0484068 -3.4895811 -0.66137314
-3.0638638 -3.4641464 -0.66002887
-3.0613091 -3.4187691 -0.65465176
-3.0762501 -3.3933294 -0.6533075
-3.1083825 -3.3867712 -0.65584671
-3.1237187 -3.3618414 -0.65465176
-3.1259909 -3.3231702 -0.65061897
-3.1285889 -3.2853143 -0.64673555
-3.1349592 -3.2518222 -0.64374828
-3.1534715 -3.2311106 -0.6434496
-3.1648962 -3.2032621 -0.64165723
-3.1865897 -3.185879 -0.64210534
-3.1617444 -3.1225059 -0.63269544
-3.1624372 -3.0850999 -0.62881202
-3.1592298 -3.0443738 -0.62418181
-3.1778502 -3.0249319 -0.62418181
-3.1941895 -3.0033445 -0.6237337
-3.2016873 -2.9735985 -0.62149328
-3.2067542 -2.941869 -0.61880475
-3.2152174 -2.9135084 -0.61686301
-3.2293491 -2.8904293 -0.61611617
-3.2440598 -2.8679411 -0.61551875
-3.2571261 -2.8440809 -0.61462259
-3.2610345 -2.8124218 -0.61193407
-3.277477 -2.7917187 -0.6117847
-3.2748675 -2.7550113 -0.60790122
-3.2711713 -2.7178102 -0.60386842
-3.2778463 -2.6895366 -0.60192674
-3.2796876 -2.6575499 -0.59908885
-3.2843492 -2.6281126 -0.59684837
-3.3066211 -2.6128132 -0.59804332
-3.3116746 -2.5839624 -0.59595221
-3.3086643 -2.5491159 -0.59236753
-3.3336887 -2.5359473 -0.59415984
-3.3341613 -2.5041664 -0.591322
-3.3240426 -2.4648221 -0.58654237
-3.3462861 -2.4496343 -0.58788663
-3.3596504 -2.4278979 -0.58758789
-3.364018 -2.3997757 -0.58564621
-3.3681674 -2.3716917 -0.58370447
-3.3566692 -2.3329298 -0.57892489
-3.3619494 -2.3061399 -0.57728189
-3.3719416 -2.2826977 -0.57653505
-3.3645034 -2.24769 -0.57265162
-3.3716261 -2.2226517 -0.57145673
-3.3893456 -2.2046163 -0.57220352
-3.3978152 -2.1805754 -0.57130736
-3.4128022 -2.1607432 -0.5716061
-3.421802 -2.1371441 -0.57085925
-3.4264309 -2.1109242 -0.56936562
-3.4063575 -2.069845 -0.56354052
-3.4249318 -2.0524611 -0.56458604
-3.4187303 -2.0203457 -0.56130004
-3.4233723 -1.9948525 -0.55995578
-3.4123955 -1.9605169 -0.55592299
-3.4355474 -1.9458736 -0.55786473
-3.4534667 -1.9281292 -0.55891025
-3.4660988 -1.9073793 -0.55905962
-3.4673052 -1.8804222 -0.55726725
-3.4587173 -1.8483988 -0.55383193
-3.4489927 -1.8160915 -0.55024719
-3.4539261 -1.7917093 -0.54920167
-3.4534068 -1.7646372 -0.54725999
-3.4730029 -1.7478567 -0.54875356
-3.491637 -1.7304631 -0.55009782
-3.4897466 -1.7029392 -0.54800677
-3.5019128 -1.6823503 -0.54830551
-3.5005474 -1.6553397 -0.54636377
-3.5106385 -1.6338296 -0.54636377
-3.5259922 -1.6147265 -0.54725999
-3.5295222 -1.5902197 -0.5462144
-3.5148025 -1.5577233 -0.54218161
-3.5333595 -1.5400757 -0.54367524
-3.5418339 -1.5179771 -0.54352587
-3.5538154 -1.4973673 -0.54397398
-3.5528858 -1.4713746 -0.54233098
-3.5444438 -1.4424706 -0.53949308
-3.5715926 -1.4280313 -0.54248035
-0.25098354 -0.099736333 -0.0022352084
-3.5731626 -1.378051 -0.53994119
-0.25773749 -0.098747954 -0.003131385
-0.26019245 -0.097852983 -0.0034301106
-0.26171699 -0.096593097 -0.0035794734
-0.26696029 -0.096649244 -0.0043262872
-0 -0 -0
-0.27467206 -0.095615156 -0.0053718267
-0.27900186 -0.095190279 -0.0059692776
-0 -0 -0
-0.27826723 -0.091151237 -0.0056705521
-0.28070673 -0.090038642 -0.0059692776
-0.28030938 -0.088022083 -0.0058199149
-0.28179052 -0.086587153 -0.0059692776
-0.28136843 -0.084575631 -0.0058199149
-0.28093234 -0.08257255 -0.0056705521
-0.27857941 -0.080039591 -0.005222464
-0.27429998 -0.077011921 -0.0044756499
-0.27190337 -0.074554853 -0.0040275618
-0.27044326 -0.07238178 -0.0037288361
-0.26705131 -0.069737889 -0.003131385
-0.26939264 -0.068577774 -0.0034301106
-0.26980835 -0.066923521 -0.0034301106
-0.27117604 -0.065494858 -0.0035794734
-0.27542678 -0.06471853 -0.0041769245
-0.27485386 -0.062811032 -0.0040275618
-0.27523407 -0.061123382 -0.0040275618
-0.28140846 -0.060660001 -0.0049237381
-0.27983806 -0.058535192 -0.0046250126
-0.28116181 -0.057009578 -0.0047743754
-0.27956429 -0.054910153 -0.0044756499
-0.27989593 -0.053193744 -0.0044756499
-0.28313676 -0.051999308 -0.0049237381
-0.28345048 -0.050261036 -0.0049237381
-0.27887702 -0.04770736 -0.0041769245
-0 -0 -0
-0 -0 -0
-0.27677351 -0.042131901 -0.0037288361
-0 -0 -0
-0.28510839 -0.03979395 -0.0049237381
-0.2882891 -0.038423888 -0.0053718267
-0.29048222 -0.036895603 -0.0056705521
-0.28873891 -0.034883246 -0.0053718267
-0.28698191 -0.032893676 -0.0050731013
-0.28619489 -0.031029582 -0.0049237381
-0.28342775 -0.02898328 -0.0044756499
-0.27867708 -0.02679109 -0.0037288361
-0.2798214 -0.025165126 -0.0038781988
-0.27898487 -0.023369277 -0.0037288361
-0.27813688 -0.021584645 -0.0035794734
-0.27727753 -0.019811301 -0.0034301106
-0.27443302 -0.017928785 -0.0029820222
-0 -0 -0
-0.27561998 -0.01460787 -0.003131385
-0.27471656 -0.012874332 -0.0029820222
-0.2757785 -0.011224489 -0.003131385
-0.27584219 -0.0095321322 -0.003131385
-0 -0 -0
-0 -0 -0
-0 -0 -0
-0.29082453 -0.0028452608 -0.0053718267
-0.29083651 -0.0010607416 -0.0053718267
-0 0 -0
-0 0 -0
-0 0 -0
-0 0 -0
-0 0 -0
-0.27882129 0.0092037311 -0.0035794734
-0.27875957 0.010914373 -0.0035794734
-0 0 -0
-0 0 -0
-0 0 -0
-0.27248871 0.017349869 -0.0026832968
-0 -0 -0
-0 -0 -0
-0 -0 -0
-0 -0 -0
-0 -0 -0
-0 0 -0
-0 0 -0
-0 0 -0
-0 0 -0
-0 0 -0
-0 0 -0
-0 0 -0
-0 0 -0
-0 0 -0
-0 0 -0
-0 0 -0
-0 0 -0
-0 0 -0
-0 0 -0
-0 0 -0
-0 0 -0
-0 0 -0
-0 0 -0
-0 0 -0
-0 0 -0
-0 0 -0
-0 0 -0
-0 0 -0
-0 0 -0
-0 0 -0
-0 0 -0
-0 0 -0
-0 0 -0
-0 0 -0
-0 0 -0
-0 0 -0
-0 0 -0
-0 0 -0
-0 0 -0
-0 0 -0
-0 0 -0
-0 0 -0
-0 0 -0
-0 0 -0
-0 0 -0
-0 0 -0
-0 0 -0
-0 0 -0
-0 0 -0
-0 0 -0
-0 0 -0
-0 0 -0
-0 0 -0
-0 0 -0
-0 0 -0
-0 0 -0
-0 0 -0
-0 0 -0
-0 0 -0
-0 0 -0
-0 0 -0
-0 0 -0
-0 0 -0
-0 0 -0
-0 0 -0
-0 0 -0
-0 0 -0
-0 0 -0
-0 0 -0
-0 0 -0
-0 0 -0
-0 0 -0
-0 0 -0
-0 0 -0
-0 0 -0
-0 0 -0
-0 0 -0
-0 0 -0
-0 0 -0
-0 0 -0
-0 0 -0
-0 0 -0
-0 0 -0
-0 0 -0
-0 0 -0
-0 0 -0
-0 0 -0
-0 0 -0
-0 0 -0
-0 0 -0
-0 0 -0
-0 0 -0
-0 0 -0
-0 0 -0
-0 0 -0
-0 0 -0
-0 0 -0
-0 0 -0
-0 0 -0
-0 0 -0
-0 0 -0
-0 0 -0
-0 0 -0
-0 0 -0
-0 0 -0
-0 0 -0
-0 0 -0
-0 0 -0
-0 0 -0
-0 0 -0
-0 0 -0
-0 0 -0
-0 0 -0
-0 0 -0
-0 0 -0
-0 0 -0
-0 0 -0
-0.24592952 0.20470771 -0.013412984
-0 0 -0
-0.23438035 0.2000332 -0.011482006
-0.23688661 0.20468932 -0.01228658
-0.24975537 0.21846858 -0.015343962
-0.26616165 0.23568039 -0.019205919
-0.26985988 0.24191511 -0.020332322
-0.26617572 0.24157886 -0.019849578
-0.24431865 0.22453208 -0.015343962
-0.26463789 0.24616992 -0.020171408
-0.26312244 0.24778908 -0.020171408
-0.26588765 0.25348046 -0.021136895
-0.24726562 0.23867594 -0.01727494
-0.24650316 0.24087763 -0.017435854
-0.2590695 0.25625172 -0.020654151
-0 0 -0
-0.24480319 0.24818163 -0.018079514
-0.27982286 0.2871033 -0.026608
-0.26846287 0.27887014 -0.024355192
-0.26742753 0.28122666 -0.024516108
-0.26569691 0.28286228 -0.024516108
-0.26395631 0.28448725 -0.024516108
-0 0 -0
-0.2710551 0.29940131 -0.027090745
-0.2685543 0.30032375 -0.026929829
-0.25100833 0.28422746 -0.023067873
-0.24536237 0.28130364 -0.022102384
-0 0 -0
-0 0 -0
-0 0 -0
-0 0 -0
-0 0 -0
-0 0 -0
-0 0 -0
-0 0 -0
-2.9639838 3.7953906 -0.74638003
-2.9786131 3.8627427 -0.75651765
-2.954258 3.880161 -0.75635672
-2.9161592 3.879282 -0.75249481
-2.9164205 3.9295948 -0.75909227
-2.8741689 3.9227366 -0.75410396
-2.8459959 3.9347007 -0.75297755
-2.8240936 3.9553022 -0.75362116
-2.8060262 3.9814296 -0.75539124
-2.7939448 4.016396 -0.7589314
-2.7698066 4.0342774 -0.75909227
-2.7804372 4.1034861 -0.76939082
-2.7255781 4.0761671 -0.76070142
-2.7173684 4.118351 -0.76568979
-2.6888161 4.1299844 -0.76472431
-2.694366 4.1945662 -0.77405739
-2.6495564 4.1810088 -0.76826441
-2.6238525 4.1971879 -0.76826441
-2.5964952 4.2106881 -0.76778167
-2.5911276 4.2602692 -0.77421826
-2.5644305 4.2752414 -0.77405739
-2.5326219 4.2815523 -0.77228731
-2.5122709 4.3072414 -0.77421826
-2.5010498 4.3490973 -0.77920663
-2.4704225 4.3574934 -0.77791935
-2.4648273 4.4104762 -0.78499955
-2.4558165 4.4583664 -0.79111433
-2.3874419 4.3978906 -0.77711475
-2.3925395 4.4725032 -0.7882179
-2.341578 4.4425721 -0.78001124
-2.3620393 4.5488243 -0.79690725
-2.3039663 4.5043616 -0.78612596
-2.2696228 4.5051928 -0.78371227
-2.2511494 4.5376005 -0.78709149
-2.2098336 4.5238376 -0.78210312
-2.2201102 4.6164703 -0.79642451
-2.1685128 4.5809441 -0.78757423
-2.1407807 4.595058 -0.7877351
-2.1290007 4.6439934 -0.79417175
-2.0891013 4.6317787 -0.78966612
-2.0814595 4.6914206 -0.79803365
-2.0194716 4.6281199 -0.78451681
-1.9894792 4.6367965 -0.7838732
-1.9820923 4.6989303 -0.79272348
-1.9358314 4.6690664 -0.78532141
-1.9272597 4.7302117 -0.79401082
-1.8739867 4.6814752 -0.7833904
-1.8524511 4.7112556 -0.7866087
-1.8331093 4.7473917 -0.7909534
-1.7920477 4.7271733 -0.78548235
-1.7550906 4.7168055 -0.78178126
-1.7271315 4.730267 -0.78226405
-1.696743 4.7370586 -0.78162038
-1.6676451 4.7473807 -0.78162038
-1.644592 4.7752538 -0.78467774
-1.6117877 4.7749686 -0.78290766
-1.6029174 4.846612 -0.79352808
-1.5603715 4.8169222 -0.78676963
-1.5433214 4.8659177 -0.79352808
-1.5201674 4.8969746 -0.79722911
-1.4955424 4.9241529 -0.80028647
-1.479636 4.9814873 -0.80849314
-1.4476659 4.9857335 -0.80768859
-1.422436 5.0135117 -0.81090689
-1.3845289 4.9964652 -0.80656219
-1.3546184 5.0077248 -0.80704492
-1.3024513 4.9348292 -0.79336715
-1.2800217 4.9733138 -0.79851645
-1.2622131 5.0318103 -0.80704492
-1.228034 5.0260382 -0.80479211
-1.1686162 4.9134579 -0.78467774
-1.1422291 4.936882 -0.7874133
-1.1058494 4.9168367 -0.78290766
-1.0813491 4.949563 -0.78725237
-1.0517781 4.9599667 -0.78789604
-1.018739 4.9537597 -0.78580415
-0.98755234 4.9560456 -0.78516048
-0.95899409 4.9717026 -0.78676963
-0.93154824 4.9939871 -0.78950518
-0.89633554 4.9743547 -0.78532141
-0.86562747 4.9787889 -0.78516048
-0.84028327 5.0151548 -0.79030979
-0.81531113 5.0562677 -0.79626364
-0.77761787 5.0182614 -0.78918338
-0.74303597 4.9975567 -0.78499955
-0.71361059 5.0108156 -0.78644782
-0.69191122 5.0815992 -0.79739004
-0.65384769 5.0328975 -0.78870064
-0.61640811 4.983922 -0.78001124
-0.58616138 4.990551 -0.78049397
-0.55454618 4.9852257 -0.7790457
-0.51940739 4.9453454 -0.7719655
-0.48672205 4.9248672 -0.76810354
-0.45585662 4.9208817 -0.76697713
-0.42582425 4.9255528 -0.76729894
-0.39559361 4.9280729 -0.76729894
-0.36790356 4.9648566 -0.77293098
-0.33535668 4.9364953 -0.76794261
-0.30810711 4.9877143 -0.77598834
-0.27788147 4.9964089 -0.77711475
-0.24648629 4.9832335 -0.774701
-0.2148782 4.9609871 -0.7708391
-0.18557294 4.9927869 -0.77582741
-0.15389103 4.9602909 -0.77035636
-0.12345236 4.9611421 -0.77035636
-0.093343407 4.9795685 -0.77325279
-0.062662385 4.9701786 -0.77164364
-0.031886768 4.9280305 -0.76472431
-0.0016630684 4.9636645 -0.77051723
0.028680498 4.9438419 -0.76729894
0.058429677 4.894228 -0.7592532
0.088458993 4.8937774 -0.7592532
0.11834211 4.8872223 -0.75828773
0.14823772 4.8834448 -0.75780499
0.17956409 4.9199233 -0.76391971
0.20727256 4.8605504 -0.75442576
0.23781273 4.8739738 -0.75683945
0.26987711 4.9118423 -0.7632761
0.29562226 4.8381791 -0.75152928
0.32728791 4.8658166 -0.75635672
0.35858178 4.8834033 -0.75957501
0.38822609 4.8771758 -0.7589314
0.41780749 4.8707685 -0.75828773
0.44759578 4.8671303 -0.7581268
0.47735518 4.8633099 -0.75796586
0.50636804 4.8524361 -0.75667858
0.53212249 4.8129411 -0.75072473
0.55924177 4.7889986 -0.74734551
0.58620781 4.7658854 -0.74412721
0.61897939 4.7896061 -0.74863285
0.64676714 4.7739811 -0.74670184
0.66884971 4.7191081 -0.7383343
0.69750422 4.7129622 -0.73801243
0.72340125 4.689085 -0.73479414
0.7521593 4.6845579 -0.73479414
0.78218794 4.6876431 -0.73608148
0.80942106 4.6740026 -0.73463321
0.83860785 4.6718626 -0.735116
0.86779886 4.6695399 -0.73559874
0.89587563 4.6612196 -0.735116
0.92484379 4.6575713 -0.73543781
0.96528971 4.7098217 -0.74509269
0.98213375 4.6468368 -0.73559874
1.0036999 4.6088986 -0.73028857
1.0209525 4.5535364 -0.7220819
1.024924 4.4433188 -0.70470309
1.0396477 4.3841267 -0.69585276
1.0578878 4.3421841 -0.68989891
1.0763708 4.3030567 -0.6844278
1.0941685 4.2629113 -0.67879581
1.114026 4.2322555 -0.67477292
1.1358616 4.2100935 -0.6721983
1.1608844 4.2001905 -0.67171556
1.1796489 4.1682963 -0.66753173
1.2041048 4.1571875 -0.66688812
1.223984 4.1307945 -0.66366982
1.241582 4.097703 -0.65932512
1.2605718 4.0702085 -0.6559459
1.2873085 4.0680432 -0.65691137
1.3186177 4.0797901 -0.6602906
1.331567 4.0350685 -0.65401489
1.3648043 4.0520768 -0.65835959
1.3780971 4.0100236 -0.65256667
1.4007177 3.9959035 -0.6516012
1.4205601 3.9742219 -0.64934838
1.4496481 3.9784136 -0.6516012
1.4860543 4.0018282 -0.65723318
1.5193102 4.0157132 -0.66125607
1.5517277 4.026577 -0.66479617
1.5742422 4.011467 -0.6638307
1.59663 3.9962327 -0.66286522
1.6252092 3.996418 -0.6646353
1.6523414 3.9927547 -0.66576171
1.6737461 3.9752636 -0.66447437
1.6915021 3.9494948 -0.66173881
1.7097933 3.9254682 -0.65932512
1.7214602 3.8869269 -0.65433675
1.7452775 3.876291 -0.65433675
1.7694398 3.8664067 -0.65449762
1.8039497 3.8787458 -0.65868145
1.8285584 3.8693886 -0.65900326
1.8569641 3.8678834 -0.66077334
1.8797969 3.8546424 -0.66045147
1.9056031 3.8474579 -0.66125607
1.934052 3.8453925 -0.66302615
1.9544688 3.8272996 -0.66189975
1.9774618 3.8143589 -0.66173881
2.0058839 3.8117616 -0.66350889
2.0320241 3.8046057 -0.66447437
2.0558007 3.7929337 -0.6646353
2.0818882 3.7854371 -0.66560078
2.1118078 3.7846587 -0.66785359
2.1432543 3.7862318 -0.67058915
2.170377 3.7798572 -0.67187643
2.2074342 3.7903507 -0.67638206
2.2376757 3.7886326 -0.67863488
2.2836976 3.8129356 -0.68587607
2.3116605 3.8064439 -0.68732429
2.3484254 3.8140407 -0.69150805
2.3754416 3.8054202 -0.69263446
2.3987465 3.7907729 -0.69263446
2.4267561 3.7834606 -0.69408268
2.4547663 3.7759466 -0.69553095
2.4925482 3.783067 -0.69987565
2.5239336 3.7800148 -0.70228934
2.5553751 3.7767193 -0.70470309
2.590219 3.7780643 -0.70808232
2.625175 3.7791233 -0.71146148
2.6630812 3.7839308 -0.71564531
2.6977069 3.7835925 -0.71886361
2.7335842 3.7845714 -0.72240371
2.7625818 3.7756929 -0.72401285
2.7939236 3.7697728 -0.72626567
2.8507721 3.7975523 -0.73543781
2.8865631 3.7964888 -0.73881704
2.8977613 3.7630649 -0.73559874
2.9353621 3.7638936 -0.73946071
2.9498384 3.7349675 -0.73720789
2.9455786 3.6828814 -0.73012763
2.9470031 3.6386595 -0.72465652
2.966145 3.6166925 -0.72385192
2.9908025 3.6014619 -0.72449559
3.0109391 3.5807765 -0.72401285
3.0200586 3.5472033 -0.72079456
3.0475662 3.5353343 -0.72224277
3.061414 3.5076447 -0.72031182
3.0815721 3.4873147 -0.71999002
3.1075177 3.4734902 -0.72111636
3.1426847 3.4697206 -0.72449559
3.1532438 3.4387321 -0.72192097
3.1843555 3.4301703 -0.72433472
3.1938531 3.3983395 -0.72159916
3.2330117 3.3979859 -0.72594386
3.271601 3.3965681 -0.73012763
3.3233845 3.408231 -0.73736876
3.2887702 3.3315792 -0.72449559
3.3196144 3.3218095 -0.72690934
3.3378286 3.2992966 -0.7264266
3.3580098 3.278754 -0.7264266
3.391561 3.2711072 -0.72948396
3.4144266 3.2529588 -0.73012763
3.4443836 3.2414174 -0.73238045
3.5097458 3.2625599 -0.74251807
3.5267909 3.2382927 -0.7418744
3.5144293 3.1874149 -0.73479414
3.5699394 3.1980629 -0.742679
3.5554965 3.1460097 -0.73527688
3.5791917 3.1280317 -0.73624241
3.6468773 3.1479344 -0.74670184
3.6428425 3.1056466 -0.74171346
3.6648495 3.0857792 -0.74235713
3.685991 3.0651274 -0.74283987
3.6887126 3.0292976 -0.73946071
3.7256269 3.021529 -0.74332261
3.7171357 2.977016 -0.73769063
3.7422991 2.9596627 -0.73913884
3.7899461 2.9597309 -0.74525362
3.7924044 2.9243655 -0.74203533
3.861316 2.9399071 -0.75249481
3.8800709 2.9167523 -0.75265568
3.8764973 2.8770065 -0.74831098
3.9171641 2.870085 -0.75297755
3.9339011 2.8454173 -0.75281662
3.9376321 2.811475 -0.75008106
3.9499686 2.7838492 -0.74911559
3.9766977 2.7663245 -0.75104654
3.9813924 2.7334914 -0.74863285
4.0046263 2.7134402 -0.74992013
4.0162778 2.6855252 -0.74895465
4.0269136 2.6570258 -0.74782825
4.0580287 2.6419611 -0.75072473
4.0409484 2.5956728 -0.74428815
4.0709705 2.5798116 -0.7470237
4.0817022 2.5516443 -0.74605817
4.1233234 2.5426128 -0.75104654
4.1000595 2.4936695 -0.74364448
4.115283 2.4684651 -0.74364448
4.128653 2.4421625 -0.74332261
4.1418552 2.4157889 -0.74300081
4.1625891 2.3937743 -0.74412721
4.1574516 2.3569908 -0.74042618
4.1813126 2.3367338 -0.74219626
4.2050805 2.3162727 -0.74396628
4.2062035 2.2833631 -0.74155259
4.2679977 2.2831202 -0.75040287
4.2173185 2.2228296 -0.73849517
4.2974458 2.231483 -0.75072473
4.2785463 2.1884403 -0.74477088
4.2795544 2.1559289 -0.74251807
4.2935863 2.1300681 -0.742679
4.3473673 2.1236134 -0.75008106
4.3176236 2.0763631 -0.74235713
4.3570433 2.0625021 -0.74718457
4.3785629 2.0398977 -0.74879372
4.367671 2.0022972 -0.74460995
4.4014664 1.9852008 -0.74847192
4.4090538 1.9561548 -0.74766731
4.4318285 1.933802 -0.74959832
4.4490523 1.9089078 -0.7505638
4.4206705 1.864692 -0.74348354
4.4812598 1.8579481 -0.75217295
4.4989734 1.8330239 -0.75329936
4.5092196 1.8050175 -0.75313842
4.4834704 1.7628663 -0.74670184
4.455534 1.7203883 -0.73994344
4.4743118 1.6961666 -0.74139166
4.5012851 1.6748776 -0.74428815
4.5003519 1.6431638 -0.74235713
4.5437984 1.627503 -0.74815011
4.5499744 1.5982834 -0.74750644
4.5634284 1.5716211 -0.74815011
4.558959 1.538855 -0.74573636
4.6236 1.5291417 -0.75523031
4.6056671 1.4919205 -0.7505638
4.5893345 1.455574 -0.7462191
4.5651889 1.4171432 -0.74058706
4.5889082 1.3936954 -0.74316174
4.6049423 1.3677608 -0.74444902
4.6028218 1.3364515 -0.742679
4.6118851 1.3084534 -0.74283987
4.6160226 1.2790763 -0.74219626
4.6523652 1.2584625 -0.7470237
4.6485481 1.2268692 -0.74509269
4.6808391 1.2047212 -0.74927646
4.6929297 1.1771785 -0.75008106
4.6885591 1.1455492 -0.74815011
4.6983805 1.1174444 -0.74863285
4.6657252 1.0794702 -0.74203533
4.7358117 1.0651201 -0.75265568
4.7133322 1.0297196 -0.74782825
4.7446642 1.0061049 -0.75201201
4.7391472 0.97458667 -0.75008106
4.7508459 0.94664717 -0.75104654
4.7265229 0.91168147 -0.74605817
4.7718067 0.89008623 -0.75265568
4.7480392 0.85553724 -0.74782825
4.7405586 0.82418889 -0.74573636
4.7280054 0.79214889 -0.74283987
4.7620082 0.76783919 -0.74766731
4.7422471 0.73482537 -0.74364448
4.7808342 0.71079648 -0.74927646
4.7626324 0.67824614 -0.74557543
4.7647486 0.64874393 -0.74525362
4.7686396 0.61949575 -0.74525362
4.782146 0.59143651 -0.74686277
4.8141112 0.56542373 -0.75152928
4.7939482 0.53325367 -0.74766731
4.8403187 0.50836807 -0.75474757
4.8472753 0.47904745 -0.75539124
4.8648648 0.45066288 -0.75780499
4.8596721 0.42012346 -0.75651765
4.8572397 0.38990188 -0.75571311
4.8496981 0.35936093 -0.75410396
4.8350716 0.32845846 -0.7513684
4.823205 0.29793182 -0.74911559
4.8298693 0.26860598 -0.74992013
4.8639565 0.24057703 -0.75523031
4.854495 0.21025716 -0.75346029
4.8793645 0.18134826 -0.75732225
4.8448715 0.15030101 -0.75152928
4.8693824 0.12116173 -0.75539124
4.8305626 0.090538442 -0.74895465
4.8478041 0.061109819 -0.75169021
4.8559833 0.031414822 -0.75297755
4.8047624 0.0015972011 -0.74460995
4.885612 -0.028347336 -0.75780499
4.8715296 -0.058160517 -0.75555217
4.8967381 -0.088512272 -0.75973594
4.8813024 -0.11819924 -0.75732225
4.8449707 -0.14707294 -0.75152928
4.8646898 -0.17755264 -0.7549085
4.8585782 -0.20718862 -0.75410396
4.7832804 -0.23339494 -0.74203533
4.8438439 -0.26614645 -0.75217295
4.8322682 -0.29526156 -0.7505638
4.8746796 -0.3278833 -0.75780499
4.8843875 -0.35865399 -0.75973594
4.8761921 -0.38814786 -0.75877047
4.8688016 -0.41763893 -0.75796586
4.868113 -0.44768608 -0.75828773
4.8348246 -0.47456154 -0.75329936
4.8436017 -0.50544679 -0.75523031
4.842371 -0.53537387 -0.75555217
4.8527193 -0.56667757 -0.75780499
4.8373957 -0.5949977 -0.75587398
4.7954788 -0.61973792 -0.74959832
4.8502688 -0.65709603 -0.7592532
4.8344193 -0.68518329 -0.75732225
4.8467216 -0.71728885 -0.76005781
4.839303 -0.74656308 -0.75957501
4.7829823 -0.76795411 -0.75104654
4.7888889 -0.7990734 -0.75281662
4.8052912 -0.83214575 -0.75635672
4.8282671 -0.86666936 -0.76102328
4.8451767 -0.90042454 -0.76472431
4.8269606 -0.92771637 -0.76263243
0 -0 -0
4.7678351 -0.9771747 -0.75474757
4.7704406 -1.0082473 -0.75619584
4.7506628 -1.0345601 -0.75394303
4.7933421 -1.0746983 -0.76214969
4.7558823 -1.0969934 -0.75700039
4.7538633 -1.1272925 -0.75780499
4.7698717 -1.1620454 -0.76166695
4.758822 -1.1903332 -0.76102328
4.7064962 -1.2079819 -0.75346029
4.7562647 -1.2519066 -0.76311517
4.7437286 -1.2797819 -0.76231056
4.7215171 -1.3049221 -0.75989687
4.7162704 -1.3346744 -0.76037961
4.7231607 -1.3679796 -0.76295424
4.6787176 -1.3862829 -0.75683945
4.6814585 -1.4183981 -0.75877047
4.6613536 -1.4435936 -0.75683945
4.6495848 -1.4712749 -0.75635672
4.6263824 -1.4952248 -0.75394303
4.5955634 -1.5164719 -0.75024199
4.6002026 -1.5493654 -0.75265568
4.6130109 -1.585259 -0.75651765
4.6208944 -1.6197357 -0.75957501
4.5541749 -1.6277995 -0.74975926
4.5747037 -1.6668606 -0.75506943
4.5292301 -1.6818463 -0.74895465
4.5529814 -1.7225245 -0.7549085
4.5533781 -1.7546866 -0.75683945
4.5241504 -1.7753832 -0.75362116
4.4975901 -1.7968857 -0.75088561
4.5349374 -1.8441496 -0.75941414
4.4934406 -1.8594892 -0.75410396
4.4401021 -1.8694117 -0.74670184
4.4630251 -1.9113827 -0.75281662
4.4358301 -1.9320327 -0.75008106
4.4211841 -1.9580152 -0.74959832
4.4360867 -1.9972597 -0.75442576
4.4372106 -2.030601 -0.75683945
4.3817096 -2.0378146 -0.74911559
4.395895 -2.0773103 -0.75394303
4.4337835 -2.1285877 -0.76311517
4.4179778 -2.1544552 -0.76263243
4.3675275 -2.1631281 -0.75587398
4.4282408 -2.2271304 -0.76939082
4.3670244 -2.2300253 -0.76070142
4.3681555 -2.2644997 -0.76343697
4.3253546 -2.2760947 -0.7581268
4.3295903 -2.3123546 -0.76150602
4.2649908 -2.3116038 -0.75217295
4.301753 -2.3657866 -0.76166695
4.3000846 -2.3993497 -0.76408064
4.2715383 -2.4179115 -0.76150602
4.2600455 -2.4460411 -0.76214969
4.2125459 -2.4532626 -0.75603491
4.2322578 -2.4996397 -0.76263243
4.2143002 -2.5240402 -0.76214969
4.1734247 -2.5344841 -0.75732225
4.1619973 -2.5626311 -0.7581268
4.1947575 -2.6184285 -0.76745987
4.164433 -2.6351471 -0.76472431
4.1199384 -2.6425352 -0.7592532
4.1292996 -2.6844389 -0.76424158
4.0937934 -2.6972377 -0.76054054
4.0435114 -2.6998384 -0.75394303
4.0546637 -2.7434006 -0.75941414
4.0222869 -2.7576256 -0.75635672
4.0198822 -2.792388 -0.7592532
3.9905651 -2.8084815 -0.75683945
3.9772758 -2.8357787 -0.75764406
3.9710028 -2.8682191 -0.75989687
3.9405837 -2.8832071 -0.75732225
3.9418502 -2.9214344 -0.76118416
3.8891184 -2.9194977 -0.75410396
3.8954887 -2.961822 -0.75909227
3.8967927 -3.0007212 -0.76311517
3.8580709 -3.0087957 -0.7589314
3.8364382 -3.0299652 -0.75828773
3.8493781 -3.0787206 -0.76488525
3.8135405 -3.0886173 -0.76134509
3.7876484 -3.1063263 -0.75989687
3.7723138 -3.1326609 -0.76070142
3.7620866 -3.1633699 -0.76263243
3.7050285 -3.1544065 -0.7545867
3.7080319 -3.1964111 -0.75941414
3.6757073 -3.2080715 -0.75667858
3.6884983 -3.2593176 -0.76375884
3.6596024 -3.2739925 -0.76182783
3.6577339 -3.3129485 -0.76585072
3.6220601 -3.3213229 -0.7624715
3.6037827 -3.3454993 -0.76295424
3.5400321 -3.326997 -0.75329936
3.5488701 -3.3765464 -0.75989687
3.5181327 -3.3886733 -0.75764406
3.4838469 -3.3971057 -0.7545867
3.4769859 -3.4322844 -0.75780499
3.4370096 -3.4347188 -0.75346029
3.4137881 -3.4536376 -0.75297755
3.3925326 -3.4745193 -0.75297755
3.3622417 -3.4860358 -0.75088561
3.3258097 -3.4908807 -0.74734551
3.3347681 -3.5435629 -0.7545867
3.3989823 -3.6564801 -0.7751838
3.3497791 -3.6481895 -0.76874715
3.3246789 -3.6657505 -0.76810354
3.3073926 -3.691962 -0.76939082
3.286639 -3.7144036 -0.76987356
3.2585897 -3.7285552 -0.76858628
3.2304907 -3.7425029 -0.76729894
3.2017028 -3.7554951 -0.76585072
3.1646128 -3.7584612 -0.76231056
3.1919806 -3.8385136 -0.7751838
3.2272532 -3.9297187 -0.79030979
3.1838059 -3.9256852 -0.78532141
3.1479349 -3.9305108 -0.78226405
3.1078386 -3.9296262 -0.77808022
3.0253448 -3.8739507 -0.76263243
3.0286417 -3.9276099 -0.76987356
2.9943202 -3.9327707 -0.767138
2.9636085 -3.9423919 -0.76536798
2.9370096 -3.9573321 -0.76472431
2.9033384 -3.9625413 -0.76214969
2.880127 -3.9818804 -0.7624715
2.8722742 -4.0227704 -0.767138
2.8333209 -4.0201511 -0.76311517
2.8356569 -4.0763483 -0.7708391
2.7753937 -4.0424132 -0.76070142
2.76438 -4.0797925 -0.76472431
2.7371001 -4.0933957 -0.76408064
2.7456369 -4.1611862 -0.77405739
2.7092814 -4.1614132 -0.7708391
2.6815624 -4.1746373 -0.77019542
2.6585388 -4.1951809 -0.77099997
2.6421661 -4.2264776 -0.77389646
2.6125565 -4.2367296 -0.77277005
2.5942051 -4.2653284 -0.7751838
2.5649383 -4.2760878 -0.77421826
2.5270936 -4.2722082 -0.77051723
2.4983456 -4.2833714 -0.76971269
2.4789057 -4.3105979 -0.7719655
2.440239 -4.3042631 -0.76794261
2.4051147 -4.303648 -0.76504612
2.3658037 -4.2949843 -0.76070142
2.3455279 -4.3206954 -0.7627933
2.3357346 -4.3663344 -0.76858628
2.3001542 -4.3639956 -0.76552886
0 -0 -0
2.256767 -4.4121027 -0.76922995
2.2340934 -4.4346805 -0.7708391
2.1923635 -4.4191298 -0.76552886
2.1951025 -4.4936867 -0.77663201
2.1443863 -4.4590421 -0.76794261
2.1549976 -4.5523987 -0.78242493
0 -0 -0
2.1117229 -4.6063128 -0.7874133
0 -0 -0
2.0522351 -4.6255651 -0.78628689
2.0190771 -4.6272154 -0.78435594
1.9661251 -4.5823779 -0.77421826
1.9333673 -4.5834432 -0.77228731
1.8863037 -4.5496359 -0.76424158
0 -0 -0
0 -0 -0
1.80513 -4.5909338 -0.76552886
1.7801269 -4.6102095 -0.76697713
1.749706 -4.6155081 -0.76601166
1.7079268 -4.5900831 -0.75973594
1.6113373 -4.4132071 -0.72723114
1.4101293 -3.9370725 -0.64307272
1.3833278 -3.9382014 -0.64178538
1.3475651 -3.9130218 -0.63599247
1.3184782 -3.906255 -0.63341779
0 -0 -0
0 -0 -0
1.2612765 -3.9769001 -0.64146358
1.2424119 -4.0024734 -0.64452094
0 -0 -0
1.2300251 -4.1413565 -0.66560078
0 -0 -0
0 -0 -0
1.325739 -4.7843685 -0.77067816
1.2997091 -4.8047981 -0.77277005
1.2694471 -4.8098197 -0.77228731
1.2460626 -4.8414135 -0.77631021
1.2127297 -4.8346086 -0.77389646
1.169451 -4.7863512 -0.76456338
1.1430303 -4.8059192 -0.76665527
1.1119623 -4.8061113 -0.76552886
1.0846181 -4.8224726 -0.767138
1.0590115 -4.8473568 -0.77019542
1.0315017 -4.8643842 -0.7719655
1.0030272 -4.8773885 -0.77309185
0.97501069 -4.8931303 -0.774701
0.94309855 -4.8893299 -0.77309185
0.91688263 -4.9153996 -0.77647108
0.88863117 -4.9316173 -0.77824116
0.85463357 -4.9155846 -0.774701
0.82510871 -4.9246297 -0.77534467
0.78088611 -4.8428807 -0.76102328
0.75493634 -4.871964 -0.76504612
0.7211073 -4.8501463 -0.76070142
0.6910553 -4.8525257 -0.76037961
0.66086805 -4.8537407 -0.75989687
0.63463604 -4.8851089 -0.76440251
0.60113424 -4.8605056 -0.75973594
0.57959449 -4.9346786 -0.77132183
0.54220742 -4.8743825 -0.76086235
0.51992327 -4.9502535 -0.77277005
0.48779064 -4.9356713 -0.76987356
0.45804349 -4.944468 -0.7708391
0.42965317 -4.9698009 -0.77454013
0.3928268 -4.89364 -0.76166695
0.36315766 -4.9008794 -0.7624715
0.32973093 -4.8537807 -0.75442576
0.30329365 -4.9098926 -0.7632761
0.27080137 -4.869287 -0.75635672
0.24301887 -4.9132447 -0.7632761
0.21393688 -4.9392943 -0.76729894
0.18344223 -4.9355826 -0.76649439
0.1524182 -4.9129395 -0.76263243
0.1221962 -4.9108224 -0.76214969
0.09235888 -4.927268 -0.76472431
0.062111475 -4.9267554 -0.76456338
0.031867374 -4.9250698 -0.76424158
0.0016499767 -4.9320812 -0.76536798
-0.028567562 -4.9241033 -0.76408064
-0.058570106 -4.9060707 -0.76118416
-0.088831909 -4.9145002 -0.76263243
-0.11800873 -4.8734088 -0.75603491
-0.14883503 -4.9031749 -0.76102328
-0.17931266 -4.9130192 -0.7627933
-0.20979077 -4.9197149 -0.76408064
-0.2404058 -4.927207 -0.76552886
-0.2702015 -4.9177556 -0.76424158
-0.30049142 -4.9179754 -0.76456338
-0.32993418 -4.9052067 -0.7627933
-0.35728222 -4.8656855 -0.75667858
-0.38681784 -4.8594661 -0.75603491
-0.41527933 -4.8412676 -0.75346029
-0.44578972 -4.8474736 -0.7549085
-0.47465786 -4.8358068 -0.75346029
-0.50524211 -4.8416381 -0.7549085
-0.53569895 -4.845314 -0.75603491
-0.56839347 -4.867424 -0.76021868
-0.59885079 -4.8687429 -0.76102328
-0.63086265 -4.8816171 -0.76375884
-0.65762573 -4.8541808 -0.75989687
-0.68753642 -4.8510318 -0.76005781
-0.71440059 -4.8271947 -0.75683945
-0.7453599 -4.8314996 -0.75828773
-0.7729584 -4.8141665 -0.75619584
-0.80378187 -4.8171215 -0.75748312
-0.82861078 -4.7848687 -0.75297755
-0.85969752 -4.7894087 -0.7545867
-0.88275981 -4.7500806 -0.74895465
-0.91319251 -4.7513595 -0.75008106
-0.94982284 -4.783422 -0.75635672
-0.98430568 -4.8026428 -0.76054054
-1.0082473 -4.7704406 -0.75619584
-1.0288919 -4.7246246 -0.74959832
-1.0641218 -4.7461514 -0.75426483
-1.0874581 -4.7145276 -0.75008106
-1.1179589 -4.714489 -0.75120747
-1.1538715 -4.7363086 -0.75603491
-1.1754894 -4.6994576 -0.75104654
-1.2077366 -4.7055402 -0.75329936
-1.2333215 -4.6856332 -0.75120747
-1.2617918 -4.6770244 -0.75104654
-1.2891515 -4.6644373 -0.75024199
-1.3153297 -4.6478925 -0.74879372
-1.3512353 -4.6653309 -0.75313842
-1.3823586 -4.6654692 -0.7545867
-1.4115316 -4.6587882 -0.7549085
-1.4322095 -4.6245837 -0.7505638
-1.4680004 -4.6392341 -0.7545867
-1.4876386 -4.6029034 -0.74992013
-1.5198731 -4.6058736 -0.75201201
-1.5496804 -4.6011376 -0.75281662
-1.5749971 -4.5831418 -0.7513684
-1.596561 -4.5547628 -0.74815011
-1.6314528 -4.5643983 -0.75152928
-1.6492944 -4.5264812 -0.74670184
-1.6780678 -4.519052 -0.74718457
-1.7082088 -4.5151324 -0.74831098
-1.7390743 -4.5128551 -0.74975926
-1.7688948 -4.5076122 -0.75072473
-1.7910281 -4.4829249 -0.74831098
-1.8426627 -4.53128 -0.75877047
-1.8734499 -4.5271845 -0.76005781
-1.9004271 -4.5137849 -0.75973594
-1.9308068 -4.5083899 -0.76086235
-1.9808937 -4.5480371 -0.77003449
-1.9915805 -4.4969912 -0.76311517
-2.0009058 -4.4441867 -0.75587398
-2.0133545 -4.3995161 -0.75008106
-2.0353179 -4.3763399 -0.74815011
-2.0621324 -4.3637691 -0.74815011
-2.1050982 -4.3848457 -0.75426483
-2.1189876 -4.345232 -0.74943739
-2.1421056 -4.3250728 -0.74815011
-2.1690469 -4.3127294 -0.74831098
-2.2057905 -4.3195567 -0.75201201
-2.2299826 -4.3015599 -0.75120747
-2.2618489 -4.2982774 -0.75313842
-2.2779524 -4.2651644 -0.74959832
-2.3214784 -4.2832136 -0.75555217
-2.3253655 -4.2282405 -0.74798918
-2.3503041 -4.2121692 -0.74766731
-2.3921473 -4.2260141 -0.75297755
-2.4116445 -4.200129 -0.75088561
-2.4512761 -4.2091341 -0.75539124
-2.4720383 -4.1855159 -0.75378209
-2.4946313 -4.1651883 -0.75281662
-2.5109212 -4.1346178 -0.74992013
-2.5315866 -4.1115689 -0.74847192
-2.5541544 -4.0917716 -0.74766731
-2.5839622 -4.083529 -0.74911559
-2.5972483 -4.0493193 -0.74557543
-2.6182804 -4.027514 -0.74444902
-2.6402287 -4.0072517 -0.74364448
-2.6565473 -3.9786632 -0.74123073
-2.6759326 -3.9549308 -0.73978251
-2.696243 -3.9327385 -0.7386561
-2.7113152 -3.9031506 -0.73608148
-2.7198782 -3.8646472 -0.73173678
-2.7343733 -3.835027 -0.72916216
-2.7462966 -3.8021743 -0.72594386
-2.7637472 -3.7772861 -0.72433472
-2.7786458 -3.749155 -0.7220819
-2.783824 -3.7083542 -0.71725446
-2.7993579 -3.6817746 -0.71532345
-2.7984142 -3.6340294 -0.70904779
-2.807308 -3.5996671 -0.70550764
-2.8171091 -3.5668824 -0.70228934
-2.8204501 -3.5264051 -0.6974619
-2.8370657 -3.5028965 -0.69617462
-2.8315959 -3.4526052 -0.68925524
-2.8426397 -3.4230165 -0.68668061
-2.8731163 -3.416842 -0.68909436
-2.8761146 -3.3781052 -0.68458873
-2.8909888 -3.3536656 -0.68314052
-2.9121611 -3.3366072 -0.68330139
-2.9221237 -3.3068414 -0.68072677
-2.9278829 -3.2726657 -0.67718667
-2.9386334 -3.2443969 -0.67493385
-2.9511487 -3.2183025 -0.67316377
-2.9755402 -3.2051976 -0.67429018
-2.9890683 -3.1804063 -0.67284197
-3.0064857 -3.1598606 -0.67235923
-3.0100713 -3.1250031 -0.66865814
-3.0195434 -3.096581 -0.66640538
-3.0010483 -3.0400629 -0.65771598
-3.0140646 -3.0160062 -0.65642864
-3.0219855 -2.9870472 -0.65401489
-3.0014203 -2.9305222 -0.64516461
-2.9859593 -2.8798451 -0.63760161
-3.0007155 -2.8587461 -0.63695794
-3.0203559 -2.8423095 -0.63744068
-3.0240054 -2.8109548 -0.63438332
-3.0491927 -2.7996905 -0.63615334
-3.0509622 -2.7670028 -0.63277417
-3.0612671 -2.7423029 -0.6313259
-3.0758188 -2.7215054 -0.63084316
-3.0857718 -2.6967356 -0.62939495
-3.0947897 -2.6713011 -0.6277858
-3.1013591 -2.6439366 -0.62569392
-3.1031799 -2.6127779 -0.6226365
-3.1017003 -2.5791726 -0.61893547
-3.1098406 -2.5538278 -0.61732632
-3.1085889 -2.5210197 -0.61378622
-3.1278508 -2.5049834 -0.61459076
-3.1307769 -2.4759474 -0.61201614
-3.14591 -2.4566908 -0.61201614
-3.1703031 -2.4445746 -0.61394709
-3.1852431 -2.425076 -0.61394709
-3.183497 -2.3930304 -0.61056793
-3.1894028 -2.366981 -0.60879785
-3.1982937 -2.3432829 -0.60767144
-3.2006168 -2.3149369 -0.60525769
-3.1922712 -2.2791946 -0.60075212
-3.2078094 -2.2607017 -0.60107392
-3.2102783 -2.2330847 -0.5988211
-3.2247334 -2.2139034 -0.59898204
-3.2047589 -2.1713738 -0.59238452
-3.2311482 -2.1604476 -0.59495914
-3.2418725 -2.1389501 -0.5944764
-3.2532816 -2.1179409 -0.5941546
-3.2628944 -2.0958054 -0.59351093
-3.2690237 -2.0715182 -0.59222364
-3.2774885 -2.0488048 -0.59141904
-3.2841177 -2.0250292 -0.59029263
-3.2905786 -2.0012496 -0.58916622
-3.2934864 -1.9754359 -0.58739614
-3.2953522 -1.9491596 -0.58546519
-3.2995775 -1.924427 -0.58401698
-3.3010569 -1.89824 -0.58208597
-3.3100665 -1.8764888 -0.58160323
-3.2973955 -1.8426598 -0.57709759
-3.3008597 -1.8181064 -0.57564938
-3.3275657 -1.8062955 -0.57854587
-3.3211815 -1.7765316 -0.57532758
-3.3328929 -1.75658 -0.57548845
-3.3348494 -1.7315477 -0.5738793
-3.3190515 -1.6975673 -0.56905186
-3.3461516 -1.6856083 -0.57210928
-3.3405173 -1.6571484 -0.56921279
-3.3630376 -1.6426859 -0.57146561
-3.3668275 -1.619025 -0.5703392
-3.3847268 -1.6021373 -0.57178742
-3.3801796 -1.5746689 -0.56921279
-3.3924696 -1.555133 -0.56969553
-3.3956501 -1.5314468 -0.56856912
-3.3950596 -1.506179 -0.56679904
-0.25000325 -0.10868134 -0.0056890724
-0.24250263 -0.1036422 -0.0042408388
-0.24859008 -0.10445424 -0.0052063279
-0.26472494 -0.10935422 -0.0079418803
-0.26356298 -0.10698289 -0.0076200501
-0.26421446 -0.10536369 -0.0076200501
-0.26485598 -0.10374051 -0.0076200501
-0.27653578 -0.10638048 -0.0095510278
-0 -0 -0
-0 -0 -0
-0 -0 -0
-0 -0 -0
-0 -0 -0
-0 -0 -0
-0 -0 -0
-0 -0 -0
-0 -0 -0
-0 -0 -0
-0 -0 -0
-0 -0 -0
-0 -0 -0
-0 -0 -0
-0 -0 -0
-0 -0 -0
-0 -0 -0
-0 -0 -0
-0 -0 -0
-0 -0 -0
-0 -0 -0
-0 -0 -0
-0 -0 -0
-0 -0 -0
-0 -0 -0
-0 -0 -0
-0 -0 -0
-0 -0 -0
-0 -0 -0
-0 -0 -0
-0 -0 -0
-0 -0 -0
-0 -0 -0
-0 -0 -0
-0 -0 -0
-0 -0 -0
-0 -0 -0
-0 -0 -0
-0 -0 -0
-0 -0 -0
-0 -0 -0
-0 -0 -0
-0 -0 -0
-0 -0 -0
-0 -0 -0
-0 -0 -0
-0 -0 -0
-0 -0 -0
-0 -0 -0
-0 -0 -0
-0 -0 -0
-0 -0 -0
-0 -0 -0
-0 -0 -0
-0 -0 -0
-0 0 -0
-0.28303701 0.021558296 -0.010898841
-0 0 -0
-0 0 -0
-0 0 -0
-0.28242269 0.028497878 -0.010898841
-0 0 -0
-0 0 -0
-0.28185028 0.033691529 -0.010898841
-0 0 -0
-0.28141561 0.037147731 -0.010898841
-0 0 -0
-0 0 -0
-0 0 -0
-0 0 -0
-0 0 -0
-0 0 -0
-0 0 -0
-0 0 -0
-0.25959435 0.048892349 -0.0074396282
-0 0 -0
-0 0 -0
-0.26346791 0.054684084 -0.0083044311
-0 0 -0
-0 0 -0
-0.26433584 0.059968498 -0.0086503522
-0.2649211 0.061817233 -0.0088233128
-0.26645038 0.06390921 -0.009169234
-0.26700854 0.065782584 -0.0093421945
-0.26755372 0.067665212 -0.0095151551
-0 0 -0
-0 0 -0
-0.2700595 0.073630713 -0.010206997
-0 0 -0
-0.27008146 0.077213891 -0.010379958
-0.2696026 0.078869626 -0.010379958
-0.27194083 0.081381172 -0.010898841
-0.27143636 0.083048232 -0.010898841
-0 0 -0
-0 0 -0
-0 0 -0
-0 0 -0
-0.26224247 0.089090139 -0.0096881157
-0.26262015 0.091024011 -0.0098610763
-0.26298392 0.092965864 -0.010034037
-0.26240855 0.094577752 -0.010034037
-0.26366946 0.096873097 -0.010379958
-0 0 -0
-0.26705483 0.10187549 -0.011244762
-0.26917452 0.10459352 -0.011763643
-0.27035642 0.10697529 -0.012109565
-0 0 -0
-0.26629385 0.10915317 -0.011590683
-0.26380414 0.11001941 -0.011244762
-0.25769341 0.10930567 -0.010206997
-0.25611514 0.11049085 -0.010034037
-0.25183123 0.1104624 -0.0093421945
-0.2511487 0.11200552 -0.0093421945
-0.25582859 0.11600735 -0.010379958
-0.25511199 0.1175749 -0.010379958
-0.259727 0.12166667 -0.011417722
-0.26252601 0.12496562 -0.012109565
-0.26352423 0.12743877 -0.012455486
-0.26538423 0.13036659 -0.012974367
-0.26106092 0.13021985 -0.012282525
-0.25850326 0.13092214 -0.011936604
-0.25769508 0.13250582 -0.011936604
-0.25600588 0.13362524 -0.011763643
-0.25604963 0.13565816 -0.011936604
-0.256078 0.13769664 -0.012109565
-0.25522831 0.1392653 -0.012109565
-0.25694826 0.1422703 -0.012628446
-0.25435686 0.14287265 -0.012282525
-0.25176784 0.14344859 -0.011936604
-0.25003216 0.14449444 -0.011763643
-0.25083625 0.14702885 -0.012109565
-0.25161862 0.14957851 -0.012455486
-0.25406203 0.15316696 -0.013147328
-0.2522791 0.15420599 -0.012974367
-0.25049302 0.15522891 -0.012801407
-0.24787198 0.15570849 -0.012455486
-0.24691191 0.15722647 -0.012455486
-0.24346636 0.15712631 -0.011936604
-0.24414183 0.15970217 -0.012282525
-0.24479479 0.16229218 -0.012628446
-0.24542509 0.16489619 -0.012974367
-0.2460326 0.167514 -0.013320289
-0.24661717 0.17014544 -0.01366621
-0.24717863 0.1727903 -0.014012131
-0.24691531 0.17487606 -0.014185091
-0.24823172 0.17811961 -0.014703974
-0.25031203 0.18196799 -0.015395816
-0.25077254 0.18467447 -0.015741738
-0.25120923 0.18739343 -0.016087659
-0.25240552 0.19072132 -0.016606539
-0.25279042 0.19346941 -0.016952462
-0.25315103 0.19622934 -0.017298384
-0.25271475 0.19838995 -0.017471343
-0.25072393 0.19932112 -0.017298384
-0.252556 0.20333751 -0.017990226
-0.25282586 0.20613357 -0.018336147
-0.25382811 0.20957032 -0.018855028
-0.25630444 0.21429586 -0.019719832
-0.2564837 0.21714252 -0.020065753
-0.25663763 0.2199994 -0.020411674
-0.25676611 0.2228663 -0.020757595
-0.25318098 0.22247948 -0.020238712
-0.24887677 0.22139989 -0.01954687
-0 0 -0
-0 0 -0
-0 0 -0
-0 0 -0
-0 0 -0
-0 0 -0
-0 0 -0
-0 0 -0
-0 0 -0
-0 0 -0
-0 0 -0
-0 0 -0
-0 0 -0
-0 0 -0
-0 0 -0
-0 0 -0
-0 0 -0
-0 0 -0
-0 0 -0
-0 0 -0
-0 0 -0
-0 0 -0
-0 0 -0
-0 0 -0
-0 0 -0
-0 0 -0
-0 0 -0
-0 0 -0
-2.8283148 3.6250229 -0.76846629
-2.7771759 3.6048501 -0.7601642
-2.7705033 3.6422083 -0.76466119
-2.7321386 3.637871 -0.75999123
-2.7455375 3.7028372 -0.77054185
-2.7262552 3.7243831 -0.77157962
-2.7062347 3.7450333 -0.77244443
-2.6854918 3.764776 -0.77313626
-2.655539 3.7715173 -0.77106071
-2.6407757 3.7998743 -0.77365512
-2.6224225 3.8233178 -0.77521175
-2.6077442 3.8523889 -0.77797914
-2.5846043 3.8691363 -0.77815211
-2.5618987 3.8865674 -0.77849805
-2.5261934 3.8840463 -0.77469289
-2.5225191 3.9309783 -0.78126538
-2.489399 3.9322326 -0.77832508
-2.4615738 3.9415846 -0.77711433
-2.4301133 3.9448724 -0.77469289
-2.4089296 3.9647601 -0.77573067
-2.3926535 3.9929862 -0.77849805
-2.3661046 4.0042 -0.77780616
-2.3400037 4.0160894 -0.7772873
-2.3197312 4.0380592 -0.77884394
-2.3167422 4.0907884 -0.78662717
-2.2829602 4.0894446 -0.7835139
-2.2592485 4.1059647 -0.78403276
-2.2340124 4.11975 -0.78403276
-2.2142596 4.143806 -0.78610831
-2.1901679 4.1599293 -0.78662717
-2.173214 4.1899037 -0.78991342
-2.1416416 4.1917558 -0.78766495
-2.1145537 4.202178 -0.78714603
-2.0887299 4.2150736 -0.78714603
-2.0787992 4.2605662 -0.7935456
-2.0406833 4.2483792 -0.78870273
-2.0175226 4.2670546 -0.78991342
-1.9954556 4.2882843 -0.79164302
-1.9666467 4.2950735 -0.79060525
-1.9378297 4.301671 -0.78956753
-1.8942503 4.2747555 -0.78213018
-1.8699516 4.290813 -0.78299499
-1.8381604 4.2895303 -0.78057355
-1.8244169 4.3306847 -0.78628123
-1.7963036 4.3381572 -0.7855894
-1.7629735 4.3326745 -0.78247613
-1.7396441 4.3516421 -0.78403276
-1.7147089 4.3668189 -0.78489757
-1.6850493 4.3699055 -0.7835139
-1.6578559 4.3792415 -0.78334093
-1.6261545 4.3764043 -0.78091949
-1.6195 4.4418254 -0.79129714
-1.6051424 4.4878507 -0.7980426
-1.5788783 4.5013332 -0.79873443
-1.5525091 4.5146623 -0.79942626
-1.5244641 4.5231695 -0.79925328
-1.4997678 4.5417919 -0.80098289
-1.4594543 4.5124831 -0.79389155
-1.4314417 4.5204144 -0.79371858
-1.405426 4.5347571 -0.79475635
-1.3692936 4.5159593 -0.78974044
-1.3354034 4.5035005 -0.78593534
-1.3093891 4.5172858 -0.78697312
-1.2738702 4.4977512 -0.78195727
-1.2499214 4.5187736 -0.78437871
-1.2342272 4.5710521 -0.79250783
-1.1988871 4.5509167 -0.78749198
-1.1792645 4.5906239 -0.79337263
-1.1410383 4.5576425 -0.78610831
-1.1193453 4.5903955 -0.79077822
-1.0845687 4.5693846 -0.78576237
-1.0649219 4.6124234 -0.79233485
-1.0312144 4.5948439 -0.78801084
-0.99922979 4.5837622 -0.78489757
-0.97128916 4.5907707 -0.78507054
-0.94132304 4.5879598 -0.7835139
-0.91085261 4.5820565 -0.78143835
-0.88569427 4.603035 -0.78420573
-0.85293585 4.5841737 -0.77988172
-0.82426989 4.5864129 -0.77936286
-0.79258412 4.5710039 -0.77573067
-0.76598066 4.5845246 -0.7772873
-0.7404899 4.6056705 -0.78022766
-0.71176571 4.6072068 -0.77970874
-0.67800504 4.5744634 -0.77313626
-0.65282559 4.5990162 -0.77676845
-0.62644494 4.6165996 -0.77918988
-0.59785384 4.618403 -0.77884394
-0.56734091 4.6043882 -0.77573067
-0.53873563 4.6048474 -0.77521175
-0.51025426 4.6061087 -0.77486587
-0.48157337 4.6052341 -0.77417403
-0.45157593 4.5904584 -0.77106071
-0.42421237 4.6019702 -0.77261734
-0.39344302 4.5750465 -0.76742858
-0.36442623 4.5655928 -0.76535302
-0.33770308 4.5854239 -0.76846629
-0.30837196 4.5697207 -0.76535302
-0.28236794 4.6049523 -0.77123368
-0.2529192 4.5849624 -0.76742858
-0.22655629 4.6228271 -0.77382809
-0.19839652 4.6290503 -0.77469289
-0.16751324 4.5622654 -0.76275861
-0.14026274 4.5878196 -0.76708263
-0.11156222 4.5659471 -0.76310456
-0.083490707 4.563591 -0.76258564
-0.055370249 4.5541692 -0.76085603
-0.027442386 4.5573778 -0.76137495
0.00051692565 4.5446563 -0.75912642
0.028421629 4.5475221 -0.75964534
0.056398876 4.5531716 -0.76068306
0.084520496 4.5625873 -0.76241267
0.11268617 4.5688748 -0.76362342
0.14025947 4.5533309 -0.76102901
0.16841525 4.55829 -0.76206678
0.19565606 4.5404425 -0.75912642
0.2236581 4.5421081 -0.75964534
0.25207102 4.5504842 -0.76137495
0.27895457 4.5321398 -0.75843459
0.30642405 4.5254297 -0.75756979
0.33258376 4.5018549 -0.75376469
0.36154073 4.5164199 -0.75670499
0.38814288 4.5013599 -0.75445652
0.41484651 4.4890862 -0.75272691
0.44335225 4.4962578 -0.75445652
0.47093242 4.493453 -0.75445652
0.49816811 4.4875422 -0.7539376
0.52408475 4.470706 -0.75151616
0.55283684 4.4781585 -0.75341874
0.57954234 4.4688215 -0.75238097
0.6077491 4.4710369 -0.75341874
0.63392133 4.4584479 -0.75186211
0.66300452 4.4661651 -0.7539376
0.68858564 4.4503331 -0.75186211
0.71509528 4.4411626 -0.7509973
0.74314618 4.4415479 -0.75186211
0.76886636 4.4281712 -0.75030547
0.79567319 4.4214315 -0.74995953
0.8209812 4.4067841 -0.74822992
0.84595293 4.3910255 -0.74632734
0.86864465 4.3645015 -0.74252224
0.88965386 4.3311124 -0.73750639
0.91049057 4.298594 -0.73266345
0.93937218 4.3044734 -0.73473901
0.98716569 4.3937593 -0.75186211
1.0081114 4.3617105 -0.74719214
1.0343995 4.3535266 -0.74684626
1.0531434 4.3145671 -0.74096555
1.069531 4.2679005 -0.73370123
1.0844039 4.2173815 -0.72574502
1.1049819 4.1906495 -0.72211289
1.1270734 4.1704803 -0.7196914
1.1471177 4.1435537 -0.71605927
1.1668744 4.1165395 -0.71242708
1.1857936 4.0875473 -0.70844901
1.2046816 4.0594234 -0.70464385
1.2244145 4.0349917 -0.70153058
1.2450612 4.0142341 -0.69910908
1.2663927 3.9961917 -0.69720656
1.2869428 3.9761653 -0.69495803
1.3076042 3.9569726 -0.69288254
1.3277637 3.9367435 -0.69063401
1.3493282 3.9210725 -0.68925035
1.3714032 3.9071438 -0.68821257
1.397012 3.9032917 -0.68907738
1.4212736 3.8955715 -0.68925035
1.4427451 3.8803158 -0.6880396
1.464083 3.8649435 -0.68682891
1.4842221 3.8466992 -0.6850993
1.5095993 3.8421028 -0.68596411
1.5386364 3.8464835 -0.68855852
1.5644391 3.8424428 -0.6895963
1.5883636 3.8336811 -0.68976921
1.6107082 3.8211403 -0.68925035
1.6352892 3.8139007 -0.68976921
1.6606297 3.8083086 -0.69063401
1.6887594 3.8088508 -0.69270957
1.7169582 3.809191 -0.69478512
1.7427615 3.803956 -0.69582283
1.7677332 3.7967622 -0.69651473
1.7918394 3.7876244 -0.69686061
1.815046 3.7765586 -0.69686061
1.8442371 3.7777402 -0.69928205
1.8704464 3.7725291 -0.7004928
1.8975475 3.7688978 -0.70204943
1.9192916 3.7545531 -0.70153058
1.9559106 3.7689285 -0.7067194
1.9872665 3.7725396 -0.70983267
2.0145586 3.7680912 -0.7113893
2.0414007 3.7625837 -0.71277297
