# .PCD v0.7 - Point Cloud Data file format
VERSION 0.7
FIELDS x y z
SIZE 4 4 4
TYPE F F F
COUNT 1 1 1
WIDTH 1597
HEIGHT 1
VIEWPOINT 0 0 0 1 0 0 0
POINTS 1597
DATA ascii
2.2833209 -2.457345 -0.75549626
2.2681999 -2.4713089 -0.75549626
2.2510326 -2.4830174 -0.75480407
2.2338073 -2.4946084 -0.75411189
2.2184587 -2.5082679 -0.75411189
2.2043068 -2.5232983 -0.75457335
2.1913257 -2.5397227 -0.75549626
2.1794882 -2.5575635 -0.75688064
2.1675138 -2.5753548 -0.75826502
2.1547813 -2.5923469 -0.75941867
2.139452 -2.6062715 -0.7596494
2.1240327 -2.6201057 -0.75988013
2.1048751 -2.6292915 -0.75872648
2.092927 -2.6475 -0.76034158
2.0688584 -2.650322 -0.7573421
0 -0 -0
0 -0 -0
2.0027707 -2.6653972 -0.75065094
2.000294 -2.6963892 -0.75618845
1.9894617 -2.7164614 -0.75849575
1.9704756 -2.7254636 -0.75757283
1.959934 -2.7462142 -0.76011086
1.944728 -2.7605746 -0.76080304
1.9177526 -2.7580767 -0.75664991
0 -0 -0
0 -0 -0
0 -0 -0
1.8414514 -2.7921267 -0.75318897
1.8088912 -2.7797241 -0.74649781
1.807049 -2.8145139 -0.75318897
1.7923493 -2.8296585 -0.75434262
1.7687646 -2.8307016 -0.75157386
1.7585113 -2.8530967 -0.75480407
1.7470385 -2.8738098 -0.75757283
1.7308736 -2.8869786 -0.75826502
1.7160985 -2.9025698 -0.7596494
1.6972761 -2.9113638 -0.75918794
1.6803504 -2.9234104 -0.7596494
1.6542244 -2.9192755 -0.75572699
1.6381793 -2.9327683 -0.75664991
1.6112351 -2.9265707 -0.75226605
1.5992815 -2.9475193 -0.75526553
1.5852958 -2.964999 -0.7573421
1.5702482 -2.9806962 -0.75895721
1.5604476 -3.0066829 -0.76334107
1.5348814 -3.0023398 -0.7596494
1.5133666 -3.0056181 -0.75803429
1.4905726 -3.0061305 -0.75572699
1.4678293 -3.0064766 -0.7534197
1.4527272 -3.0224419 -0.75526553
1.4354032 -3.0339372 -0.75595772
1.4249768 -3.0603285 -0.76057231
1.4033344 -3.0628226 -0.75895721
1.3881146 -3.0793586 -0.76103377
1.3660376 -3.0807023 -0.75918794
1.3471091 -3.0890262 -0.75918794
1.3250612 -3.09008 -0.7573421
1.3060759 -3.0981522 -0.7573421
1.2896494 -3.1123998 -0.75895721
1.2697937 -3.1184523 -0.75849575
1.2596732 -3.1487689 -0.76426399
1.2346336 -3.1419499 -0.76057231
1.2100756 -3.1358502 -0.75711137
1.1897771 -3.1404865 -0.75641918
1.1684498 -3.1422558 -0.7550348
1.1504817 -3.1530223 -0.75595772
1.1307855 -3.1591063 -0.75572699
1.107834 -3.1558864 -0.75318897
1.0874987 -3.1598644 -0.75249678
1.0684007 -3.1673996 -0.75272751
1.045586 -3.1637335 -0.75018948
1.0276529 -3.1747179 -0.75134313
1.0046248 -3.1698337 -0.74857438
0.98429102 -3.1731503 -0.74788219
0.96480244 -3.1791301 -0.74788219
0.94998574 -3.2008471 -0.75180459
0.93141276 -3.2103539 -0.75272751
0.91461724 -3.2263055 -0.75526553
0.89324534 -3.2262304 -0.75388116
0.87368673 -3.23259 -0.75411189
0.85259444 -3.2331858 -0.75295824
0.83177018 -3.234587 -0.75203532
0.81025094 -3.2330232 -0.75042021
0.78993648 -3.2360435 -0.74995875
0.7698406 -3.2398827 -0.74972802
0.7532351 -3.2587655 -0.75318897
0.73343897 -3.2642751 -0.7534197
0.7140187 -3.2715659 -0.75411189
0.69574708 -3.2844522 -0.75618845
0.67342597 -3.2781754 -0.75365043
0.65367889 -3.2841544 -0.75411189
0.63406801 -3.2909696 -0.75480407
0.6131497 -3.2909722 -0.75388116
0.59311759 -3.29563 -0.75411189
0.57271826 -3.2982485 -0.75388116
0.5521484 -3.2997813 -0.7534197
0.53235537 -3.305989 -0.75411189
0.51116675 -3.3034239 -0.75272751
0.49131668 -3.3093855 -0.7534197
0.47017887 -3.3065581 -0.75203532
0.45053726 -3.3142014 -0.75318897
0.42956692 -3.312079 -0.75203532
0.40840092 -3.3078926 -0.75042021
0.38820979 -3.3113027 -0.75065094
0.36713234 -3.3068528 -0.74903584
0.34815505 -3.3216236 -0.75203532
0.32795861 -3.3256338 -0.75249678
0.30682942 -3.3198326 -0.75065094
0.28770927 -3.3361938 -0.75411189
0.26700005 -3.3349867 -0.7534197
0.24681918 -3.3404436 -0.75434262
0.22618625 -3.3399537 -0.75388116
0.20508943 -3.3315668 -0.75157386
0.18507497 -3.3405347 -0.7534197
0.16524602 -3.3552132 -0.75664991
0.14419357 -3.3454707 -0.75411189
0.1235553 -3.3433754 -0.7534197
0.10330913 -3.3528235 -0.75549626
0.082806982 -3.3563125 -0.75618845
0.062374771 -3.3655131 -0.75826502
0.041723195 -3.3658323 -0.75826502
0.021008013 -3.3562951 -0.75595772
0.00041331109 -3.3544147 -0.75549626
-0.020123104 -3.3465703 -0.75365043
-0.040574946 -3.3395731 -0.75203532
-0.061224505 -3.348017 -0.75411189
-0.081719108 -3.3456328 -0.75365043
-0.10239405 -3.3499312 -0.75480407
-0.12337389 -3.3609083 -0.75757283
-0.14391062 -3.3581438 -0.75711137
-0.16460811 -3.3591411 -0.75757283
-0.18489549 -3.3522387 -0.75618845
-0.20504493 -3.3442426 -0.75457335
-0.22490704 -3.3332133 -0.75226605
-0.24571174 -3.3366227 -0.7534197
-0.26710784 -3.3466916 -0.75618845
-0.28772098 -3.3459589 -0.75641918
-0.30824599 -3.3441305 -0.75641918
-0.3299962 -3.3547649 -0.75941867
-0.35006905 -3.3478382 -0.75826502
-0.36878511 -3.3291862 -0.75434262
-0.39146465 -3.3461895 -0.75895721
-0.41020596 -3.3292387 -0.75549626
-0.43249807 -3.3411336 -0.75895721
-0.45246786 -3.3345602 -0.75803429
-0.47278318 -3.3307579 -0.75780356
-0.4930689 -3.3268316 -0.75757283
-0.51287889 -3.3198972 -0.75664991
-0.53401142 -3.321491 -0.75780356
-0.55374074 -3.3143129 -0.75688064
-0.57406658 -3.310853 -0.75688064
-0.59488678 -3.3101413 -0.75757283
-0.61465263 -3.3035591 -0.75688064
-0.63656491 -3.3083251 -0.75895721
-0.65609407 -3.3005393 -0.75803429
-0.6737926 -3.28406 -0.7550348
-0.69332665 -3.2770081 -0.75434262
-0.7132138 -3.2717414 -0.75411189
-0.73455316 -3.2730002 -0.75549626
-0.75330937 -3.2627428 -0.75411189
-0.77376419 -3.2599528 -0.75457335
-0.79236996 -3.2494714 -0.75318897
-0.8132382 -3.2483242 -0.75411189
-0.83436418 -3.2479854 -0.75526553
-0.8535344 -3.2399817 -0.75457335
-0.87289143 -3.2328048 -0.75411189
-0.8942669 -3.2330148 -0.75549626
-0.91594273 -3.2340205 -0.75711137
-0.93441516 -3.2236667 -0.75595772
-0.95445412 -3.2188053 -0.75618845
-0.97446859 -3.2138195 -0.75641918
-0.99129051 -3.1984854 -0.75411189
-1.0135401 -3.2006917 -0.75618845
-1.0304662 -3.18608 -0.75411189
-1.0496912 -3.1787732 -0.75388116
-1.0722827 -3.1814935 -0.75618845
-1.0819781 -3.1463289 -0.74903584
-1.1041608 -3.1478946 -0.7511124
-1.1178863 -3.1254847 -0.74719
-1.1437068 -3.1368504 -0.75180459
-1.1632714 -3.1306858 -0.75203532
-1.1817702 -3.1216693 -0.75157386
-1.1998522 -3.1116354 -0.75088167
-1.2228332 -3.1141779 -0.7534197
-1.2397519 -3.1011949 -0.75203532
-1.2576573 -3.0908256 -0.75134313
-1.2799479 -3.0911419 -0.7534197
-1.2992682 -3.0841269 -0.75365043
-1.318934 -3.0778854 -0.75411189
-1.3401264 -3.0750868 -0.75549626
-1.3534523 -3.0543513 -0.75226605
-1.3753643 -3.0530868 -0.75411189
-1.3908319 -3.0375123 -0.75226605
-1.4127269 -3.035979 -0.75411189
-1.4338235 -3.0325317 -0.75549626
-1.4448222 -3.0078886 -0.75134313
-1.4734888 -3.0199554 -0.75688064
-1.4945828 -3.0160887 -0.75826502
-1.5130609 -3.0068614 -0.75826502
-1.5314822 -2.9975207 -0.75826502
-1.5498458 -2.9880674 -0.75826502
-1.5735894 -2.9888339 -0.76103377
-1.5905236 -2.9765475 -0.76034158
-1.6087574 -2.9667323 -0.76034158
-1.6278685 -2.9585104 -0.76080304
-1.6493104 -2.9544137 -0.76241815
-1.6688454 -2.9467783 -0.76311034
-1.6854414 -2.9339516 -0.76241815
-1.7034121 -2.9235549 -0.76241815
-1.7188441 -2.908859 -0.7612645
-1.7376602 -2.8999271 -0.76172596
-1.7569366 -2.8917053 -0.76241815
-1.7756671 -2.8825274 -0.76287961
-1.7969277 -2.8773553 -0.76449472
-1.8187119 -2.872853 -0.76634055
-1.8342036 -2.8583636 -0.76541764
-1.855951 -2.8535812 -0.76726347
-1.8734252 -2.8421395 -0.76726347
-1.8886675 -2.8273542 -0.76634055
-1.9125243 -2.8253825 -0.76910925
-1.9287239 -2.8119893 -0.76864785
-1.9481624 -2.8032982 -0.76957071
-1.9642063 -2.7897005 -0.76910925
-1.9801568 -2.7760115 -0.76864785
-1.9982923 -2.7653866 -0.76910925
-2.0146482 -2.7522881 -0.76887858
-2.0291803 -2.7367477 -0.76795566
-2.0453503 -2.7234674 -0.76772493
-2.0661454 -2.7162876 -0.76933998
-2.0798049 -2.6997044 -0.76818639
-2.0939369 -2.6838233 -0.76726347
-2.1079526 -2.6678705 -0.76634055
-2.126714 -2.6579254 -0.76726347
-2.1374705 -2.6380215 -0.76518691
-2.1591706 -2.6316273 -0.76726347
-2.1734121 -2.6160839 -0.76657128
-2.1900496 -2.6034434 -0.76680201
-2.209137 -2.5936606 -0.76795566
-2.213573 -2.566792 -0.76380253
-2.2280011 -2.5516953 -0.76334107
-2.2345951 -2.5277696 -0.76011086
-2.2435749 -2.5067596 -0.75780356
-2.2536876 -2.4871771 -0.75595772
-2.2636447 -2.4675653 -0.75411189
-2.2774186 -2.4522033 -0.75365043
-2.2917559 -2.4374743 -0.7534197
-2.3039856 -2.4205468 -0.75249678
-2.3167694 -2.4042621 -0.75180459
-2.3328366 -2.3913946 -0.75226605
-2.3495169 -2.3791127 -0.75295824
-2.3613193 -2.3618989 -0.75203532
-2.3709226 -2.3425779 -0.75042021
-2.3824668 -2.3252673 -0.74949729
-2.3882844 -2.3025 -0.74672854
-2.3967311 -2.2824335 -0.7448827
-2.4028955 -2.26035 -0.74234468
-2.4088795 -2.2382772 -0.73980671
-2.4218512 -2.2227964 -0.73957598
-2.4318404 -2.2046263 -0.73842233
-2.4387989 -2.1838207 -0.73634577
-2.4579828 -2.1739731 -0.7381916
-2.465414 -2.1537285 -0.73634577
-2.4748995 -2.1353817 -0.73519212
-2.4827719 -2.1157374 -0.73357701
-2.4919851 -2.0973306 -0.73242337
-2.5010662 -2.0788901 -0.73126972
-2.5077589 -2.0585651 -0.72942388
-2.5294123 -2.050493 -0.73219264
-2.5313127 -2.0264196 -0.72896242
-2.5421724 -2.0096426 -0.72850096
-2.5521548 -1.9922099 -0.72780877
-2.5566249 -1.9705716 -0.72550148
-2.5647967 -1.9519006 -0.72434783
-2.5705025 -1.9314498 -0.72250199
-2.5721471 -1.9081036 -0.71950251
-2.5743873 -1.8853852 -0.71673375
-2.5772345 -1.8632815 -0.71419573
-2.5862429 -1.8457369 -0.71350354
-2.5911565 -1.8253496 -0.71165776
-2.5895267 -1.800527 -0.70796609
-2.5933061 -1.7796481 -0.70588952
-2.6025658 -1.7626109 -0.70542806
-2.6125231 -1.7460679 -0.70519733
-2.6223752 -1.7294691 -0.7049666
-2.6313069 -1.7122843 -0.70450515
-2.6384888 -1.6940036 -0.70358223
-2.6471894 -1.6767406 -0.70312077
-2.6475265 -1.6542778 -0.70035201
-2.651001 -1.6339166 -0.69850618
-2.6534944 -1.6130698 -0.69642961
-2.6616731 -1.595757 -0.69596815
-2.6697392 -1.5784047 -0.69550669
-2.6726496 -1.5580724 -0.69366086
-2.6779418 -1.5392191 -0.69250721
-2.6856427 -1.5217991 -0.69204575
-2.6898332 -1.502444 -0.69066137
-2.6870689 -1.47934 -0.68743116
-2.6909642 -1.4600397 -0.68604678
-2.6972983 -1.4421241 -0.68535459
-2.7095394 -1.4273611 -0.68627751
-2.7096107 -1.4062256 -0.68397027
-2.7268515 -1.3940034 -0.68627751
-2.7353535 -1.3772455 -0.68627751
-2.7463677 -1.3617328 -0.6869697
-2.7494254 -1.3422939 -0.68558532
-2.7541022 -1.323712 -0.68466246
-0 -0 -0
-2.7586722 -1.2844745 -0.68166298
-2.7691553 -1.2687396 -0.68235517
-2.7795491 -1.2529244 -0.68304735
-2.7836268 -1.2342677 -0.68212444
-2.7938232 -1.2183317 -0.68281662
-2.8039289 -1.2023169 -0.68350881
-2.8139431 -1.186224 -0.684201
-0.28278217 -0.11678772 -0.032622028
-0.2654708 -0.10770937 -0.028007448
-0.26974016 -0.10752451 -0.028930364
-0.26858371 -0.10515545 -0.028468907
-0.27830121 -0.1070095 -0.030776197
-0.28441179 -0.10736882 -0.032160573
-0.27412164 -0.10155084 -0.029391823
-0 -0 -0
-0 -0 -0
-0 -0 -0
-0 -0 -0
-0 -0 -0
-0 -0 -0
-0 -0 -0
-0 -0 -0
-0 -0 -0
-0 -0 -0
-0 -0 -0
-0 -0 -0
-0 -0 -0
-0 -0 -0
-0 -0 -0
-0 -0 -0
-0 -0 -0
-0 -0 -0
-0 -0 -0
-0 -0 -0
-0 -0 -0
-0 -0 -0
-0 -0 -0
-0 -0 -0
-0 -0 -0
-0 -0 -0
-0 -0 -0
-0 -0 -0
-0 -0 -0
-0 -0 -0
-0 -0 -0
-0 -0 -0
-0 -0 -0
-0 -0 -0
-0 -0 -0
-0 -0 -0
-0 -0 -0
-0 -0 -0
-0 -0 -0
-0 -0 -0
-0.27044988 -0.027985353 -0.024546511
-0 -0 -0
-0 -0 -0
-0.27188858 -0.023086229 -0.024777241
-0.27687463 -0.021806344 -0.025930885
-0.2857365 -0.020753376 -0.028007448
-0.28585848 -0.018999739 -0.028007448
-0.28305617 -0.017065689 -0.027315261
-0.27538335 -0.014897055 -0.025469428
-0.28032875 -0.013446938 -0.026623074
-0 -0 -0
-0 -0 -0
-0 -0 -0
-0.28203672 0.019737639 -0.030628446
-0.28577819 0.02177844 -0.031599522
-0.28757212 0.02369871 -0.032085057
-0 0 -0
-0.28919041 0.027416764 -0.032570597
-0.2870872 0.028987957 -0.032085057
-0.28593978 0.030641664 -0.031842291
-0.28381947 0.032169189 -0.031356752
-0.28072852 0.033552747 -0.030628446
-0.27763137 0.034899604 -0.029900141
-0 0 -0
-0.27045947 0.037346292 -0.028200762
-0 0 -0
-0.27381536 0.041256759 -0.029171836
-0 0 -0
-0.27615869 0.045094792 -0.029900141
-0.27300957 0.046289816 -0.029171836
-0 0 -0
-0 0 -0
-0.27211127 0.051307186 -0.029171836
-0.27179134 0.052975863 -0.029171836
-0.27146116 0.054642547 -0.029171836
-0.27206975 0.056508441 -0.029414605
-0 0 -0
-0 0 -0
-0.27570906 0.062600285 -0.030628446
-0.27626351 0.064515322 -0.030871216
-0.27303538 0.065518379 -0.030142911
-0.27168733 0.066956401 -0.029900141
-0.268453 0.067896694 -0.029171836
-0.26709336 0.069295026 -0.028929068
-0 0 -0
-0 0 -0
-0.26203966 0.073140353 -0.027957993
-0.26810715 0.076640554 -0.029657373
-0.26856175 0.078560427 -0.029900141
-0.26900285 0.080488756 -0.030142911
-0.26850393 0.082137816 -0.030142911
-0.26891956 0.08407709 -0.030385679
-0.26839861 0.085725568 -0.030385679
-0.26878858 0.08767546 -0.030628446
-0.26640731 0.088702492 -0.030142911
-0.2640236 0.089703634 -0.029657373
-0.26346824 0.09132196 -0.029657373
-0.26290295 0.092936851 -0.029657373
-0.26050526 0.093882747 -0.029171836
-0.2608335 0.095817745 -0.029414605
-0 0 -0
-0.26416278 0.10075868 -0.030628446
-0.26985911 0.10486273 -0.032327827
-0.27641535 0.10940092 -0.034269974
-0.27573887 0.11109491 -0.034269974
-0.27684423 0.11352786 -0.034755513
-0.27524862 0.11484735 -0.034512743
-0.2727558 0.11576901 -0.034027208
-0.26937297 0.11627643 -0.033298902
-0.2651076 0.1163533 -0.032327827
-0.26350439 0.11757889 -0.032085057
-0.26542345 0.12040641 -0.032813363
-0.26643828 0.12285215 -0.033298902
-0.26918662 0.12614504 -0.034269974
-0 0 -0
-0.27284816 0.13199377 -0.035726588
-0.27377114 0.13452777 -0.036212124
-0.27120784 0.13533211 -0.035726588
-0.26691777 0.1352265 -0.034755513
-0.2652221 0.13641465 -0.034512743
-0.26609638 0.13894416 -0.034998283
-0.26694956 0.14148951 -0.035483819
-0.26948658 0.14497623 -0.036454894
-0.27453974 0.14990355 -0.03815427
-0.27784881 0.15395166 -0.039368115
-0.27943057 0.15708901 -0.040096421
-0.27762049 0.15831697 -0.039853651
-0.27161619 0.15708473 -0.03839704
-0.26647258 0.15627879 -0.037183199
-0.26301301 0.15641379 -0.036454894
-0.2603907 0.15701641 -0.035969354
-0.26355085 0.16115721 -0.037183199
-0.26420215 0.16379981 -0.037668735
-0.26401153 0.16593713 -0.037911505
-0.26543692 0.1691269 -0.03863981
-0.26195532 0.16916446 -0.037911505
-0.25929305 0.16970003 -0.037425965
-0.25744051 0.17074858 -0.037183199
-0.25478184 0.1712366 -0.03669766
-0.25532579 0.17389491 -0.037183199
-0.25584665 0.17656629 -0.037668735
-0.2579301 0.18036832 -0.03863981
-0.25918695 0.18363874 -0.039368115
-0.26041329 0.18693133 -0.040096421
-0.2639564 0.19196592 -0.041553032
-0.26511043 0.19531642 -0.042281337
-0.26468241 0.19752237 -0.042524107
-0.26269364 0.19855502 -0.042281337
-0.25993401 0.19897833 -0.041795801
-0.25641459 0.19877818 -0.041067496
-0.25366834 0.19914418 -0.040581957
-0.25244164 0.20069692 -0.040581957
-0.25346571 0.20407534 -0.041310262
-0.25595704 0.2087052 -0.042524107
-0.25840095 0.2133732 -0.043737948
-0.25931299 0.21682924 -0.044466253
-0.26240686 0.2221926 -0.045922864
-0.26397586 0.22633414 -0.046893939
-0.26404294 0.2292264 -0.047379479
-0 0 -0
-0.26482275 0.23568591 -0.04859332
-0.26552725 0.23926161 -0.049321625
-0 0 -0
-0 0 -0
-0 0 -0
-0 0 -0
-0 0 -0
-0 0 -0
-0 0 -0
-0 0 -0
-0 0 -0
-0 0 -0
-0 0 -0
-0 0 -0
-0 0 -0
-0 0 -0
-0 0 -0
-0 0 -0
-0 0 -0
-0 0 -0
-0 0 -0
-0 0 -0
-0 0 -0
-0 0 -0
-0 0 -0
-0 0 -0
-0 0 -0
-0 0 -0
-0 0 -0
-2.054486 2.6326942 -0.79559213
-0 0 -0
-0 0 -0
-1.9765606 2.6312728 -0.7834537
-1.9540247 2.6347778 -0.78078324
-1.9361029 2.6443691 -0.78005493
-1.9198408 2.6561992 -0.78005493
-1.9057592 2.6710887 -0.78102601
-1.8932418 2.6882851 -0.78272539
-0 0 -0
-1.8584644 2.7089155 -0.78199708
-0 0 -0
-1.8202339 2.7242565 -0.77981216
-1.8093545 2.7442849 -0.78248262
-1.7919532 2.7545218 -0.78223985
-1.7744943 2.7646487 -0.78199708
-1.7574973 2.7754848 -0.78199708
-1.7414615 2.7878621 -0.78248262
-1.7227969 2.7960169 -0.78175431
-1.7015804 2.7999017 -0.77981216
-1.6858637 2.8127863 -0.78054047
-1.6690664 2.8239131 -0.78078324
-1.6541486 2.8382926 -0.78199708
-1.635736 2.8467062 -0.78151155
-1.6211052 2.8617547 -0.78296816
-1.6016246 2.8682592 -0.78199708
-1.5872673 2.8839829 -0.78369647
-1.5709283 2.8962264 -0.78442478
-1.5526708 2.9049554 -0.78418201
-1.5379791 2.9204371 -0.7858814
-1.5164592 2.922929 -0.78393924
-1.4971725 2.9295869 -0.78321093
-1.4800403 2.9404514 -0.78369647
-1.4593871 2.9442616 -0.78223985
-1.4383178 2.947057 -0.78054047
-1.4193683 2.954078 -0.78005493
-1.3999723 2.9601002 -0.77932662
-1.380147 2.965116 -0.7783556
-1.3599092 2.9691179 -0.77714175
-1.3424618 2.9791756 -0.77762729
-1.319836 2.9775994 -0.77495682
-1.2968929 2.9749689 -0.77204359
-1.2774688 2.9801953 -0.77131528
-1.2584058 2.9861894 -0.77082974
-1.2400593 2.9938548 -0.77082974
-1.2264161 3.0130894 -0.77398574
-1.2071853 3.0187562 -0.7735002
-1.1897029 3.0288157 -0.77422851
-1.1703984 3.0342481 -0.77374297
-1.1507288 3.0386503 -0.77301466
-1.1276728 3.0338314 -0.76985866
-1.1080401 3.0379591 -0.76913035
-1.0877464 3.0401332 -0.7679165
-1.0674677 3.0421729 -0.76670265
-1.0519335 3.0578399 -0.76913035
-1.0328416 3.0633175 -0.76888758
-1.0115943 3.0622272 -0.76694542
-0.99397898 3.0720689 -0.7679165
-0.97569567 3.0799599 -0.76840204
-0.95534432 3.0812554 -0.76718819
-0.93754512 3.0907729 -0.76815927
-0.91801172 3.0946071 -0.76767373
-0.90467298 3.1197495 -0.77277189
-0.88049525 3.1075065 -0.76815927
-0.85727715 3.0978899 -0.76427501
-0.84507418 3.1283801 -0.77082974
-0.825616 3.1325684 -0.77058697
-0.80662048 3.138515 -0.77082974
-0.79558539 3.1763437 -0.77932662
-0.77401453 3.1726828 -0.77714175
-0.75386137 3.1745405 -0.77641344
-0.73436856 3.1791065 -0.77641344
-0 0 -0
-0 0 -0
-0 0 -0
-0.63860196 3.1106408 -0.75456423
-0 0 -0
-0 0 -0
-0 0 -0
-0 0 -0
-0 0 -0
-0 0 -0
-0 0 -0
-0 0 -0
-0 0 -0
-0 0 -0
-0.052774139 0.38094658 -0.056119144
-0 0 -0
-0 0 -0
-0.38263535 3.2676589 -0.78321093
-0 0 -0
-0.33787751 3.2277253 -0.77204359
-0.31541383 3.2027051 -0.76524609
-0.29380286 3.1833279 -0.75990516
-0.2730217 3.1705728 -0.75626361
-0.25240821 3.1576829 -0.75262213
-0.23288625 3.1572373 -0.75213659
-0.21305396 3.1518314 -0.7504372
-0.1937698 3.1540477 -0.75067997
-0.17404099 3.1483967 -0.74898058
-0.15438883 3.1426229 -0.74728119
-0.13489668 3.138665 -0.74606735
-0.11570634 3.1413724 -0.74655288
-0.096105695 3.1313574 -0.74388242
-0.077007473 3.1367371 -0.74509627
-0.057724372 3.1352108 -0.74461073
-0.038428269 3.1306558 -0.74339688
-0.019257352 3.1376231 -0.74509627
-6.335546e-06 3.1338019 -0.74412519
0.019190751 3.1288927 -0.74291134
0.038401179 3.1296859 -0.74315411
0.057549201 3.1264818 -0.7424258
0.076731846 3.1260698 -0.7424258
0.09600196 3.128449 -0.74315411
0.11537628 3.132648 -0.74436796
0.13446963 3.1289737 -0.74363965
0.15400183 3.134872 -0.74533904
0.17350367 3.138711 -0.74655288
0.1918615 3.1230636 -0.74291134
0.21075749 3.1179562 -0.74194026
0.22923945 3.1078975 -0.73975539
0.24768357 3.0986967 -0.73781323
0.26794598 3.1116157 -0.74145478
0.28676492 3.1070151 -0.74072647
0.3058238 3.1051972 -0.74072647
0.32578346 3.1119452 -0.74291134
0.34508643 3.1118159 -0.74339688
0.36440006 3.1115668 -0.74388242
0.38300899 3.1054213 -0.74291134
0.40330639 3.1126328 -0.74533904
0.42004114 3.0927978 -0.74096924
0.43846306 3.0863206 -0.73999816
0.45839101 3.0902889 -0.74169749
0.47615537 3.0797489 -0.73975539
0.49411663 3.071023 -0.73829877
0.5155161 3.0832412 -0.74218303
0.53243041 3.0685513 -0.73926985
0.55193692 3.0690453 -0.74024093
0.56897867 3.0560646 -0.73781323
0.58753586 3.0515635 -0.73757046
0.60985136 3.0659771 -0.74218303
0.628066 3.0593266 -0.74145478
0.64662462 3.0544665 -0.74121201
0.66556138 3.051389 -0.74145478
0.68491054 3.0500872 -0.74218303
0.70251912 3.0411017 -0.74096924
0.72004324 3.0320151 -0.73975539
0 0 -0
0.75271136 3.0050731 -0.73514277
0.77016866 2.9966402 -0.73417169
0.78755087 2.9881063 -0.73320061
0.80511069 2.9804084 -0.7324723
0.82623285 2.9856956 -0.73514277
0.84268349 2.9740369 -0.73344338
0.86335081 2.9771948 -0.73562831
0.8818785 2.9727712 -0.73587108
0.89953858 2.9654479 -0.73538554
0.91800493 2.960799 -0.73562831
0.93556815 2.9532611 -0.73514277
0.95157856 2.941005 -0.73344338
0.968997 2.9332688 -0.73295784
0.98914897 2.9337018 -0.73465723
1.0087107 2.9321632 -0.73587108
1.0247539 2.9204273 -0.73441446
1.0429813 2.9149978 -0.73465723
1.0618459 2.9112771 -0.73538554
1.0807042 2.9074342 -0.73611385
1.0998992 2.9043767 -0.73708493
1.1142048 2.8885238 -0.73465723
1.1333275 2.8852439 -0.73562831
1.1560572 2.8908439 -0.73902708
1.171577 2.8783059 -0.73757046
1.1888443 2.870167 -0.73732769
1.2105806 2.8726501 -0.73999816
1.2251238 2.8580363 -0.738056
1.2426373 2.8504653 -0.738056
1.2577434 2.8374667 -0.73659939
1.2747312 2.8288116 -0.73635662
1.2908515 2.8182912 -0.73562831
1.3073006 2.8085592 -0.73514277
1.3245089 2.8004847 -0.73514277
1.3404061 2.7896824 -0.73441446
1.3570721 2.7805336 -0.73417169
1.3758323 2.7756305 -0.73514277
1.3910915 2.7636709 -0.73417169
1.4089063 2.7568107 -0.73465723
1.4271365 2.7506967 -0.73538554
1.44444 2.7427461 -0.73562831
1.4658182 2.7423854 -0.738056
1.4816917 2.7316346 -0.73757046
1.499361 2.724191 -0.738056
1.514155 2.7115526 -0.73708493
1.5317212 2.7038987 -0.73757046
1.547316 2.6927674 -0.73708493
1.5628318 2.6815467 -0.73659939
1.584689 2.6810911 -0.73926985
1.6006111 2.6704853 -0.73902708
1.6199914 2.6655867 -0.7404837
1.6332614 2.6506422 -0.73902708
1.6505233 2.642216 -0.73951262
1.6651467 2.6295805 -0.73878431
1.6812501 2.619314 -0.73878431
1.7041714 2.6195171 -0.74194026
1.715938 2.6025336 -0.73999816
1.7313353 2.5911496 -0.73975539
1.7569971 2.5949328 -0.74412519
1.7728862 2.5841031 -0.74412519
1.7942486 2.5811396 -0.74655288
1.8083757 2.567703 -0.74582458
1.817332 2.5470848 -0.74291134
1.841455 2.5476761 -0.74655288
1.8530389 2.5308516 -0.7448535
1.8644859 2.5139811 -0.74315411
1.8804592 2.503269 -0.74339688
1.8899068 2.4839654 -0.74096924
1.9009656 2.4669452 -0.73926985
1.9142754 2.4529409 -0.73854154
1.9268832 2.4381056 -0.73757046
1.9418068 2.4262366 -0.73757046
1.9572685 2.4150295 -0.73781323
1.9769756 2.4089718 -0.73975539
1.9960614 2.4020171 -0.74145478
2.0126369 2.3919504 -0.74218303
2.034199 2.3876762 -0.7448535
2.0469096 2.3729467 -0.74412519
2.059516 2.3581512 -0.74339688
2.0790894 2.3512816 -0.74533904
2.0850625 2.3290875 -0.74218303
2.1019211 2.3191242 -0.74315411
2.1134868 2.3033252 -0.74218303
2.1282406 2.2910242 -0.7424258
2.1462471 2.282161 -0.74388242
2.1561947 2.264735 -0.7424258
2.1673563 2.2486694 -0.74145478
2.1858573 2.2401867 -0.74315411
2.1947877 2.2219031 -0.74145478
2.2063212 2.2063372 -0.74072647
2.2163656 2.1893506 -0.73951262
2.2207279 2.1669061 -0.73635662
2.2360783 2.1552579 -0.73708493
2.2443407 2.1368165 -0.73538554
2.2595305 2.1249983 -0.73611385
2.2711048 2.1097741 -0.73562831
2.2904425 2.1016996 -0.73781323
2.3054521 2.0895598 -0.73854154
2.3232911 2.0799019 -0.74024093
2.3440061 2.0726728 -0.74291134
2.3501015 2.0525107 -0.74072647
2.3670599 2.0418522 -0.74218303
2.3758507 2.0241456 -0.74096924
2.3793159 2.002038 -0.738056
2.4034965 1.9973167 -0.74194026
2.4134562 1.9806862 -0.74121201
2.419533 1.960956 -0.73926985
2.4360654 1.9497085 -0.74072647
2.4396083 1.9281108 -0.738056
2.4559829 1.9166846 -0.73951262
2.4738462 1.9063137 -0.74145478
2.4932191 1.8969696 -0.74388242
2.4970534 1.8758122 -0.74145478
2.5108545 1.862188 -0.74218303
2.5245821 1.848465 -0.74291134
2.5382357 1.8346436 -0.74363965
2.5470755 1.8173453 -0.74291134
2.5645251 1.8061489 -0.7448535
2.5763559 1.7909327 -0.74509627
2.5896969 1.7767363 -0.74582458
2.6005499 1.7608126 -0.74582458
2.6088848 1.743207 -0.74509627
2.6171014 1.7255652 -0.74436796
2.6325202 1.7126467 -0.74582458
2.6454289 1.6980329 -0.74655288
2.6533387 1.6802127 -0.74582458
2.6685359 1.6669824 -0.74728119
2.6820185 1.6526116 -0.74825227
2.6854749 1.6320958 -0.74631011
2.7037611 1.6205715 -0.74873781
2.7078068 1.600498 -0.74703842
2.7142231 1.5819004 -0.74606735
2.7255609 1.5661824 -0.74655288
2.7275214 1.5451287 -0.74436796
2.737798 1.5288365 -0.74461073
2.7505274 1.5138786 -0.74558181
2.7503827 1.4918888 -0.74291134
2.7629077 1.4768126 -0.74388242
2.7805023 1.4643492 -0.74631011
2.7851288 1.4450284 -0.74509627
2.7999907 1.4310001 -0.74679565
2.8182518 1.418587 -0.74946612
2.8295109 1.4025593 -0.75019443
2.8432953 1.3877224 -0.75165105
2.8543804 1.3715096 -0.75237936
2.8627419 1.3539696 -0.75237936
2.8683572 1.3351516 -0.75165105
2.8632636 1.3114718 -0.7480095
2.868603 1.2926838 -0.74728119
2.8835769 1.2782004 -0.74922335
2.890476 1.2600957 -0.74898058
2.9026122 1.2442456 -0.75019443
2.9209211 1.2309289 -0.75310767
2.9284191 1.2129834 -0.75310767
2.9465902 1.1993768 -0.75602084
2.9565966 1.1823539 -0.75674915
2.9529591 1.1599382 -0.75383592
2.9600208 1.1417974 -0.75383592
2.9588051 1.1205244 -0.75165105
2.9647152 1.1020108 -0.75140828
2.9659524 1.0818065 -0.74995166
2.9789288 1.0658727 -0.75165105
2.9963987 1.0514246 -0.75456423
3.0046287 1.0336497 -0.75504977
3.020108 1.0182903 -0.75747746
3.029063 1.000652 -0.75820577
3.0240688 0.97846752 -0.75529253
3.0318654 0.96047902 -0.75577807
3.0330684 0.94042301 -0.75456423
3.0341394 0.92038846 -0.75335044
3.0471706 0.90395844 -0.75529253
3.05266 0.88524437 -0.75529253
3.0571008 0.86623281 -0.75504977
3.0735788 0.85055912 -0.757963
3.0796766 0.8319366 -0.75820577
3.0819087 0.81228375 -0.75747746
3.0887141 0.79384047 -0.757963
3.0888214 0.77369672 -0.75674915
3.0944531 0.75495911 -0.75699192
3.0980833 0.73573387 -0.75674915
3.1025393 0.71671057 -0.75674915
3.1068785 0.69766021 -0.75674915
3.1347978 0.68374324 -0.7628184
3.1180534 0.66008323 -0.75747746
3.1096904 0.63840723 -0.75432146
3.1173551 0.6200701 -0.75529253
3.1230066 0.60129678 -0.75577807
3.1294985 0.58265471 -0.75650638
3.119647 0.56104255 -0.75310767
3.1239867 0.54205567 -0.75335044
3.1358657 0.52431369 -0.7555353
3.1294456 0.50352496 -0.75310767
3.1411049 0.48564443 -0.75529253
3.1449852 0.4665038 -0.7555353
3.1420255 0.44638118 -0.75407869
3.1677766 0.43021843 -0.75990516
3.1693947 0.41064891 -0.75966239
3.1516352 0.38870794 -0.75456423
3.1635964 0.37048736 -0.75699192
3.1494186 0.34925729 -0.7528649
3.1621156 0.33103338 -0.7555353
3.1631217 0.31153005 -0.75529253
3.1640077 0.29202682 -0.75504977
3.1754055 0.27343607 -0.75747746
3.1731553 0.25363922 -0.75650638
3.1727169 0.23402233 -0.75602084
3.1799004 0.21494091 -0.75747746
3.1743815 0.19501147 -0.75577807
3.176487 0.17558335 -0.75602084
3.1755667 0.155995 -0.7555353
3.1725872 0.13634197 -0.75456423
3.1733642 0.11687278 -0.75456423
3.1759608 0.097457975 -0.75504977
3.2472944 0.079680473 -0.77277189
3.1720679 0.058389235 -0.75383592
3.1694565 0.038890056 -0.75310767
3.1589646 0.019380389 -0.7504372
3.1502934 2.1916304e-07 -0.74825227
3.1463537 -0.019304369 -0.74728119
3.145206 -0.038597405 -0.74703842
3.1429703 -0.057858869 -0.74655288
3.1503143 -0.077336013 -0.74849504
3.1507502 -0.096694641 -0.74873781
3.1607611 -0.11642218 -0.75140828
3.1735556 -0.13640223 -0.754807
3.1775033 -0.15611205 -0.75602084
3.1745486 -0.17549808 -0.7555353
3.1782532 -0.19527267 -0.75674915
3.1837702 -0.2152309 -0.75844854
3.1736827 -0.23411658 -0.75626361
3.1683185 -0.25327489 -0.75529253
3.1647718 -0.2725434 -0.754807
3.1601422 -0.29168838 -0.75407869
3.1611891 -0.31135949 -0.754807
3.1640429 -0.33125713 -0.75602084
3.1542377 -0.34980685 -0.75407869
3.150105 -0.3689279 -0.75359321
3.1477821 -0.38824964 -0.75359321
3.1482265 -0.4079318 -0.75432146
3.1552763 -0.42855039 -0.75674915
3.1372211 -0.44571382 -0.7528649
3.1344273 -0.46495506 -0.7528649
3.13535 -0.48477313 -0.75383592
3.1361473 -0.50461996 -0.754807
3.1349053 -0.52417421 -0.75529253
3.1344974 -0.54389834 -0.75602084
3.124418 -0.56191659 -0.75432146
3.1256795 -0.58196664 -0.7555353
3.1220498 -0.60113454 -0.7555353
3.1173513 -0.62009013 -0.75529253
3.1096869 -0.6384244 -0.75432146
3.1199458 -0.66051209 -0.757963
3.1167819 -0.67985034 -0.75820577
3.1030874 -0.69683278 -0.75577807
3.0940278 -0.71476638 -0.75456423
3.08109 -0.73171705 -0.75237936
3.0765424 -0.75060844 -0.75237936
3.0747015 -0.77017981 -0.75310767
3.0717969 -0.78951502 -0.75359321
3.0631428 -0.80735797 -0.75262213
3.0525129 -0.82461786 -0.75116551
3.0455258 -0.84281403 -0.75067997
3.0365641 -0.86042589 -0.74970889
3.0312276 -0.87904173 -0.74970889
3.0285666 -0.89845318 -0.7504372
3.0202122 -0.91617334 -0.74970889
3.0284307 -0.93900228 -0.75335044
3.0244613 -0.95815337 -0.75383592
3.0212939 -0.97759002 -0.75456423
3.0152385 -0.9961099 -0.75456423
3.0053933 -1.0133512 -0.75359321
3.0110426 -1.0358797 -0.75674915
2.9991384 -1.0524064 -0.75529253
2.9990172 -1.0730791 -0.75699192
2.9723294 -1.0841401 -0.75165105
2.9601662 -1.1003275 -0.75019443
2.9488237 -1.1167505 -0.74898058
2.9373913 -1.1330758 -0.74776673
2.9339945 -1.152498 -0.74873781
2.9358737 -1.1740844 -0.75116551
2.9313095 -1.1931747 -0.75189382
2.9275177 -1.2126247 -0.7528649
2.9155529 -1.2286794 -0.75165105
2.9061761 -1.2457807 -0.75116551
2.9011447 -1.2647532 -0.75189382
2.880029 -1.2766289 -0.74825227
2.8783314 -1.2970685 -0.74995166
2.858855 -1.3094493 -0.74679565
2.8542838 -1.3286051 -0.74776673
2.8574762 -1.3514898 -0.75092274
2.8465071 -1.3677361 -0.75019443
2.8406763 -1.3864536 -0.75092274
2.8468888 -1.4111873 -0.75504977
2.8312454 -1.425137 -0.75310767
2.8155386 -1.438948 -0.75116551
2.8135436 -1.4597734 -0.75310767
2.8019593 -1.4756525 -0.75237936
2.7937074 -1.4932748 -0.75262213
2.7725565 -1.5039086 -0.74922335
2.7530804 -1.5152756 -0.74631011
2.7403438 -1.5302465 -0.74533904
2.7317467 -1.5475106 -0.74558181
2.7221999 -1.5642431 -0.74558181
2.7150645 -1.5823832 -0.74631011
2.6961198 -1.5935795 -0.74363965
2.7012649 -1.6190752 -0.7480095
2.6887932 -1.634107 -0.74728119
2.6803672 -1.6515927 -0.74776673
2.6866341 -1.6782933 -0.75262213
2.6754663 -1.6942273 -0.75237936
2.6650202 -1.7106117 -0.75237936
2.655287 -1.7274611 -0.75262213
2.6365407 -1.7383783 -0.75019443
2.6234052 -1.7529052 -0.74946612
2.6109941 -1.7678808 -0.74898058
2.5960989 -1.7811228 -0.74776673
2.5835285 -1.7959106 -0.74728119
2.5772181 -1.8150823 -0.74873781
2.5707691 -1.834244 -0.75019443
2.5571079 -1.8482777 -0.74946612
2.5527616 -1.8690934 -0.75165105
2.543582 -1.8864563 -0.75237936
2.5257556 -1.8973644 -0.7504372
2.5163815 -1.9145894 -0.75116551
2.5053546 -1.930586 -0.75140828
2.4934616 -1.9459223 -0.75140828
2.4822357 -1.961787 -0.75165105
2.4716659 -1.9781936 -0.75213659
2.4579747 -1.9921001 -0.75165105
2.4449553 -2.0065289 -0.75140828
2.4408021 -2.028316 -0.75407869
2.4275684 -2.0426295 -0.75383592
2.4120367 -2.0549688 -0.7528649
2.4030538 -2.0728996 -0.75407869
2.387368 -2.0850518 -0.75310767
2.3738029 -2.0990183 -0.7528649
2.3652139 -2.1174281 -0.75432146
2.3485844 -2.1286423 -0.75310767
2.3290484 -2.1371076 -0.75092274
2.3201544 -2.1553211 -0.75237936
2.3111246 -2.173506 -0.75383592
2.2956376 -2.1856382 -0.75310767
2.2898638 -2.2070911 -0.75577807
2.2755842 -2.220422 -0.7555353
2.2584677 -2.2309332 -0.75432146
2.2461078 -2.2461212 -0.754807
2.2254689 -2.2529569 -0.75237936
2.2068624 -2.2617075 -0.75067997
2.1942892 -2.2766035 -0.75116551
2.1816163 -2.2914302 -0.75165105
2.1748228 -2.3125494 -0.75432146
2.1685121 -2.3343821 -0.75723469
2.1528366 -2.3462138 -0.75674915
2.1390512 -2.3600981 -0.75699192
2.1238828 -2.3724558 -0.75674915
2.1035047 -2.3789003 -0.75456423
2.0869548 -2.3895698 -0.75383592
2.0678201 -2.3971865 -0.75213659
2.0524433 -2.4090905 -0.75189382
2.0407443 -2.4253514 -0.75310767
2.0332608 -2.4467833 -0.75602084
2.0225155 -2.4644639 -0.75772023
2.015903 -2.4873817 -0.76111901
1.9939381 -2.4913707 -0.75844854
1.9744052 -2.498229 -0.75674915
1.9596357 -2.5110617 -0.75699192
1.9335381 -2.5092032 -0.75262213
1.9163443 -2.5187032 -0.75189382
1.9002713 -2.5296385 -0.75165105
1.8795156 -2.5342362 -0.74946612
1.8656489 -2.5480697 -0.75019443
1.8511151 -2.5610421 -0.75067997
1.8455026 -2.58657 -0.75504977
1.8212227 -2.5859451 -0.75140828
1.8186032 -2.6161933 -0.75723469
1.7893519 -2.6080997 -0.75140828
1.7705973 -2.6150124 -0.75019443
1.7550572 -2.6266341 -0.7504372
1.7394412 -2.6381636 -0.75067997
1.7237496 -2.6496003 -0.75092274
1.7158389 -2.6731925 -0.754807
1.6968107 -2.6795714 -0.75359321
1.6803373 -2.6899323 -0.75359321
1.6627834 -2.69854 -0.75310767
1.6477047 -2.7111793 -0.75383592
1.6280477 -2.7162449 -0.75237936
1.6143103 -2.731195 -0.75383592
1.5994742 -2.7444022 -0.754807
1.5801897 -2.7499583 -0.75359321
1.56472 -2.762135 -0.75432146
1.5439613 -2.7649066 -0.75237936
1.5264996 -2.7734783 -0.75213659
1.5136131 -2.7904685 -0.75432146
1.4923499 -2.792002 -0.75213659
1.4756421 -2.8019648 -0.75237936
1.4588681 -2.8118277 -0.75262213
1.4380585 -2.8138144 -0.75067997
1.4203303 -2.8217185 -0.7504372
1.3999763 -2.824295 -0.74873781
1.3800694 -2.8276002 -0.74728119
1.3664719 -2.8438859 -0.74946612
1.347753 -2.8495855 -0.74873781
1.3281977 -2.8534033 -0.74752396
1.3151046 -2.8712027 -0.75019443
1.2954714 -2.8747952 -0.74898058
1.2778076 -2.8826897 -0.74898058
1.2620324 -2.894923 -0.75019443
1.2431 -2.8999369 -0.74946612
1.2267885 -2.9110863 -0.7504372
1.2089034 -2.9185588 -0.7504372
1.1891457 -2.9214284 -0.74922335
1.1708379 -2.9277689 -0.74898058
1.149308 -2.9258676 -0.74655288
1.1292409 -2.9274333 -0.74509627
1.1133165 -2.9397509 -0.74655288
1.0955954 -2.9474363 -0.74679565
1.0804782 -2.9623065 -0.74898058
1.0648932 -2.9761884 -0.75092274
1.0466117 -2.9826665 -0.75092274
1.0276603 -2.9871974 -0.7504372
1.0111693 -2.9989629 -0.75189382
0.99244511 -3.0041895 -0.75165105
0.97160667 -3.0028379 -0.74970889
0.95287067 -3.007818 -0.74946612
0.93238848 -3.0071213 -0.74776673
0.91279453 -3.0090723 -0.74679565
0.89734513 -3.0248477 -0.74946612
0.87768877 -3.0265696 -0.74849504
0.8606863 -3.0374987 -0.74995166
0.84539139 -3.054878 -0.75310767
0.82587314 -3.057198 -0.75237936
0.80858034 -3.0678368 -0.75383592
0.78974122 -3.0727403 -0.75383592
0.7694602 -3.0718815 -0.75237936
0.75197452 -3.0822003 -0.75383592
0.73170555 -3.0810928 -0.75237936
0.71213257 -3.0826886 -0.75165105
0.69447732 -3.0926797 -0.75310767
0.67528152 -3.0959349 -0.7528649
0.65607196 -3.0990708 -0.75262213
0.63412303 -3.088783 -0.74898058
0.61534756 -3.0935674 -0.74922335
0.59708643 -3.1010954 -0.75019443
0.57946491 -3.1123309 -0.75213659
0.5596717 -3.1120083 -0.75116551
0.54040074 -3.114428 -0.75092274
0.52096152 -3.1157715 -0.7504372
0.50306374 -3.1265721 -0.75237936
0.48298275 -3.1238475 -0.75092274
0.46338013 -3.1238732 -0.75019443
0.44297883 -3.1180131 -0.7480095
0.42422932 -3.1235566 -0.74873781
0.40505555 -3.1261008 -0.74873781
0.38645849 -3.1333416 -0.74995166
0.36722541 -3.1356537 -0.74995166
0.34872445 -3.1445975 -0.75165105
0.32942298 -3.146678 -0.75165105
0.30991969 -3.1467092 -0.75116551
0.29033959 -3.1456535 -0.7504372
0.27103278 -3.1473758 -0.7504372
0.25210044 -3.1538148 -0.75165105
0.23366731 -3.1678796 -0.754807
0.2143553 -3.1711893 -0.75529253
0.19489321 -3.1724451 -0.75529253
0.176062 -3.1852045 -0.75820577
0.15642016 -3.1842871 -0.75772023
0.13634197 -3.1725872 -0.75456423
0.11701416 -3.1772418 -0.7555353
0.097487375 -3.1769304 -0.75529253
0.077875026 -3.1726198 -0.75407869
0.058231767 -3.1633387 -0.75165105
0.038832333 -3.1646063 -0.75189382
0.019391574 -3.1609049 -0.75092274
-1.5797731e-06 -3.1551437 -0.74946612
-0.019373802 -3.1570244 -0.74995166
-0.038781367 -3.1597562 -0.75067997
-0.058077458 -3.1546092 -0.74946612
-0.077867687 -3.1716495 -0.75383592
-0.097688496 -3.1827474 -0.75674915
-0.11699923 -3.1762717 -0.75529253
-0.13665432 -3.1793706 -0.75626361
-0.15611205 -3.1775033 -0.75602084
-0.17522857 -3.1697056 -0.75432146
-0.1950333 -3.1743801 -0.75577807
-0.21417832 -3.1682844 -0.75456423
-0.23361452 -3.1669106 -0.75456423
-0.25319725 -3.1673515 -0.75504977
-0.27304491 -3.1705706 -0.75626361
-0.29195693 -3.1630399 -0.754807
-0.31097773 -3.1573274 -0.75383592
-0.33125713 -3.1640429 -0.75602084
-0.34916314 -3.148453 -0.75262213
-0.36847511 -3.1462512 -0.75262213
-0.38872606 -3.151633 -0.75456423
-0.40743175 -3.1443787 -0.75335044
-0.42776492 -3.1495092 -0.75529253
-0.44790274 -3.1525874 -0.75674915
-0.46595395 -3.141144 -0.75456423
-0.48611036 -3.1439776 -0.75602084
-0.50338429 -3.1284857 -0.7528649
-0.52160883 -3.1195974 -0.75140828
-0.54090673 -3.1172941 -0.75165105
-0.55899149 -3.1081882 -0.75019443
-0.5784083 -3.106607 -0.75067997
-0.59874558 -3.1096671 -0.75237936
-0.61895251 -3.1116431 -0.75383592
-0.63607913 -3.0982847 -0.75140828
-0.65729177 -3.1047621 -0.75407869
-0.67695117 -3.1035137 -0.754807
-0.69406509 -3.0907838 -0.75262213
-0.71170455 -3.0807962 -0.75116551
-0.7290231 -3.0697651 -0.74946612
-0.7476148 -3.0642917 -0.74922335
-0.76663893 -3.0605876 -0.74946612
-0.78685486 -3.0614629 -0.75092274
-0.80562484 -3.0565772 -0.75092274
-0.82436448 -3.0515764 -0.75092274
-0.84436852 -3.0511348 -0.75213659
-0.86466289 -3.051496 -0.75359321
-0.88499343 -3.0517228 -0.75504977
-0.91254163 -3.0759926 -0.7628184
-0.92604142 -3.0526993 -0.75820577
-0.94734371 -3.0552979 -0.7603907
-0.96519291 -3.0466535 -0.75966239
-0.98117781 -3.0323682 -0.75747746
-0.99428207 -3.0097125 -0.75310767
-1.009938 -2.9952829 -0.75092274
-1.0216634 -2.9697685 -0.74582458
-1.0369725 -2.9552066 -0.74363965
-1.0557401 -2.9506147 -0.74412519
-1.0671699 -2.9258566 -0.73926985
-1.0901775 -2.9328911 -0.74291134
-1.1115919 -2.9352176 -0.74533904
-1.1309791 -2.9319615 -0.74631011
-1.1471728 -2.9204528 -0.74509627
-1.1712 -2.928669 -0.74922335
-1.1902461 -2.9241226 -0.74995166
-1.2074227 -2.9149721 -0.74946612
-1.2283024 -2.914659 -0.75140828
-1.2469283 -2.9088504 -0.75189382
-1.2620373 -2.8949208 -0.75019443
-1.282137 -2.8924429 -0.75165105
-1.2982651 -2.8809843 -0.75067997
-1.3130879 -2.8667915 -0.74898058
-1.3380282 -2.8745084 -0.75335044
-1.3489993 -2.8522155 -0.74946612
-1.3702588 -2.8517525 -0.75165105
-1.3919892 -2.8520074 -0.75407869
-1.4116185 -2.8477576 -0.75529253
-1.4312478 -2.8433743 -0.75650638
-1.4517599 -2.8405843 -0.75820577
-1.4754213 -2.8436759 -0.76160455
-1.4905802 -2.8302784 -0.7603907
-1.5079184 -2.8210793 -0.7603907
-1.5270512 -2.8151839 -0.76136178
-1.543828 -2.8049114 -0.76111901
-1.5610096 -2.7953858 -0.76111901
-1.5800463 -2.7891304 -0.76209009
-1.5918103 -2.7701328 -0.75941962
-1.6102439 -2.7628274 -0.76014793
-1.626672 -2.7520602 -0.75990516
-1.6460229 -2.7461867 -0.76111901
-1.6598175 -2.7310624 -0.75966239
-1.6780713 -2.7233036 -0.7603907
-1.6988636 -2.7195363 -0.76233286
-1.7144799 -2.7074223 -0.76184732
-1.734206 -2.7017486 -0.76330394
-1.7539268 -2.6959345 -0.76476055
-1.7768471 -2.6948383 -0.76767373
-1.7938882 -2.6846914 -0.7679165
-1.8125042 -2.676846 -0.76888758
-1.8294439 -2.6664741 -0.76913035
-1.8391227 -2.6456425 -0.76621711
-1.8609102 -2.6422372 -0.76864481
-1.8765239 -2.6299798 -0.76840204
-1.89092 -2.6160581 -0.76767373
-1.9069363 -2.6044064 -0.76767373
-1.9246153 -2.5949936 -0.76840204
-1.9387528 -2.5808094 -0.76767373
-1.9563149 -2.5711801 -0.76840204
-1.9738318 -2.5614326 -0.76913035
-1.9847344 -2.5431569 -0.76718819
-2.0009034 -2.5316918 -0.76743096
-2.015187 -2.5178525 -0.76694542
-2.028765 -2.5031798 -0.76621711
-2.0391605 -2.4846871 -0.76427501
-2.0556085 -2.4736202 -0.76476055
-2.0763712 -2.467639 -0.76694542
-2.0883262 -2.4511611 -0.76573163
-2.0982559 -2.4324267 -0.76378947
-2.1137798 -2.4202366 -0.76403224
-2.140162 -2.4202979 -0.76840204
-2.1491466 -2.4006178 -0.76621711
-2.1690497 -2.3931341 -0.76815927
-2.1823807 -2.378351 -0.76767373
-2.1936305 -2.3613629 -0.76645988
-2.2067485 -2.3464458 -0.7659744
-2.2150819 -2.3265402 -0.76378947
-2.2219074 -2.3052247 -0.76111901
-2.2339768 -2.2894657 -0.7603907
-2.235707 -2.2632968 -0.75602084
-2.2564144 -2.2563932 -0.75844854
-2.2709072 -2.2431872 -0.75869131
-2.2749045 -2.2197297 -0.75529253
-2.2856867 -2.2030375 -0.75432146
-2.2893217 -2.1796103 -0.75092274
-2.297704 -2.160872 -0.74922335
-2.3102086 -2.1460729 -0.74898058
-2.3204732 -2.1292348 -0.7480095
-2.3342133 -2.115608 -0.74825227
-2.3471503 -2.1012456 -0.74825227
-2.3607261 -2.0874465 -0.74849504
-2.3683739 -2.0684571 -0.74679565
-2.3758776 -2.0494525 -0.74509627
-2.3817601 -2.0291762 -0.74291134
-2.3926809 -2.0132754 -0.7424258
-2.4027503 -1.9966969 -0.74169749
-2.4127061 -1.9800709 -0.74096924
-2.4233024 -1.9640086 -0.7404837
-2.4330349 -1.9472848 -0.73975539
-2.4350405 -1.9245034 -0.73659939
-2.4422133 -1.9059469 -0.73514277
-2.4461756 -1.8850075 -0.73271507
-2.4507456 -1.8646785 -0.73053014
-2.4559343 -1.844947 -0.72858804
-2.462532 -1.8263774 -0.72713143
-2.4705603 -1.8089421 -0.72616035
-2.4768949 -1.790341 -0.72470373
-2.4830942 -1.7717305 -0.72324711
-2.4907453 -1.754228 -0.72227603
-2.4974782 -1.736145 -0.72106218
-2.5080841 -1.7207881 -0.72106218
-2.5185955 -1.7053664 -0.72106218
-2.5314324 -1.6914965 -0.72179049
-2.5401433 -1.6748646 -0.72130495
-2.5495589 -1.6587183 -0.72106218
-2.5547893 -1.6399012 -0.71960557
-2.5590651 -1.6205635 -0.71790618
-2.5599082 -1.5991807 -0.71523577
-2.5597594 -1.5773402 -0.71232253
-2.5652437 -1.5590867 -0.71110868
-2.5689359 -1.5398283 -0.7094093
-2.57583 -1.5225568 -0.70868099
-2.577579 -1.5023296 -0.70649606
-2.576653 -1.4806895 -0.70358288
-2.58569 -1.4648516 -0.70358288
-2.5870051 -1.4447047 -0.70139796
-2.5881705 -1.4245969 -0.69921303
-2.5977159 -1.4091516 -0.6994558
-2.5977564 -1.388616 -0.6970281
-2.6113787 -1.3753606 -0.69848472
-2.61374 -1.3561865 -0.69678533
-2.6211481 -1.3396822 -0.69654256
-2.6258523 -1.3218306 -0.69557148
-2.6347828 -1.3061243 -0.69581425
-2.6436193 -1.2903582 -0.69605702
-2.6523616 -1.2745328 -0.69629979
-2.6618862 -1.259063 -0.69678533
-2.6651635 -1.240661 -0.69557148
-2.6771364 -1.2263029 -0.69678533
-2.6828413 -1.2090566 -0.69629979
-2.6875484 -1.191394 -0.69557148
-2.6939187 -1.1744937 -0.69532871
-2.692157 -1.1541233 -0.69290102
-2.6929293 -1.134948 -0.69120169
-2.6971533 -1.1172904 -0.69047338
-2.6886814 -1.0945083 -0.68634629
-2.6953464 -1.0779902 -0.68634629
-2.6955888 -1.0589511 -0.6846469
-2.6911731 -1.0382059 -0.68173367
-2.6920488 -1.0196142 -0.68027705
-0.28373596 -0.10659442 -0.035726588
-0.28165025 -0.10385523 -0.034998283
-0.2804552 -0.10147215 -0.034512743
-0.28198802 -0.10007026 -0.034755513
-0.28443161 -0.09896861 -0.035241049
-0.28595287 -0.09753111 -0.035483819
-0.29023087 -0.096990526 -0.036454894
-0.28897434 -0.09461128 -0.035969354
-0.28492495 -0.091373242 -0.034755513
-0.28084689 -0.088188522 -0.033541668
-0.27209854 -0.083651051 -0.031113984
-0.27074644 -0.081428804 -0.030628446
-0.26937738 -0.079226322 -0.030142911
-0.26799157 -0.07704372 -0.029657373
-0.26752421 -0.075139515 -0.029414605
-0.26236057 -0.071980737 -0.027957993
-0.25904474 -0.069381997 -0.026986919
-0.26134485 -0.068273485 -0.027472457
-0.26175886 -0.066668615 -0.027472457
-0.26310551 -0.065290824 -0.027715225
-0.2644451 -0.063899003 -0.027957993
-0 -0 -0
-0.26142296 -0.05980026 -0.026986919
-0.26273283 -0.058401458 -0.027229687
-0.261188 -0.056387134 -0.02674415
-0.26152906 -0.054783452 -0.02674415
-0.25995725 -0.052799907 -0.026258614
-0 -0 -0
-0 -0 -0
-0 -0 -0
-0 -0 -0
-0 -0 -0
-0 -0 -0
-0 -0 -0
-0 -0 -0
-0 -0 -0
-0 -0 -0
-0 -0 -0
-0 -0 -0
-0 -0 -0
-0 -0 -0
-0 -0 -0
-0 -0 -0
-0 -0 -0
-0 -0 -0
-0 -0 -0
-0.28575015 -0.022143394 -0.031599522
-0.28297693 -0.020194445 -0.030871216
-0.29084176 -0.018930769 -0.032813363
-0.28998381 -0.017092656 -0.032570597
-0.2862075 -0.015124065 -0.031599522
-0.28726411 -0.013408938 -0.031842291
-0.28831044 -0.011681413 -0.032085057
-0.28837666 -0.0099121537 -0.032085057
-0.29328108 -0.0082597584 -0.033298902
-0.29720592 -0.0065300493 -0.034269974
-0.29724041 -0.004706305 -0.034269974
-0.29435349 -0.0028656058 -0.033541668
-0.28563476 -0.0010626708 -0.031356752
-0 0 -0
-0.27980626 0.002369002 -0.029900141
-0.27493688 0.0039947373 -0.028686298
-0 0 -0
-0 0 -0
-0.27772501 0.0091629466 -0.029414605
-0.27378687 0.01069881 -0.02844353
-0 0 -0
-0.26782346 0.013734371 -0.026986919
-0.26676589 0.015317601 -0.02674415
-0.26182765 0.016625231 -0.025530308
-0.26354727 -0.0062277284 -0.028788012
-0.27325189 -0.0047942633 -0.031323902
-0.27230895 -0.0031050907 -0.031070312
-0.27135557 -0.0014276708 -0.030816725
-0.27135924 0.00023736256 -0.030816725
-0.27135268 0.001902387 -0.030816725
-0.27423763 0.0036012419 -0.03157749
-0.26744026 0.005163217 -0.029802367
-0.27513981 0.0069894576 -0.031831082
-0 0 -0
-0 0 -0
-0 0 -0
-0 0 -0
-0 0 -0
-0 0 -0
-0 0 -0
-0 0 -0
-0 0 -0
-0 0 -0
-0 0 -0
-0 0 -0
-0 0 -0
-0 0 -0
-0 0 -0
-0 0 -0
-0 0 -0
-0 0 -0
-0 0 -0
-0 0 -0
-0 0 -0
-0 0 -0
-0 0 -0
-0 0 -0
-0 0 -0
-0 0 -0
-0 0 -0
-0 0 -0
-0 0 -0
-0 0 -0
-0 0 -0
-0 0 -0
-0 0 -0
-0 0 -0
-0 0 -0
-0 0 -0
-0 0 -0
-0 0 -0
-0 0 -0
-0 0 -0
-0 0 -0
-0 0 -0
-0 0 -0
-0 0 -0
-0 0 -0
-0 0 -0
-0 0 -0
-0 0 -0
-0 0 -0
-0 0 -0
-0 0 -0
-0 0 -0
-0 0 -0
-0 0 -0
-0 0 -0
-0 0 -0
-0 0 -0
-0 0 -0
-0 0 -0
-0 0 -0
-0 0 -0
-0 0 -0
-0 0 -0
-0 0 -0
-0 0 -0
-0 0 -0
-0 0 -0
-0 0 -0
-0 0 -0
-0 0 -0
-0 0 -0
-0 0 -0
-0 0 -0
-0 0 -0
-0 0 -0
-0 0 -0
-0 0 -0
-0 0 -0
-0 0 -0
-0 0 -0
-0 0 -0
-0 0 -0
-0 0 -0
-0 0 -0
-0 0 -0
-0.25973246 0.16029781 -0.039692342
-0.26120609 0.16342449 -0.04045311
-0.26510367 0.16812631 -0.041974645
-0 0 -0
-0 0 -0
-0.26196408 0.17297752 -0.041974645
-0.26089779 0.17458165 -0.041974645
-0.24059053 0.1631745 -0.035888508
-0.25235209 0.17339596 -0.039945934
-0.25366718 0.17659608 -0.040706702
-0.266029 0.18761006 -0.045017716
-0.24202788 0.17295928 -0.037663631
-0.24488355 0.17727202 -0.038931575
-0.25940743 0.19019105 -0.04400336
-0.24268971 0.18026377 -0.038931575
-0.2578277 0.19394058 -0.044256948
-0.28204837 0.21483266 -0.052625388
-0.27612549 0.21301936 -0.051103853
-0.2542142 0.19865349 -0.044256948
-0.25982389 0.20560366 -0.046539251
-0.24797942 0.19873819 -0.042989001
-0.25878495 0.20999384 -0.047046427
-0.27769038 0.22813459 -0.053893335
-0.26139879 0.21747828 -0.04882155
-0.277832 0.2340145 -0.054907691
-0.27639088 0.23571484 -0.054907691
-0.25515297 0.22035876 -0.048060786
-0.27347746 0.23908882 -0.054907691
-0.27345535 0.24204302 -0.05541487
-0.25970665 0.23275523 -0.051103853
-0.2582736 0.23434438 -0.051103853
-0.27038005 0.24834257 -0.055922046
-0.23836015 0.22170568 -0.045017716
-0.26096675 0.24568139 -0.053639743
-0.26506209 0.25261074 -0.055668458
-0.26141652 0.25221974 -0.054907691
-0.23769657 0.23221454 -0.046792839
-0.23626725 0.23366864 -0.046792839
-0.26288927 0.26314113 -0.057189994
-0.26535085 0.2688759 -0.058711529
-0.25964031 0.26634738 -0.057189994
-0.26942 0.27976871 -0.061501008
-0 0 -0
-0 0 -0
-0 0 -0
-0 0 -0
-0 0 -0
-0 0 -0
-0 0 -0
-0 0 -0
-0 0 -0
-0 0 -0
-0 0 -0
-1.9748194 2.3742142 -0.76926821
-1.9602143 2.3862867 -0.76926821
-1.9430975 2.3952649 -0.76825386
-1.9338077 2.4139361 -0.77053618
-1.9195598 2.4265149 -0.7707898
-1.9105906 2.4458697 -0.77332568
-1.9020468 2.4659712 -0.77611518
-1.8845354 2.4745178 -0.77510077
-1.8733866 2.4914458 -0.77687591
-1.8609476 2.506777 -0.77814388
-1.8369526 2.5064464 -0.77434003
-1.8272098 2.5255067 -0.77687591
-1.8088678 2.5327353 -0.77560794
-1.7905059 2.539834 -0.77434003
-1.7820717 2.5610936 -0.77763671
-1.7663237 2.57198 -0.77763671
-1.7499663 2.5819688 -0.77738309
-1.7378558 2.5982857 -0.77915823
-1.7282755 2.6185873 -0.78220129
-1.7074239 2.6218476 -0.77991897
-1.6881664 2.6273925 -0.77839744
-1.6699413 2.6344337 -0.77738309
-1.6511805 2.6405301 -0.77611518
-1.6349474 2.6506119 -0.77611518
-1.6226757 2.6672046 -0.77814388
-1.6112573 2.6854048 -0.78067976
-1.5957351 2.6969056 -0.78118694
-1.5830576 2.7133298 -0.78321564
-1.5673441 2.724669 -0.78372282
-1.5510736 2.735076 -0.78397644
-1.5304854 2.7377875 -0.78194767
-1.5155256 2.7505155 -0.78296208
-1.4986202 2.7597628 -0.78296208
-1.4812019 2.7680535 -0.78270847
-1.4623846 2.7736673 -0.78169411
-1.4440001 2.7800131 -0.78093332
-1.4238302 2.7827933 -0.77915823
-1.403245 2.7845674 -0.77712953
-1.3844124 2.7896593 -0.77611518
-1.367694 2.7989705 -0.77636874
-1.3437829 2.7933636 -0.77231133
-1.3266178 2.8015563 -0.77231133
-1.3069506 2.8043833 -0.7707898
-1.2893152 2.8114705 -0.77053618
-1.272836 2.8210919 -0.77104336
-1.2606049 2.840342 -0.77434003
-1.2412176 2.8435912 -0.77307206
-1.2122972 2.8244882 -0.76546443
-1.2081099 2.8630645 -0.77434003
-1.1897783 2.8686366 -0.77383286
-1.1714238 2.8740914 -0.77332568
-1.1544861 2.8830209 -0.77383286
