# .PCD v0.7 - Point Cloud Data file format
VERSION 0.7
FIELDS x y z
SIZE 4 4 4
TYPE F F F
COUNT 1 1 1
WIDTH 1607
HEIGHT 1
VIEWPOINT 0 0 0 1 0 0 0
POINTS 1607
DATA ascii
5.2085257 0.771819 -0.75681591
5.1779194 0.73485172 -0.75143886
5.2146654 0.70744616 -0.75636786
5.2336178 0.67733663 -0.75860828
5.2239356 0.64352155 -0.75651717
5.2071614 0.60904837 -0.7533806
5.2098179 0.57697773 -0.75323123
5.186707 0.54223013 -0.74919844
5.2194581 0.51329148 -0.75367934
5.2402325 0.48288503 -0.75636786
5.244082 0.45080695 -0.75651717
5.227036 0.41705292 -0.75352997
5.2482333 0.38634768 -0.75636786
5.2238679 0.35234717 -0.75233507
5.2683702 0.32287896 -0.75875765
5.2248368 0.28805313 -0.75188696
5.2413197 0.25671095 -0.75412738
5.2378569 0.22433554 -0.7533806
5.2559328 0.1928049 -0.75591975
5.2510872 0.16037169 -0.7550236
5.2470298 0.12802911 -0.75427675
5.2605686 0.096063368 -0.75621849
5.2521605 0.063677415 -0.75487423
5.24652 0.031415362 -0.75397801
5.2733111 -0.00078717089 -0.7580108
5.2712293 -0.033130717 -0.75771213
5.2926784 -0.065748759 -0.76099807
5.2911868 -0.098204218 -0.7608487
5.2815881 -0.13044679 -0.75950444
5.2816768 -0.16288225 -0.75965381
5.2667446 -0.19477229 -0.75756276
5.2427297 -0.22609983 -0.75412738
5.2353182 -0.25797105 -0.75323123
5.2573309 -0.29140812 -0.75681591
5.2692604 -0.32451499 -0.75890702
5.2405343 -0.35503003 -0.75487423
5.2678394 -0.38937181 -0.75935507
5.2633801 -0.42152902 -0.75905639
5.26759 -0.454413 -0.76010191
5.2745485 -0.48763818 -0.76159555
5.2931046 -0.52213323 -0.76488149
5.3016019 -0.55584109 -0.76667386
5.2725406 -0.58551759 -0.76279044
5.2796512 -0.61912739 -0.76443344
5.2855659 -0.6527251 -0.76592708
5.2432203 -0.68017501 -0.76010191
5.2458062 -0.71326804 -0.76114744
5.2511201 -0.74683672 -0.76264107
5.2523069 -0.77991563 -0.76353723
5.2298346 -0.80940247 -0.7608487
5.2218409 -0.84100461 -0.76040065
5.2302351 -0.87531734 -0.7624917
5.2656808 -0.91450799 -0.76876497
5.2375889 -0.94276667 -0.7653296
5.2317052 -0.97488612 -0.7653296
5.225625 -1.006969 -0.7653296
5.1931658 -1.0337957 -0.76129681
5.2196541 -1.072414 -0.76637512
5.1974993 -1.1011387 -0.76398534
5.180985 -1.1308985 -0.7624917
5.2038536 -1.1693941 -0.76712197
5.1619005 -1.1932774 -0.76174492
5.1833401 -1.2317924 -0.76622576
5.1468687 -1.256532 -0.76174492
5.1294713 -1.2856828 -0.76025128
5.1846852 -1.3334008 -0.77010924
5.1821423 -1.3667024 -0.77100539
5.1268897 -1.3858209 -0.7636866
5.1497345 -1.4259672 -0.7686156
5.0990338 -1.4456623 -0.7620436
5.0995631 -1.4796796 -0.76353723
5.1102929 -1.516855 -0.76667386
5.0933204 -1.5458837 -0.76547897
5.0865722 -1.5779861 -0.76592708
5.1078968 -1.619033 -0.77085602
5.0357833 -1.6302308 -0.76099807
5.0200529 -1.659236 -0.76010191
5.0257039 -1.6953837 -0.76264107
5.0124021 -1.7252229 -0.76219296
5.0073195 -1.7579124 -0.76308918
4.9983006 -1.7892705 -0.76338786
4.9565773 -1.8087136 -0.75845891
4.97226 -1.8490932 -0.76279044
5.0033507 -1.8956922 -0.76966113
4.9390483 -1.9060531 -0.76114744
4.9438233 -1.9428359 -0.76383597
4.9308915 -1.9727666 -0.7636866
4.9470801 -2.0145516 -0.76831686
4.9227519 -2.0399449 -0.76637512
4.9247189 -2.076261 -0.76876497
4.9236989 -2.1115084 -0.77070665
4.8843694 -2.1302111 -0.76637512
4.8531303 -2.1521201 -0.76338786
4.8939137 -2.2062521 -0.77234966
4.8757901 -2.2341785 -0.77160287
4.886189 -2.2753289 -0.77563566
4.8346009 -2.2874975 -0.76936239
4.799088 -2.3068333 -0.76577771
4.7670746 -2.3275561 -0.76279044
4.7456169 -2.3532467 -0.76159555
4.7408018 -2.3872149 -0.76323855
4.7507133 -2.4288673 -0.76742071
4.7523932 -2.4666297 -0.77025855
4.7231736 -2.4883664 -0.76786876
4.6999698 -2.5131025 -0.76652449
4.6844611 -2.5418937 -0.76652449
4.6834993 -2.5786998 -0.76906365
4.6701779 -2.6088357 -0.76951176
4.6566629 -2.6389055 -0.76995987
4.6523833 -2.67433 -0.77205092
4.6461353 -2.7088046 -0.77384329
4.6098537 -2.7256825 -0.77040792
4.6100006 -2.7640898 -0.77339518
4.5861955 -2.7882135 -0.77220029
4.5563769 -2.808516 -0.76995987
4.5281591 -2.8296063 -0.76801813
4.470623 -2.8319306 -0.7608487
4.4897666 -2.8828232 -0.76742071
4.4504495 -2.8962901 -0.76353723
4.4672565 -2.9464159 -0.7698105
4.4466281 -2.972122 -0.76936239
4.4381304 -3.0060062 -0.77115476
4.4236779 -3.0359797 -0.77190155
4.3911676 -3.0534663 -0.76936239
4.3941708 -3.0957332 -0.77339518
4.3292255 -3.089885 -0.76488149
4.3270087 -3.1285603 -0.76801813
4.3069334 -3.1544671 -0.76786876
4.2851148 -3.1790667 -0.76742071
4.2552533 -3.1975756 -0.76547897
4.2308331 -3.220031 -0.76458281
4.2243066 -3.2561953 -0.76712197
4.1902204 -3.2710986 -0.76443344
4.1677442 -3.2949076 -0.76398534
4.1466765 -3.3198004 -0.76383597
4.1515708 -3.3657358 -0.76876497
4.1285486 -3.3892632 -0.76831686
4.1015925 -3.4094739 -0.76712197
4.0737882 -3.4288445 -0.76577771
4.0617018 -3.4614744 -0.76757002
4.0613432 -3.5044229 -0.77175218
4.018918 -3.5110571 -0.76757002
4.0106277 -3.5474453 -0.77025855
3.9843669 -3.5680287 -0.76936239
3.9953566 -3.6223025 -0.77608371
3.9788818 -3.6520996 -0.7772786
3.9404659 -3.6616335 -0.77399266
3.9236848 -3.6911643 -0.77518755
3.9023941 -3.7165341 -0.77548629
3.878093 -3.7390358 -0.77518755
3.8550777 -3.7627611 -0.77518755
3.8030863 -3.7578442 -0.76906365
3.7946343 -3.7957969 -0.77220029
3.8060029 -3.8541942 -0.77966845
3.8002295 -3.8958819 -0.78355187
3.753618 -3.8956244 -0.77862287
3.7391858 -3.928612 -0.78071398
3.7224584 -3.9594073 -0.78235698
3.6893487 -3.9727523 -0.78041524
3.6461921 -3.9749086 -0.77623308
3.6423104 -4.0199261 -0.78086334
3.6162574 -4.0407252 -0.78056461
3.5933602 -4.0650611 -0.78101271
3.5800524 -4.1004424 -0.78370124
3.543205 -4.108851 -0.78101271
3.5275412 -4.1418076 -0.78325313
3.5084245 -4.1709428 -0.78474677
3.488451 -4.1992378 -0.78609103
3.4808021 -4.2427359 -0.79042256
3.4310567 -4.2348146 -0.78474677
3.3728945 -4.2156324 -0.77697992
3.3432875 -4.2315931 -0.77608371
3.2187572 -4.1257114 -0.75188696
3.1668389 -4.1109118 -0.74531502
3.1349726 -4.1216073 -0.74367201
3.1066558 -4.1368117 -0.74292517
3.0871017 -4.1637402 -0.7444188
3.0714207 -4.1961703 -0.74695796
3.0629835 -4.2389846 -0.75143886
3.041508 -4.2641397 -0.75263375
3.0369103 -4.3134494 -0.75830954
3.0047455 -4.3238816 -0.75681591
3.0670524 -4.4719086 -0.78056461
3.0329065 -4.4808159 -0.77877223
3.0185325 -4.5190778 -0.78235698
2.9831314 -4.5259542 -0.78026587
2.9536879 -4.5416861 -0.77981782
2.9337721 -4.5722089 -0.78205824
2.9162359 -4.6068354 -0.7850455
2.8800609 -4.6120605 -0.78280503
2.8423765 -4.6144891 -0.7801165
2.799639 -4.6081781 -0.77593434
2.7784233 -4.637146 -0.77802545
2.741873 -4.6404843 -0.77563566
2.0247068 -3.4746401 -0.56891757
1.9802097 -3.4466956 -0.56189752
1.9517182 -3.4458735 -0.5596571
1.9257203 -3.4491491 -0.55816346
1.9021382 -3.4565682 -0.55741662
1.8780665 -3.4629586 -0.55652046
1.8479329 -3.457845 -0.55368257
1.8211561 -3.4586182 -0.55189019
1.7989901 -3.4679718 -0.55159146
1.7727309 -3.4692581 -0.54994851
1.7443027 -3.4659359 -0.54755867
1.7208093 -3.4721432 -0.54681188
1.6981722 -3.4799702 -0.54636377
1.6759317 -3.4885418 -0.54606503
1.6557621 -3.5014415 -0.54651314
1.6342465 -3.5115352 -0.54651314
1.6130809 -3.5223956 -0.54666251
1.5950905 -3.5403416 -0.54800677
1.577341 -3.5591035 -0.54950041
1.5550783 -3.5678082 -0.54935104
1.5374389 -3.5872812 -0.55099404
1.52077 -3.6094058 -0.55308509
1.503131 -3.6296329 -0.55487746
0 -0 -0
0 -0 -0
1.4627932 -3.7247999 -0.56593031
1.4349335 -3.720788 -0.5638392
1.9060612 -5.0353723 -0.77473944
1.8809797 -5.0627313 -0.7772786
0 -0 -0
1.3827878 -3.865684 -0.58161342
1.3587153 -3.8731627 -0.58146405
0 -0 -0
1.3227595 -3.9242163 -0.58699048
1.3051621 -3.9519775 -0.59012705
1.2900101 -3.9881377 -0.59460795
1.2762527 -4.0299158 -0.599985
1.2365853 -3.9894998 -0.59236753
1.2645448 -4.1701875 -0.61970091
1.2529764 -4.2252707 -0.62716901
1.1524904 -3.9754946 -0.58669174
1.2303755 -4.3440342 -0.6434496
1.3740965 -4.9681334 -0.74008727
1.4326868 -5.3067837 -0.79176682
1.3955684 -5.2982626 -0.7890783
1.3689313 -5.3297119 -0.79266298
1.3357232 -5.3360925 -0.79236424
1.2950001 -5.3115244 -0.78728592
1.2630692 -5.322257 -0.78773403
1.2279444 -5.3193083 -0.78609103
1.1950663 -5.325778 -0.78594166
1.1674142 -5.3561978 -0.78952634
1.1265545 -5.325531 -0.78370124
1.0986202 -5.3555908 -0.78728592
1.0630425 -5.3486528 -0.78519487
1.0320697 -5.3647852 -0.78668851
0.99931324 -5.3719888 -0.78683782
0.95952088 -5.3400636 -0.78101271
0.92876095 -5.3575416 -0.78280503
0.89831072 -5.3777695 -0.7850455
0.86388606 -5.3743935 -0.78370124
0.83164674 -5.384479 -0.78444803
0.79627699 -5.3738303 -0.78205824
0.76745033 -5.4079852 -0.78653914
0.73451847 -5.4145522 -0.78683782
0.70128161 -5.4189572 -0.78683782
0.66982841 -5.4378791 -0.7890783
0.63599098 -5.4379582 -0.78848082
0.6019606 -5.4358616 -0.78758466
0.56736439 -5.4276514 -0.78579229
0.53549856 -5.4457912 -0.78803277
0.49944887 -5.4204202 -0.78370124
0.46457547 -5.4046645 -0.78086334
0.43054169 -5.3965712 -0.77922034
0.39930254 -5.4247503 -0.78310376
0.36474928 -5.4083538 -0.78026587
0.33197924 -5.4173989 -0.78131139
0.29873246 -5.4193339 -0.78131139
0.26595595 -5.4309406 -0.78280503
0.23212223 -5.4206157 -0.78101271
0.20058693 -5.469368 -0.78818208
0.15656625 -5.1255693 -0.73605448
0.12284296 -5.0325265 -0.72186506
0.091961645 -5.0331855 -0.72186506
0.061029799 -5.0297003 -0.72126758
0.03019549 -5.034924 -0.72201443
-0.0007816701 -5.2584791 -0.75577039
-0.03363255 -5.3483529 -0.76936239
-0.0666738 -5.3658423 -0.77205092
-0.099782407 -5.3752184 -0.77354455
-0.13340269 -5.4002051 -0.77742797
-0.16717987 -5.4200397 -0.78056461
-0.20006585 -5.4090309 -0.77907097
-0.23149553 -5.3671994 -0.77294713
-0.26417926 -5.3607397 -0.77220029
-0.29822096 -5.3797503 -0.77533692
-0.3303709 -5.3640027 -0.77324581
-0.36140007 -5.3342524 -0.76906365
-0.39375812 -5.327004 -0.76831686
-0.42651573 -5.3254733 -0.76846623
-0.45841739 -5.31389 -0.76712197
-0.49283904 -5.3306684 -0.77010924
-0.52300876 -5.3019605 -0.76622576
-0.55387807 -5.282918 -0.76383597
-0.58704847 -5.2862988 -0.76488149
-0.62316561 -5.3140221 -0.76966113
-0.65551734 -5.308136 -0.76936239
-0.68692833 -5.2951889 -0.76801813
-0.71993977 -5.2947931 -0.7686156
-0.75562167 -5.3127909 -0.77205092
-0.78340638 -5.2757797 -0.76712197
-0.81621754 -5.2738047 -0.76757002
-0.84494054 -5.2462454 -0.76413471
-0.84982306 -5.0781064 -0.73919111
-0.87486708 -5.0377264 -0.73381406
-0.90646309 -5.0361562 -0.73441154
-0.93897939 -5.0392475 -0.7357558
-0.96988195 -5.033391 -0.7357558
-1.0223933 -5.1359529 -0.75248438
-1.0572742 -5.1460476 -0.7550236
-1.0939585 -5.1636453 -0.75875765
-1.1171783 -5.118196 -0.75278312
-1.153119 -5.1315026 -0.75591975
-1.1848065 -5.1252942 -0.75606912
-1.2036471 -5.065021 -0.74785417
-1.2384584 -5.0729084 -0.75024396
-1.2750959 -5.0872726 -0.75367934
-1.3070263 -5.0822253 -0.75412738
-1.3470184 -5.1075711 -0.75935507
-1.3927929 -5.1526604 -0.76771939
-1.4246469 -5.1449704 -0.76786876
-1.4613174 -5.1542053 -0.77070665
-1.4780252 -5.0938659 -0.76264107
-1.4520942 -4.8922882 -0.73232043
-1.4901321 -4.9097772 -0.73650259
-1.5419251 -4.9704208 -0.74755543
-1.5685074 -4.9486136 -0.74561369
-1.6140792 -4.985929 -0.75308186
-1.6421579 -4.9684215 -0.75188696
-1.675459 -4.9666834 -0.75323123
-1.7245789 -5.0105324 -0.76189429
-1.7592233 -5.0110507 -0.7636866
-1.7876033 -4.9936461 -0.76264107
-1.8277066 -5.0085897 -0.76682323
-1.8646116 -5.0139613 -0.76951176
-1.8879805 -4.9830103 -0.76637512
-1.9142457 -4.9602633 -0.76458281
-1.9497112 -4.961307 -0.76667386
-1.9823215 -4.9547582 -0.76757002
-2.012686 -4.9425015 -0.76757002
-2.0372937 -4.9163585 -0.7653296
-2.0639627 -4.895566 -0.76398534
-2.0939624 -4.8828096 -0.76398534
-2.1230924 -4.8680568 -0.7636866
-2.1545265 -4.8585534 -0.76428407
-2.1887696 -4.8551564 -0.76592708
-2.2255247 -4.856915 -0.76846623
-2.2494378 -4.8306203 -0.76637512
-2.2663429 -4.789916 -0.76189429
-2.2879765 -4.7598805 -0.75920576
-2.308893 -4.7288718 -0.75636786
-2.3418205 -4.7225876 -0.75771213
-2.3676395 -4.7019482 -0.75666654
-2.3874395 -4.6697264 -0.75367934
-2.4078448 -4.639194 -0.75099075
-2.4256604 -4.6042142 -0.74755543
-2.4496677 -4.5813975 -0.74621117
-2.4560308 -4.5263076 -0.73934048
-2.4794638 -4.5033579 -0.73799622
-2.5027075 -4.4802909 -0.73665196
-2.5213726 -4.449368 -0.73396343
-2.5412316 -4.4209561 -0.73172295
-2.5553567 -4.3830738 -0.72783953
-2.5852234 -4.3724179 -0.72873574
-2.6175985 -4.3657999 -0.73037869
-2.6366296 -4.3369851 -0.72813827
-2.6605961 -4.3165174 -0.72739148
-2.6823142 -4.2925649 -0.72604722
-2.7059557 -4.2718501 -0.72530037
-2.7214282 -4.2385278 -0.72231311
-2.7419889 -4.2134633 -0.72081947
-2.7590771 -4.1833549 -0.71842968
-2.7824953 -4.1630588 -0.71783227
-2.790792 -4.1205325 -0.713202
-2.7981124 -4.0772467 -0.70842236
-2.8027489 -4.0307803 -0.70304531
-2.8240106 -4.0086579 -0.70214915
-2.8565984 -4.0025206 -0.7042402
-2.8631384 -3.9600818 -0.69960999
-2.8867986 -3.9416416 -0.69946063
-2.8991437 -3.907975 -0.69647336
-2.9094019 -3.8719344 -0.69303805
-2.9253178 -3.8437829 -0.69109631
-2.9464324 -3.8226292 -0.69049883
-2.9552252 -3.7857754 -0.68691415
-2.9777853 -3.7667959 -0.68676478
-2.974262 -3.7152684 -0.6803422
-2.986414 -3.6838937 -0.67780304
-2.9738183 -3.62271 -0.66943872
-2.9789205 -3.5838683 -0.66540593
-3.0129554 -3.5798931 -0.66824383
-3.0284493 -3.5538144 -0.66675019
-3.0269377 -3.5082202 -0.66137314
-3.0347419 -3.4739466 -0.6582365
-3.0520689 -3.4508176 -0.65734035
-3.0712061 -3.429816 -0.65689224
-3.1121221 -3.4328787 -0.66137314
-3.1224267 -3.4020655 -0.65898329
-3.1297779 -3.3683591 -0.65599608
-3.1483538 -3.3469315 -0.65554798
-3.1360917 -3.2931888 -0.64837855
-3.1500611 -3.2674792 -0.64703429
-3.144491 -3.2219136 -0.64150786
-3.1648962 -3.2032621 -0.64165723
-3.1753988 -3.1746964 -0.63971549
-3.1948185 -3.1551528 -0.63971549
-3.1850917 -3.1071887 -0.63359165
-3.1884294 -3.0724967 -0.63030565
-3.2014906 -3.0474226 -0.62911075
-3.2006743 -3.0094388 -0.62507796
-3.2067602 -2.9783072 -0.62253881
-3.2133136 -2.9478831 -0.62014902
-3.2071557 -2.9062071 -0.61522001
-3.2418771 -2.9016364 -0.61865538
-3.2522104 -2.8751428 -0.61716175
-3.264576 -2.8505826 -0.61611617
-3.2647793 -2.8156497 -0.61268085
-3.2586544 -2.7756946 -0.60805058
-3.2635152 -2.7454665 -0.6056608
-3.2795391 -2.7247584 -0.60551143
-3.2694361 -2.6826396 -0.60028374
-3.2796876 -2.6575499 -0.59908885
-3.3051989 -2.6447868 -0.60088122
-3.309725 -2.6152644 -0.59864074
-3.3140137 -2.5857866 -0.59640032
-3.3415692 -2.5744522 -0.59864074
-3.3368373 -2.538341 -0.59475732
-3.3396969 -2.5083215 -0.59236753
-3.3478751 -2.4824839 -0.59102327
-3.34868 -2.4513857 -0.58833474
-3.3444204 -2.4168983 -0.58475
-3.3616025 -2.3980536 -0.5851981
-3.3657415 -2.3699846 -0.58325636
-3.3591053 -2.3346221 -0.57937294
-3.3603184 -2.3050218 -0.57698315
-3.3629329 -2.276603 -0.57489204
-3.3751941 -2.2548275 -0.57459337
-3.3774061 -2.2264595 -0.57250226
-3.3868587 -2.2029996 -0.57175547
-3.389492 -2.1752374 -0.56981373
-3.4144733 -2.1618006 -0.57190484
-3.4167693 -2.1340029 -0.5699631
-3.4213789 -2.1078138 -0.56846946
-3.4122736 -2.0734375 -0.56458604
-3.4079659 -2.0423007 -0.56159878
-3.4093649 -2.0148149 -0.5596571
-3.4173911 -1.9913695 -0.55891025
-3.4261155 -1.968394 -0.55831277
-3.4475944 -1.9526923 -0.55995578
-3.4422414 -1.9218663 -0.55696851
-3.4522362 -1.899756 -0.55666983
-3.4447026 -1.8681729 -0.55338383
-3.474417 -1.8567829 -0.55652046
-3.4647434 -1.8243791 -0.55293572
-3.483773 -1.807181 -0.55427998
-3.4991994 -1.7880192 -0.55502683
-3.4862535 -1.7545203 -0.55099404
-3.4765737 -1.7230034 -0.54755867
-3.4995229 -1.7077062 -0.54964978
-3.5108268 -1.6866293 -0.54979914
-3.5050175 -1.6574519 -0.54711062
-3.5151215 -1.6359142 -0.54711062
-3.5143037 -1.609378 -0.54531825
-3.5349319 -1.5926552 -0.54711062
-3.5554869 -1.5757395 -0.54890293
-3.540612 -1.5432341 -0.54487014
-3.5627396 -1.5269295 -0.54696125
-3.5538154 -1.4973673 -0.54397398
-3.568418 -1.4778016 -0.54487014
-3.5554354 -1.4469398 -0.54128546
-3.5523098 -1.4203283 -0.53934371
-0.27123365 -0.10768208 -0.0055211894
-0.26912129 -0.10494924 -0.0050731013
-0.27715877 -0.10609476 -0.006268003
-0.26204634 -0.098541312 -0.0037288361
-0.26357511 -0.097270042 -0.0038781988
-0.26509807 -0.095983714 -0.0040275618
-0.26848143 -0.09533643 -0.0044756499
-0 -0 -0
-0.27337942 -0.093296856 -0.0050731013
-0.27394673 -0.091617674 -0.0050731013
-0.27356285 -0.089630999 -0.0049237381
-0.27316496 -0.08765249 -0.0047743754
-0.27275309 -0.085682251 -0.0046250126
-0.27232739 -0.083720379 -0.0044756499
-0.2718879 -0.08176697 -0.0043262872
-0 -0 -0
-0.27096799 -0.077885911 -0.0040275618
-0.27144077 -0.076221816 -0.0040275618
-0.27381268 -0.075069882 -0.0043262872
-0.27235571 -0.072885081 -0.0040275618
-0.27375555 -0.071458347 -0.0041769245
-0.27418885 -0.069777265 -0.0041769245
-0.27557254 -0.068327568 -0.0043262872
-0.27598658 -0.066635408 -0.0043262872
-0 -0 -0
-0 -0 -0
-0 -0 -0
-0.26206008 -0.056571417 -0.0019364828
-0.26724553 -0.055954829 -0.0026832968
-0 -0 -0
-0.27082512 -0.053230863 -0.003131385
-0.27309093 -0.051929362 -0.0034301106
-0.27340442 -0.050252732 -0.0034301106
-0.2746819 -0.04874289 -0.0035794734
-0.27497581 -0.047056556 -0.0035794734
-0 -0 -0
-0.27455533 -0.043527916 -0.0034301106
-0.27286097 -0.041553013 -0.003131385
-0.27311081 -0.039877988 -0.003131385
-0.27237052 -0.038068753 -0.0029820222
-0.2735796 -0.036523495 -0.003131385
-0 -0 -0
-0.2740072 -0.033163503 -0.003131385
-0.27911952 -0.032024708 -0.0038781988
-0 -0 -0
-0 -0 -0
-0.27473855 -0.02642904 -0.003131385
-0.27095488 -0.0244049 -0.0025339341
-0.27405652 -0.022977162 -0.0029820222
-0.27419236 -0.021295151 -0.0029820222
-0 -0 -0
-0.27838081 -0.018169852 -0.0035794734
-0.28144893 -0.016624028 -0.0040275618
-0.28352088 -0.014993078 -0.0043262872
-0.2845954 -0.013295234 -0.0044756499
-0 -0 -0
-0.28473714 -0.0098018097 -0.0044756499
-0 -0 -0
-0 -0 -0
-0 -0 -0
-0 -0 -0
-0 0 -0
-0.28490496 0.000685215 -0.0044756499
-0.27896318 0.0023583425 -0.0035794734
-0 0 -0
-0 0 -0
-0.26701283 0.007124376 -0.0017871201
-0 0 -0
-0 0 -0
-0.27276191 0.012331303 -0.0026832968
-0.27564287 0.014169534 -0.003131385
-0.27851143 0.016043575 -0.0035794734
-0 0 -0
-0 -0 -0
-0 -0 -0
-0 -0 -0
-0 -0 -0
-0 -0 -0
-0 0 -0
-0 0 -0
-0 0 -0
-0 0 -0
-0 0 -0
-0 0 -0
-0 0 -0
-0 0 -0
-0 0 -0
-0 0 -0
-0 0 -0
-0 0 -0
-0 0 -0
-0 0 -0
-0 0 -0
-0 0 -0
-0 0 -0
-0 0 -0
-0 0 -0
-0 0 -0
-0 0 -0
-0 0 -0
-0 0 -0
-0 0 -0
-0 0 -0
-0 0 -0
-0 0 -0
-0 0 -0
-0 0 -0
-0 0 -0
-0 0 -0
-0 0 -0
-0 0 -0
-0 0 -0
-0 0 -0
-0 0 -0
-0 0 -0
-0 0 -0
-0 0 -0
-0 0 -0
-0 0 -0
-0 0 -0
-0 0 -0
-0 0 -0
-0 0 -0
-0 0 -0
-0 0 -0
-0 0 -0
-0 0 -0
-0 0 -0
-0 0 -0
-0 0 -0
-0 0 -0
-0 0 -0
-0 0 -0
-0 0 -0
-0 0 -0
-0 0 -0
-0 0 -0
-0 0 -0
-0 0 -0
-0 0 -0
-0 0 -0
-0 0 -0
-0 0 -0
-0 0 -0
-0 0 -0
-0 0 -0
-0 0 -0
-0 0 -0
-0 0 -0
-0 0 -0
-0 0 -0
-0 0 -0
-0 0 -0
-0 0 -0
-0 0 -0
-0 0 -0
-0 0 -0
-0 0 -0
-0 0 -0
-0 0 -0
-0 0 -0
-0 0 -0
-0 0 -0
-0 0 -0
-0 0 -0
-0 0 -0
-0 0 -0
-0 0 -0
-0 0 -0
-0 0 -0
-0 0 -0
-0 0 -0
-0 0 -0
-0 0 -0
-0 0 -0
-0 0 -0
-0 0 -0
-0 0 -0
-0 0 -0
-0 0 -0
-0 0 -0
-0 0 -0
-0 0 -0
-0 0 -0
-0 0 -0
-0 0 -0
-0.2470063 0.19555236 -0.01260841
-0 0 -0
-0.24688904 0.20043214 -0.013091154
-0.25099695 0.20632391 -0.014217558
-0.24668887 0.20533819 -0.013573899
-0.25373435 0.21383439 -0.015343962
-0.22536178 0.19235618 -0.0095510278
-0.26903376 0.23239642 -0.019205919
-0.24529353 0.21457502 -0.014378473
-0.26985985 0.23894776 -0.020010492
-0.25220495 0.22612303 -0.016470365
-0.26983356 0.24489139 -0.020654151
-0.27050835 0.24854338 -0.021136895
-0.27114835 0.25221282 -0.02161964
-0.27031496 0.25454766 -0.021780554
-0.24801037 0.23647399 -0.017114025
-0.26930362 0.25989956 -0.0222633
-0.26911724 0.26292506 -0.022585129
-0.25274745 0.25001195 -0.019205919
-0.26936138 0.26969576 -0.023389703
-0.26839536 0.27204531 -0.023550618
-0.26465237 0.27156869 -0.023067873
-0.27051851 0.28100115 -0.024837937
-0.2388318 0.25121656 -0.017757684
-0.26366755 0.28070623 -0.024033362
-0.2632843 0.28376442 -0.024355192
-0.2321645 0.2533893 -0.01727494
-0.24652003 0.27235356 -0.021136895
-0.22903755 0.25621924 -0.01727494
-0.26409015 0.2990095 -0.02628617
-0.24536237 0.28130364 -0.022102384
-0 0 -0
-0 0 -0
-0 0 -0
-0 0 -0
-0 0 -0
-0 0 -0
-0 0 -0
-0 0 -0
-0 0 -0
-2.9454618 3.8197582 -0.74766731
-2.95366 3.8793759 -0.75619584
-2.925056 3.8911152 -0.7549085
-2.9040668 3.9129522 -0.75571311
-2.8735855 3.9219406 -0.75394303
-2.8610368 3.9554918 -0.75716132
-2.8613763 4.0075097 -0.76408064
-2.8117127 3.9894967 -0.75700039
-2.7905626 4.0115347 -0.75796586
-2.802211 4.0814667 -0.76842535
-2.7544136 4.0650859 -0.76182783
-2.7255781 4.0761671 -0.76070142
-2.6939924 4.0829291 -0.75877047
-2.6866617 4.1266761 -0.76408064
-2.6847634 4.1796198 -0.7711609
-2.6664643 4.207685 -0.77341372
-2.6432126 4.2281513 -0.77421826
-2.6146288 4.2400899 -0.77341372
-2.5767653 4.236659 -0.76971269
-2.5542755 4.2583146 -0.7708391
-2.5321193 4.2807026 -0.77212638
-2.5127683 4.308094 -0.77437919
-2.4916999 4.3328419 -0.77614927
-2.4660408 4.3497663 -0.77647108
-2.445565 4.3760157 -0.77856296
-2.4200971 4.3935323 -0.7790457
-2.3921514 4.4065642 -0.7787239
-2.368793 4.4281211 -0.78001124
-2.3448 4.4486837 -0.78113765
-2.3229179 4.4734983 -0.7830686
-2.294976 4.4867883 -0.78290766
-2.2709553 4.5078368 -0.78419501
-2.2476399 4.5305276 -0.78580415
-2.2371294 4.5797048 -0.79224074
-2.2072756 4.5897875 -0.79159707
-2.1925869 4.6317897 -0.79674637
-2.1432819 4.6004257 -0.78870064
-2.1178935 4.6197701 -0.78982705
-2.0866663 4.6263809 -0.78870064
-2.0530357 4.6273694 -0.7866087
-2.02263 4.6353569 -0.78580415
-1.9863653 4.6295404 -0.78258586
-1.9575379 4.6407323 -0.78242493
-1.9256234 4.6444507 -0.78097671
-1.901559 4.6671467 -0.78290766
-1.8754542 4.6851401 -0.78403407
-1.8506449 4.7066631 -0.78580415
-1.8213749 4.7170091 -0.78564322
-1.7920477 4.7271733 -0.78548235
-1.7533692 4.7121806 -0.78097671
-1.7359345 4.7543712 -0.78644782
-1.6944128 4.7305551 -0.78049397
-1.6653548 4.7408624 -0.78049397
-1.6426632 4.7696548 -0.78371227
-1.6222066 4.8058271 -0.7882179
-1.6084971 4.8634787 -0.79642451
-1.5786252 4.8732567 -0.79642451
-1.5525737 4.895081 -0.79851645
-1.5105088 4.86587 -0.79191893
-1.5093133 4.9694815 -0.8080104
-1.4782305 4.976757 -0.80768859
-1.4457389 4.9790988 -0.80656219
-1.4221666 5.0125623 -0.81074595
-1.3853197 4.9993186 -0.80704492
-1.3306439 4.9191232 -0.79207981
-1.3062303 4.9491434 -0.7957809
-1.2832208 4.9857388 -0.80060834
-1.2470798 4.9715014 -0.79690725
-1.2142085 4.9694719 -0.7952981
-1.1889477 4.9989123 -0.79899919
-1.1406713 4.9301515 -0.78628689
-1.129897 5.0237184 -0.80076921
-1.091675 4.9968095 -0.79513723
-1.0503445 4.9532084 -0.78676963
-1.0193357 4.9566598 -0.78628689
-0.98716646 4.9541097 -0.78483868
-0.955441 4.95329 -0.78371227
-0.92466807 4.957119 -0.7833904
-0.90439016 5.0190353 -0.79272348
-0.86427438 4.9710097 -0.7838732
-0.83212489 4.9664855 -0.78226405
-0.80210704 4.974421 -0.78274679
-0.76899886 4.9626684 -0.78001124
-0.7532016 5.0658922 -0.79626364
-0.70845908 4.9746628 -0.78049397
-0.68551606 5.0346584 -0.78966612
-0.64672285 4.9780884 -0.77968937
-0.62404507 5.04563 -0.79014885
-0.59249789 5.0444632 -0.78934425
-0.55258071 4.9675694 -0.77614927
-0.53168482 5.0621514 -0.79111433
-0.49119079 4.9700475 -0.7755056
-0.4620527 4.987709 -0.77791935
-0.42505848 4.9167032 -0.76585072
-0.40073198 4.9920197 -0.77775842
-0.36980194 4.9904475 -0.77711475
-0.33723193 4.9640665 -0.77244824
-0.30761966 4.9798336 -0.774701
-0.27996707 5.0338559 -0.78322953
-0.24800023 5.013792 -0.77968937
-0.21855792 5.0457869 -0.78467774
-0.18575662 4.9977183 -0.77663201
-0.15490361 4.9928451 -0.77566653
-0.1238957 4.9789019 -0.77325279
-0.092990465 4.9608192 -0.77019542
-0.062950358 4.992877 -0.77534467
-0.03233932 4.997117 -0.77598834
-0.0016737053 4.9893255 -0.774701
0.028680498 4.9438419 -0.76729894
0.059424393 4.9781146 -0.77293098
0.089346886 4.9431181 -0.76729894
0.12003279 4.9572768 -0.76971269
0.14967129 4.9307976 -0.76552886
0.17949225 4.9179506 -0.76359791
0.20857364 4.8911185 -0.75941414
0.23867708 4.8917184 -0.75973594
0.26949862 4.9049439 -0.76214969
0.29484078 4.8253727 -0.74943739
0.32656017 4.8549843 -0.7545867
0.35995355 4.9021053 -0.76263243
0.39096436 4.9116111 -0.76456338
0.42218959 4.9219031 -0.76665527
0.44633153 4.8533707 -0.75587398
0.47783685 4.8682213 -0.75877047
0.50872225 4.8750143 -0.76037961
0.52822083 4.7776251 -0.74493176
0.5615297 4.8086052 -0.7505638
0.58416086 4.7492318 -0.74139166
0.62087566 4.8042884 -0.75104654
0.64451599 4.7573547 -0.74396628
0.68061543 4.8021712 -0.75201201
0.70270312 4.7481108 -0.74380541
0.7301693 4.7329798 -0.74203533
0.75950933 4.7303596 -0.74235713
0.78364921 4.6964045 -0.7375297
0.81009442 4.6778927 -0.73527688
0.838085 4.6689482 -0.73463321
0.86563581 4.6578956 -0.73366773
0.90239275 4.6951432 -0.74074799
0.92061657 4.6362734 -0.73189771
0.9583568 4.675981 -0.73946071
0.98111367 4.6420088 -0.73479414
1.0026503 4.6040764 -0.72948396
1.0183623 4.5419793 -0.72015089
1.0289155 4.4606299 -0.70759952
1.03555 4.3668404 -0.69295627
1.0485463 4.3038268 -0.68346232
1.0689489 4.2733746 -0.67943943
1.0917157 4.2533512 -0.67718667
1.1137748 4.2313008 -0.67461199
1.1361187 4.2110462 -0.67235923
1.1579931 4.1897259 -0.66994548
1.1777681 4.1616488 -0.66640538
1.1975169 4.1344352 -0.66302615
1.2183778 4.1118679 -0.66045147
1.2352877 4.0769219 -0.65578496
1.2582366 4.0626659 -0.65465856
1.2941551 4.0896864 -0.6606124
1.3158867 4.0713377 -0.65884233
1.345172 4.0763087 -0.66109514
1.36008 4.0380464 -0.6559459
1.3745695 3.9997559 -0.65079659
1.3977801 3.9875207 -0.65015298
1.4202281 3.9732924 -0.64918745
1.4530263 3.9876871 -0.65321034
1.4767799 3.976846 -0.65288848
1.5165169 4.008328 -0.65996873
1.5503083 4.022893 -0.66415256
1.5749632 4.0133047 -0.66415256
1.6032197 4.0127311 -0.66576171
1.6285546 4.0046468 -0.66608351
1.654228 3.9973147 -0.66656625
1.6852332 4.0025535 -0.66930181
1.6806246 3.9240906 -0.65723318
1.7318597 3.9761424 -0.66833633
1.7194623 3.8824146 -0.65353215
1.7456826 3.8771911 -0.65449762
1.7706716 3.8690991 -0.65498042
1.7947948 3.8590567 -0.65514129
1.8256072 3.863142 -0.65787685
1.8531203 3.8598754 -0.65932512
1.8823922 3.8599651 -0.66141701
1.9069169 3.8501112 -0.66173881
1.9353821 3.8480377 -0.66350889
1.9647911 3.8475173 -0.66560078
1.9924495 3.8432755 -0.66704899
2.0173726 3.8335981 -0.66753173
2.0389974 3.8176651 -0.66688812
2.0642648 3.8085532 -0.66753173
2.0904481 3.8010044 -0.66849726
2.1108463 3.7829347 -0.66753173
2.1471434 3.7931032 -0.67187643
2.1821702 3.8004 -0.67573839
2.2128971 3.7997327 -0.67815214
2.2436979 3.798831 -0.68056583
2.2831905 3.8120887 -0.68571514
2.3111482 3.8056004 -0.68716335
2.3380773 3.797231 -0.68828976
2.3728287 3.8012338 -0.69182992
2.4034956 3.7982795 -0.69408268
2.4336824 3.794261 -0.69617462
2.4633722 3.7891872 -0.69810557
2.4941771 3.7855396 -0.70035839
2.5250297 3.7816565 -0.70261121
2.5503979 3.769362 -0.70325482
2.5957992 3.7862051 -0.70969146
2.6336203 3.7912829 -0.71387523
2.6653531 3.7871594 -0.71628892
2.6954155 3.7803776 -0.71821994
2.7254946 3.7733693 -0.72015089
2.7590854 3.7709134 -0.72304738
2.791573 3.7666008 -0.725622
2.8424776 3.7865012 -0.73318499
2.8817847 3.7902031 -0.7375297
2.9098034 3.7787056 -0.73881704
2.9426446 3.7732334 -0.74139166
2.930877 3.7109554 -0.73221952
2.9819462 3.7283597 -0.73962158
2.9594254 3.654 -0.72787482
2.9736547 3.6258509 -0.72578293
3.0002599 3.6128521 -0.72690934
3.0166552 3.5875757 -0.72546107
3.0328536 3.5622344 -0.72401285
3.0533652 3.5420628 -0.72369105
3.0873711 3.5373902 -0.72674841
3.1070576 3.516161 -0.72626567
3.15292 3.5242481 -0.73221952
3.1665349 3.496057 -0.73028857
3.2232766 3.5151188 -0.73881704
3.2501559 3.5010619 -0.74010432
3.2269702 3.433583 -0.72948396
3.2935548 3.4616292 -0.74026525
3.2496927 3.3738191 -0.72497833
3.2655101 3.3488691 -0.72385192
3.3095694 3.3526525 -0.72932303
3.3091505 3.3113368 -0.72449559
3.3357229 3.297215 -0.72594386
3.3671894 3.2877183 -0.72851849
3.3801956 3.2601435 -0.72690934
3.4115684 3.2502353 -0.72948396
3.4443836 3.2414174 -0.73238045
3.4642076 3.220222 -0.73238045
3.5151598 3.2276115 -0.73929977
3.50054 3.1748159 -0.73173678
3.5353909 3.1671081 -0.735116
3.5769305 3.1649785 -0.73994344
3.5621004 3.1130922 -0.73254132
3.5908468 3.0995617 -0.73463321
3.5925243 3.0627415 -0.73093218
3.6180437 3.0463624 -0.73238045
3.6958556 3.0733318 -0.74493176
3.6749845 3.0180216 -0.73656422
3.7240939 3.0202856 -0.74300081
3.7510293 3.0041654 -0.74477088
3.7995808 3.0049727 -0.75104654
3.7627223 2.9384673 -0.73962158
3.7869337 2.9201462 -0.74090892
3.8495376 2.930938 -0.75008106
3.8272166 2.8770134 -0.7418744
3.8511374 2.8581822 -0.74316174
3.8765633 2.840332 -0.74477088
3.9347007 2.8459959 -0.75297755
3.9191587 2.7982826 -0.74638003
3.9265745 2.7673588 -0.74444902
3.9329486 2.7358859 -0.74235713
3.9561706 2.7161717 -0.74364448
3.9621408 2.684648 -0.74155259
4.0047917 2.6778438 -0.74670184
4.0137339 2.6483278 -0.74525362
4.0588555 2.6424997 -0.75088561
4.0774846 2.6191459 -0.7513684
4.0959792 2.5956626 -0.75185114
4.1026235 2.5647256 -0.75008106
4.1082025 2.5332868 -0.74815011
4.1042752 2.4962342 -0.74444902
4.1499829 2.4892828 -0.75024199
4.1490393 2.4542239 -0.74718457
4.1708403 2.4326982 -0.74847192
4.1993771 2.4149339 -0.75104654
4.1677547 2.3628328 -0.74235713
4.1787281 2.3352892 -0.74171346
4.2448459 2.3381805 -0.7513684
4.2573781 2.3111489 -0.75104654
4.2375393 2.2668235 -0.74477088
4.2644649 2.2476838 -0.74718457
4.3254738 2.2460399 -0.75587398
4.2926049 2.1956325 -0.74734551
4.3421335 2.1874611 -0.75394303
4.3510532 2.1585836 -0.75313842
4.344707 2.1223135 -0.74959832
4.3923349 2.1122999 -0.75587398
4.4087815 2.0869987 -0.75651765
4.3848252 2.0428159 -0.74992013
4.4277802 2.0298593 -0.75539124
4.3663797 1.9693722 -0.74219626
4.422586 1.9621598 -0.75008106
4.4517288 1.9424875 -0.75313842
4.3882852 1.8828292 -0.73978251
4.4606814 1.881573 -0.7505638
4.4675841 1.852277 -0.74975926
4.464242 1.8188699 -0.74718457
4.5083032 1.8046505 -0.75297755
4.478878 1.7610601 -0.74589729
4.5080132 1.7406567 -0.74911559
4.4770803 1.6972165 -0.7418744
4.4901853 1.6707464 -0.74235713
4.5559769 1.6634785 -0.75201201
4.5493731 1.6295004 -0.74911559
4.5313511 1.5917399 -0.74428815
4.5904899 1.5809433 -0.75281662
4.558959 1.538855 -0.74573636
4.5683155 1.5108527 -0.74573636
4.6328955 1.500743 -0.75523031
4.5949788 1.4573648 -0.74718457
4.620801 1.4344114 -0.75008106
4.6323485 1.4068924 -0.7505638
4.6210256 1.3725394 -0.74718457
4.6483164 1.3496652 -0.75040287
4.6603084 1.322196 -0.75104654
4.6293378 1.2827672 -0.74444902
4.6409326 1.2553691 -0.74509269
4.6418681 1.2251056 -0.74396628
4.6770158 1.2037369 -0.74863285
4.6929297 1.1771785 -0.75008106
4.682807 1.1441431 -0.74718457
4.6753364 1.1119617 -0.74477088
4.7099562 1.0897074 -0.74943739
4.7204056 1.0616537 -0.75008106
4.7634706 1.0406778 -0.75619584
4.7678356 1.0110204 -0.75587398
4.7623487 0.97935987 -0.75394303
4.77214 0.95089203 -0.7545867
4.7720704 0.92047077 -0.75362116
4.7640452 0.88863778 -0.7513684
4.7956333 0.86411715 -0.75571311
4.8037624 0.83518285 -0.75619584
4.7864089 0.80193889 -0.75249481
4.8078036 0.77522725 -0.75523031
4.8056426 0.74465406 -0.75410396
4.8179312 0.71631491 -0.75539124
4.8290753 0.6877138 -0.75651765
4.8263583 0.65713757 -0.75539124
4.8302999 0.6275112 -0.75539124
4.8458133 0.59931588 -0.75732225
4.867043 0.57164502 -0.76021868
4.8469172 0.53915006 -0.75635672
4.8501344 0.50939977 -0.75635672
4.8757586 0.48186469 -0.76005781
4.8540545 0.44966057 -0.75603491
4.8449225 0.41884714 -0.75410396
4.8759317 0.39140388 -0.75877047
4.8802099 0.36162439 -0.75909227
4.8685513 0.33073553 -0.75683945
4.8763995 0.30122203 -0.75780499
4.8219857 0.26816693 -0.74863285
4.8117113 0.23798868 -0.74670184
4.8239274 0.20893075 -0.74847192
4.8290639 0.1794747 -0.74911559
4.8685474 0.15103742 -0.75539124
4.8782625 0.12138341 -0.75683945
4.8710208 0.091300055 -0.75555217
4.8912272 0.061660729 -0.75877047
4.8776965 0.031557053 -0.75651765
4.8679285 0.0016233843 -0.7549085
4.8560033 -0.028177932 -0.75297755
4.8340273 -0.057715822 -0.74943739
4.8858829 -0.088316932 -0.75796586
4.8724222 -0.11798492 -0.75587398
4.8745661 -0.14796892 -0.75635672
4.8558125 -0.17722937 -0.75346029
4.8546338 -0.20702074 -0.75346029
4.8552437 -0.23690036 -0.75378209
4.8546844 -0.26674119 -0.75394303
4.8637929 -0.29718518 -0.75571311
4.9061913 -0.33000034 -0.76295424
4.8814349 -0.35843739 -0.7592532
4.8870144 -0.38900846 -0.76054054
4.8540511 -0.41637486 -0.75555217
4.8917012 -0.44985339 -0.76214969
4.8760796 -0.47860751 -0.76005781
4.8750143 -0.50872225 -0.76037961
4.8668962 -0.53808331 -0.75957501
4.85566 -0.56702071 -0.75828773
4.8256407 -0.59355277 -0.75394303
4.8600826 -0.62808144 -0.76021868
4.8541808 -0.65762573 -0.75989687
4.8715529 -0.69044328 -0.76343697
4.8760123 -0.72162127 -0.76488525
4.8471065 -0.74776632 -0.76086235
4.8356056 -0.77639884 -0.75973594
4.8161478 -0.8036195 -0.75732225
4.783896 -0.82844245 -0.75281662
4.803009 -0.86213768 -0.75683945
4.811214 -0.89411569 -0.75909227
4.8143601 -0.92529571 -0.76054054
4.7718048 -0.9475171 -0.75442576
4.7813716 -0.97994781 -0.75700039
4.7627153 -1.0066152 -0.7549085
4.7689862 -1.0385488 -0.75700039
4.7875638 -1.0734032 -0.76118416
4.7616529 -1.0983239 -0.75796586
4.7692294 -1.130935 -0.76037961
4.7545285 -1.1583087 -0.75909227
4.7559495 -1.189615 -0.76054054
4.7380443 -1.2160764 -0.75877047
4.7276301 -1.2443721 -0.75828773
4.7179999 -1.2728429 -0.75796586
4.706296 -1.3007166 -0.75732225
4.6934776 -1.3282261 -0.75651765
4.6842914 -1.3567252 -0.75635672
4.6635761 -1.3817979 -0.75426483
4.6587882 -1.4115316 -0.7549085
4.6387258 -1.4365879 -0.75297755
4.6044168 -1.4569862 -0.74863285
4.6376524 -1.4988662 -0.75587398
4.6114969 -1.5217284 -0.75297755
4.6357465 -1.5613335 -0.75877047
4.5588727 -1.5666593 -0.74718457
4.6059914 -1.6145133 -0.75700039
4.6155162 -1.6497191 -0.76037961
4.5450287 -1.6560506 -0.74992013
4.5301552 -1.6821897 -0.74911559
4.5086703 -1.7057645 -0.74718457
4.5239067 -1.7433323 -0.75169021
4.5305815 -1.7779064 -0.75474757
4.4939237 -1.7954214 -0.75024199
4.5349374 -1.8441496 -0.75941414
4.4669929 -1.848547 -0.74943739
4.4610243 -1.8782185 -0.75040287
4.5183702 -1.9350801 -0.76263243
4.5027924 -1.9611917 -0.76198876
4.4383311 -1.9656074 -0.75265568
4.4819865 -2.0179207 -0.76263243
4.4408007 -2.0322435 -0.75748312
4.4255624 -2.0582051 -0.75700039
4.395895 -2.0773103 -0.75394303
4.3750582 -2.1004002 -0.75249481
4.4020095 -2.1466696 -0.75973594
4.3993683 -2.178895 -0.76166695
4.321547 -2.1734807 -0.74992013
4.403944 -2.2488744 -0.76745987
4.3006835 -2.2295284 -0.75104654
4.3445706 -2.2862046 -0.76166695
4.2721295 -2.2816715 -0.75088561
4.2927589 -2.3266509 -0.75732225
4.306942 -2.3686399 -0.76263243
4.2906036 -2.3940606 -0.76231056
4.295589 -2.4315228 -0.76601166
4.2643256 -2.448498 -0.76295424
4.2142515 -2.4542558 -0.75635672
4.2509546 -2.5106804 -0.76617253
4.2126069 -2.5230262 -0.76182783
4.1911411 -2.5452411 -0.76070142
4.143507 -2.5512481 -0.7545867
4.1570797 -2.5949135 -0.76021868
4.1452494 -2.6230104 -0.76102328
4.0975065 -2.62815 -0.7549085
4.0961986 -2.6629241 -0.75780499
4.1209927 -2.7151549 -0.76585072
4.0615702 -2.7118943 -0.75748312
4.0710135 -2.7544611 -0.76263243
4.0271711 -2.7609737 -0.75732225
4.0093436 -2.785069 -0.75716132
3.980072 -2.8010979 -0.75474757
3.9603989 -2.8237476 -0.75426483
3.9742033 -2.8705306 -0.76054054
3.9405837 -2.8832071 -0.75732225
3.9204397 -2.9055691 -0.75683945
3.8764887 -2.9100184 -0.75152928
3.8844886 -2.95346 -0.75683945
3.8592551 -2.9718204 -0.75539124
3.8588493 -3.0094028 -0.75909227
3.8612251 -3.0495384 -0.76343697
3.8447533 -3.075022 -0.76391971
3.8104725 -3.0861328 -0.76070142
3.781543 -3.1013198 -0.75860953
3.7161226 -3.0860052 -0.74879372
3.7567985 -3.1589239 -0.76150602
3.7523758 -3.1947107 -0.76472431
3.7312076 -3.2163861 -0.76440251
3.692811 -3.2229967 -0.76037961
3.6766639 -3.248862 -0.76118416
3.6573956 -3.2720184 -0.76134509
3.6299343 -3.2877731 -0.75973594
3.614785 -3.3146532 -0.76086235
3.5806344 -3.3240132 -0.75780499
3.57096 -3.3560591 -0.76021868
3.5839097 -3.409879 -0.76778167
3.5487015 -3.4181125 -0.76456338
3.5425019 -3.4542913 -0.76794261
3.4664493 -3.4218848 -0.75539124
3.4300277 -3.427743 -0.75185114
3.420033 -3.4599545 -0.75442576
3.3939118 -3.4759316 -0.75329936
3.3697791 -3.4938495 -0.75265568
3.3482778 -3.5144603 -0.75265568
3.3300328 -3.5385323 -0.75346029
3.3815095 -3.6376865 -0.77099997
3.3577902 -3.6569128 -0.77067816
3.3266683 -3.6679437 -0.76858628
3.3021235 -3.6860814 -0.76810354
3.2748654 -3.7010996 -0.76697713
3.2520943 -3.7211242 -0.76697713
3.2298458 -3.7417557 -0.767138
3.2202737 -3.7772746 -0.77051723
3.1817782 -3.7788444 -0.76665527
3.1970294 -3.8445842 -0.77647108
3.1971841 -3.8931103 -0.78258586
3.1968627 -3.9417818 -0.78870064
3.1596584 -3.9451466 -0.78532141
3.1268198 -3.9536226 -0.7830686
3.1025021 -3.972734 -0.7830686
3.064204 -3.9737206 -0.77936757
3.0146503 -3.9594681 -0.77260911
2.9819951 -3.9668469 -0.77035636
2.9464219 -3.9700119 -0.76729894
2.9179232 -3.9824436 -0.76617253
2.8859119 -3.989877 -0.76408064
2.8550668 -3.9986744 -0.76231056
2.8230853 -4.0056305 -0.76021868
2.7995815 -4.0244975 -0.76054054
2.8089154 -4.0912299 -0.77035636
2.7887425 -4.1157413 -0.77180457
2.7228348 -4.0720654 -0.75989687
2.7298717 -4.1372972 -0.76939082
2.7028186 -4.1514883 -0.76890808
2.690098 -4.1879234 -0.77277005
2.6722765 -4.216855 -0.7751838
2.6154804 -4.1837983 -0.76568979
2.5970132 -4.2115283 -0.76794261
2.5598383 -4.2088332 -0.76440251
2.5431049 -4.2396951 -0.76729894
2.5255861 -4.26966 -0.77003449
2.501827 -4.2893391 -0.7708391
2.4946525 -4.337975 -0.77711475
2.4363441 -4.2973948 -0.76665527
2.4166718 -4.3243246 -0.76890808
2.3981891 -4.3537674 -0.77164364
2.3912096 -4.4048295 -0.77840209
2.3534279 -4.3994031 -0.774701
2.3162634 -4.3945532 -0.7711609
2.2906201 -4.4113102 -0.77164364
2.2504737 -4.3998013 -0.76697713
2.2367582 -4.4399691 -0.77180457
2.2068408 -4.4483051 -0.7708391
2.192503 -4.4883661 -0.77566653
2.1495202 -4.4697151 -0.76987356
2.1600657 -4.5631032 -0.78435594
0 -0 -0
0 -0 -0
0 -0 -0
2.0274143 -4.569633 -0.77631021
2.00368 -4.5919375 -0.77808022
1.9610652 -4.5705872 -0.77212638
1.9276123 -4.5698032 -0.76987356
1.8859257 -4.5487242 -0.76408064
0 -0 -0
0 -0 -0
0 -0 -0
1.792928 -4.6433544 -0.77277005
1.7322096 -4.5693655 -0.75796586
1.7051727 -4.5826831 -0.75844866
1.4501734 -3.9719186 -0.65063572
0 -0 -0
1.4042672 -3.9977958 -0.65208393
1.3723173 -3.9848745 -0.6483829
0 -0 -0
1.3251733 -4.0070372 -0.64934838
0 -0 -0
1.2750056 -4.020175 -0.64886564
1.2517776 -4.0326357 -0.64967018
1.2278711 -4.0430732 -0.65015298
0 -0 -0
0 -0 -0
0 -0 -0
1.3304844 -4.8014884 -0.77357465
1.3028026 -4.8162308 -0.774701
1.2747378 -4.8298593 -0.77566653
1.2448323 -4.8366342 -0.7755056
1.2100874 -4.8240786 -0.77212638
1.1739033 -4.8045678 -0.7676208
1.1416596 -4.800158 -0.76568979
1.1095144 -4.7955341 -0.76375884
1.0792021 -4.7984004 -0.76311517
1.055429 -4.8309655 -0.76745987
1.031092 -4.862453 -0.77164364
1.0070049 -4.8967233 -0.77631021
0.97115171 -4.8737721 -0.77148271
0.94066751 -4.8767319 -0.77099997
0.91815001 -4.9221907 -0.77759749
0.89055729 -4.9423018 -0.78001124
0.8575089 -4.9321151 -0.77743655
0.82070315 -4.8983483 -0.77099997
0.79581934 -4.9354458 -0.77631021
0.7617408 -4.915853 -0.77228731
0.73519391 -4.9448404 -0.77631021
0.70135838 -4.9248309 -0.77228731
0.67725563 -4.9740267 -0.77968937
0.64112473 -4.9350243 -0.77260911
0.60331619 -4.8781366 -0.76263243
0.5789032 -4.9287972 -0.77035636
0.54690272 -4.9165616 -0.76778167
0.51094735 -4.8648577 -0.75877047
0.49070507 -4.9651365 -0.774701
0.45731452 -4.9366059 -0.76955175
0.42624968 -4.9304695 -0.76810354
0.39567268 -4.9290566 -0.76745987
0.36498302 -4.9254861 -0.76649439
0.33435211 -4.9217248 -0.76552886
0.30414668 -4.9236836 -0.76552886
0.27343583 -4.9165883 -0.76408064
0.24389793 -4.9309883 -0.76617253
0.21342343 -4.9274616 -0.76536798
0.18322182 -4.9296651 -0.76552886
0.15318529 -4.9376016 -0.76665527
0.12278733 -4.9345021 -0.76601166
0.092284583 -4.9233212 -0.76408064
0.062174078 -4.9316897 -0.76536798
0.031815652 -4.9171743 -0.76295424
0.0016467038 -4.9241858 -0.76408064
-0.02848286 -4.9092989 -0.76166695
-0.058207329 -4.8754768 -0.75619584
-0.088583298 -4.9006853 -0.76037961
-0.11853261 -4.8951159 -0.75957501
-0.14775985 -4.8676605 -0.75523031
-0.17884572 -4.900197 -0.76070142
-0.2093291 -4.9088678 -0.76231056
-0.23843698 -4.8867893 -0.7589314
-0.26793066 -4.8763652 -0.75748312
-0.2967644 -4.8568969 -0.7545867
-0.32636172 -4.8520303 -0.75410396
-0.35706562 -4.8627324 -0.75619584
-0.38720903 -4.8643856 -0.75683945
-0.41822883 -4.8756852 -0.75909227
-0.44795701 -4.8710618 -0.75877047
-0.47822216 -4.8721504 -0.75941414
-0.50739163 -4.8622527 -0.75828773
-0.53819168 -4.867877 -0.75973594
-0.5710246 -4.8899713 -0.76391971
-0.60065693 -4.8834367 -0.76343697
-0.62997776 -4.8747649 -0.76263243
-0.65775812 -4.8551588 -0.76005781
-0.68905908 -4.8617811 -0.76182783
-0.71671122 -4.8428164 -0.75941414
-0.74641269 -4.8383274 -0.75941414
-0.77530414 -4.828784 -0.75860953
-0.80297005 -4.8122535 -0.75667858
-0.82372922 -4.7566657 -0.74831098
-0.86109191 -4.7971802 -0.75587398
-0.88510305 -4.7626953 -0.75104654
-0.90704781 -4.7193742 -0.74477088
-0.94271344 -4.7476029 -0.75040287
-0.96786475 -4.7223916 -0.74718457
-0.99804664 -4.722158 -0.74815011
-1.0345601 -4.7506628 -0.75394303
-1.0641218 -4.7461514 -0.75426483
-1.0825795 -4.6933694 -0.7465409
-1.122512 -4.733696 -0.75442576
-1.137524 -4.6691828 -0.74477088
-1.1783624 -4.7109475 -0.75297755
-1.2043025 -4.6921563 -0.75104654
-1.2318147 -4.6799059 -0.75024199
-1.2617918 -4.6770244 -0.75104654
-1.2925686 -4.6768045 -0.75233388
-1.3212405 -4.6687856 -0.75233388
-1.3559017 -4.6814475 -0.75587398
-1.3837601 -4.6702008 -0.75539124
-1.4158232 -4.6729569 -0.75732225
-1.4307499 -4.6198697 -0.74975926
-1.4605584 -4.6157088 -0.7505638
-1.4997765 -4.64047 -0.75635672
-1.5285308 -4.6321173 -0.75651765
-1.5509402 -4.6048794 -0.75346029
-1.5846176 -4.6111441 -0.75619584
-1.6161453 -4.6106486 -0.75780499
-1.6344419 -4.572763 -0.75297755
-1.6543616 -4.5403919 -0.74911559
-1.6784112 -4.5199776 -0.74734551
-1.7092563 -4.5179019 -0.74879372
-1.7270104 -4.4815416 -0.74428815
-1.7580807 -4.4800487 -0.74589729
-1.782974 -4.4627609 -0.74477088
-1.8415475 -4.5285373 -0.75828773
-1.8753365 -4.5317445 -0.76086235
-1.9126801 -4.5428939 -0.76488525
-1.9323608 -4.5120192 -0.76150602
-1.9470062 -4.4702158 -0.75619584
-1.9987731 -4.5132356 -0.76601166
-1.99807 -4.4378867 -0.75474757
-2.0240309 -4.4228506 -0.75426483
-2.0457211 -4.3987141 -0.75217295
-2.0709863 -4.3825092 -0.75152928
-2.0978377 -4.3697195 -0.75152928
-2.1492648 -4.4073319 -0.76070142
-2.1670699 -4.3754878 -0.75732225
-2.187669 -4.3497639 -0.75506943
-2.2129712 -4.3336215 -0.7545867
-2.2449703 -4.3304763 -0.75651765
-2.2600107 -4.2947836 -0.75249481
-2.2960832 -4.2991185 -0.75587398
-2.3097229 -4.2615199 -0.75152928
-2.3329742 -4.2420783 -0.7505638
-2.3483808 -4.2087216 -0.7470237
-2.3877721 -4.2182837 -0.75152928
-2.4141014 -4.2044086 -0.75169021
-2.4438267 -4.1963406 -0.75297755
-2.4670198 -4.1770172 -0.75217295
-2.4920959 -4.1609545 -0.75201201
-2.5160434 -4.143054 -0.75152928
-2.5367608 -4.1199737 -0.75008106
-2.5572898 -4.0967951 -0.74863285
-2.57763 -4.0735202 -0.74718457
-2.59565 -4.0468268 -0.74509269
-2.6215076 -4.0324793 -0.74541456
-2.6456583 -4.0154939 -0.74525362
-2.664767 -3.9909761 -0.74364448
-2.6704025 -3.9467559 -0.73817337
-2.6666679 -3.8895926 -0.73012763
-2.6893578 -3.8715358 -0.72980577
-2.6892078 -3.8210602 -0.72304738
-2.7126029 -3.8044877 -0.72304738
-2.7289615 -3.7781703 -0.72111636
-2.7509272 -3.7597613 -0.72079456
-2.761605 -3.7261586 -0.71741533
-2.773752 -3.6949351 -0.7145189
-2.7880094 -3.666846 -0.71226609
-2.796608 -3.6316833 -0.70856506
-2.8042734 -3.5957756 -0.70470309
-2.8164973 -3.5661077 -0.70212847
-2.8259976 -3.5333426 -0.69891012
-2.8308547 -3.4952264 -0.69456542
-2.8403571 -3.4632902 -0.69150805
-2.8558798 -3.4389627 -0.69005984
-2.8699405 -3.4130645 -0.68828976
-2.8761146 -3.3781052 -0.68458873
-2.8864784 -3.3484323 -0.68201411
-2.8972359 -3.3195035 -0.67960036
-2.9208167 -3.3053622 -0.68040496
-2.9318309 -3.2770793 -0.67815214
-2.9320085 -3.2370813 -0.6733247
-2.9604864 -3.2284873 -0.67541659
-2.9715116 -3.2008574 -0.6733247
-2.9829855 -3.1739333 -0.67139369
-2.9928806 -3.1455588 -0.66914088
-2.9991171 -3.1136286 -0.66608351
-3.0098977 -3.0866873 -0.66415256
-2.9899554 -3.0288239 -0.65514129
-3.0133669 -3.0153081 -0.6562677
-3.0037367 -2.9690061 -0.64983112
-3.005657 -2.9346595 -0.64613008
-2.9994557 -2.8928645 -0.64065897
-3.0221512 -2.8791716 -0.64178538
-3.0181999 -2.8402803 -0.63695794
-3.034848 -2.8210354 -0.63679701
-3.0491927 -2.7996905 -0.63615334
-3.0582726 -2.773634 -0.63438332
-3.0737636 -2.7534995 -0.63406146
-3.0832098 -2.7280464 -0.63245231
-3.088001 -2.6986842 -0.62987769
-3.1030076 -2.6783957 -0.62955588
-3.1111224 -2.6522615 -0.6277858
-3.1167686 -2.6242216 -0.62553298
-3.1092885 -2.5854836 -0.62054461
-3.0961125 -2.542552 -0.61442983
-3.1208532 -2.5309677 -0.61636084
-3.146338 -2.5197923 -0.61845273
-3.1354213 -2.4796212 -0.61298162
-3.14591 -2.4566908 -0.61201614
-3.1679585 -2.4427662 -0.61346436
-3.1766057 -2.4184985 -0.61217707
-3.1811302 -2.3912511 -0.61008519
-3.1870253 -2.3652163 -0.60831511
-3.1696343 -2.3222809 -0.60187852
-3.2150106 -2.3253498 -0.60815418
-3.2203829 -2.2992699 -0.6063841
-3.2094228 -2.2618389 -0.60139579
-3.2272918 -2.2449219 -0.60220033
-3.2369375 -2.2222841 -0.60139579
-3.2382569 -2.1940753 -0.59898204
-3.2491972 -2.1725185 -0.5984993
-3.2451675 -2.1411247 -0.59512007
-3.2706504 -2.1292508 -0.59753382
-3.2836535 -2.1091423 -0.59753382
-3.2848625 -2.0815573 -0.595281
-3.2774885 -2.0488048 -0.59141904
-3.2799175 -2.0224385 -0.58948809
-3.272028 -1.9899648 -0.58562613
-3.2816377 -1.9683274 -0.58514339
-3.2809117 -1.9406163 -0.58272964
-3.2910523 -1.9194537 -0.58240783
-3.2984903 -1.8967637 -0.58160323
-3.292037 -1.8662654 -0.578224
-3.3068721 -1.8479569 -0.57886767
-3.3008597 -1.8181064 -0.57564938
-3.3128207 -1.7982894 -0.57581031
-3.3150899 -1.7732723 -0.57420117
-3.3189235 -1.7492158 -0.57291383
-3.3339734 -1.7310928 -0.57371843
-3.3234448 -1.6998149 -0.56985646
-3.3505585 -1.6878289 -0.57291383
-3.3590837 -1.6663611 -0.57259202
-3.3559432 -1.6392198 -0.57017827
-3.3766112 -1.623731 -0.57210928
-3.3802664 -1.6000255 -0.57098287
-3.3909152 -1.5796714 -0.57114375
-3.4005439 -1.5588354 -0.57114375
-3.4010482 -1.533882 -0.5695346
-0.25384235 -0.11221495 -0.0064936467
-0.233721 -0.10157509 -0.0027926054
-3.4078453 -1.4620676 -0.56583357
-0.27314243 -0.1148131 -0.0095510278
-0.25196138 -0.10406118 -0.0056890724
-0.25259513 -0.10251322 -0.0056890724
-0.2532194 -0.10096139 -0.0056890724
-0.26485598 -0.10374051 -0.0076200501
-0.26548752 -0.10211343 -0.0076200501
-0 -0 -0
-0 -0 -0
-0 -0 -0
-0 -0 -0
-0 -0 -0
-0 -0 -0
-0 -0 -0
-0 -0 -0
-0 -0 -0
-0 -0 -0
-0 -0 -0
-0 -0 -0
-0 -0 -0
-0 -0 -0
-0 -0 -0
-0 -0 -0
-0 -0 -0
-0 -0 -0
-0 -0 -0
-0 -0 -0
-0 -0 -0
-0 -0 -0
-0 -0 -0
-0 -0 -0
-0 -0 -0
-0 -0 -0
-0 -0 -0
-0 -0 -0
-0 -0 -0
-0 -0 -0
-0 -0 -0
-0 -0 -0
-0 -0 -0
-0 -0 -0
-0 -0 -0
-0 -0 -0
-0 -0 -0
-0 -0 -0
-0 -0 -0
-0 -0 -0
-0 -0 -0
-0 -0 -0
-0 -0 -0
-0 -0 -0
-0 -0 -0
-0 -0 -0
-0 -0 -0
-0 -0 -0
-0 -0 -0
-0 -0 -0
-0 -0 -0
-0 -0 -0
-0 -0 -0
-0 -0 -0
-0 -0 -0
-0.27727056 0.019384287 -0.0098610763
-0 0 -0
-0 0 -0
-0 0 -0
-0 0 -0
-0.27066824 0.027262891 -0.0088233128
-0 0 -0
-0 0 -0
-0.28087282 0.033570603 -0.01072588
-0.28261498 0.035547219 -0.011071801
-0 0 -0
-0 0 -0
-0.26924801 0.03885977 -0.0088233128
-0.26608455 0.040058546 -0.0083044311
-0.26583377 0.041690458 -0.0083044311
-0.26460156 0.04315801 -0.0081314705
-0.26239103 0.044443272 -0.0077855494
-0 0 -0
-0.25892124 0.047117945 -0.0072666677
-0 0 -0
-0 0 -0
-0 0 -0
-0 0 -0
-0.27371189 0.058612473 -0.010206997
-0 0 -0
-0.27105287 0.06152283 -0.0098610763
-0.26971206 0.062956892 -0.0096881157
-0 0 -0
-0.26414257 0.065063566 -0.0088233128
-0.26278454 0.066437565 -0.0086503522
-0.25856271 0.067043215 -0.00795851
-0 0 -0
-0.25961882 0.07073722 -0.0083044311
-0.25917989 0.07232888 -0.0083044311
-0.26346049 0.075291179 -0.009169234
