# .PCD v0.7 - Point Cloud Data file format
VERSION 0.7
FIELDS x y z
SIZE 4 4 4
TYPE F F F
COUNT 1 1 1
WIDTH 1557
HEIGHT 1
VIEWPOINT 0 0 0 1 0 0 0
POINTS 1557
DATA ascii
0.11559267 3.1384645 -0.74582458
0.13488977 3.1386654 -0.74606735
0.15376204 3.1300273 -0.74412519
0.17285682 3.1270878 -0.74363965
0.19263949 3.1356506 -0.74606735
0.21200742 3.1363454 -0.74655288
0.23174973 3.1417575 -0.74825227
0.25172174 3.1489792 -0.7504372
0.27120596 3.1493082 -0.75092274
0.28864479 3.1273 -0.74582458
0.30725545 3.1196778 -0.74436796
0.32568207 3.1109803 -0.74266857
0.3446573 3.1079593 -0.7424258
0.36394727 3.107713 -0.74291134
0.3828899 3.1044586 -0.74266857
0.40318137 3.1116707 -0.74509627
0.42318302 3.1158667 -0.74679565
0.4429777 3.1180134 -0.7480095
0.46252921 3.1181152 -0.74873781
0.48076141 3.1094668 -0.74728119
0.49797815 3.0949657 -0.74436796
0.51679879 3.0908952 -0.74412519
0.53276283 3.0704627 -0.73975539
0.55142075 3.0661812 -0.73951262
0.57040203 3.0636938 -0.73975539
0.58771962 3.052516 -0.73781323
0.60586959 3.0459981 -0.73708493
0.62611163 3.0498247 -0.73902708
0.64380687 3.0411808 -0.73781323
0.6636976 3.0428596 -0.73926985
0.68022674 3.0292656 -0.73684216
0.69836378 3.0231445 -0.73635662
0.71712482 3.0197463 -0.73659939
0.73471898 3.0115199 -0.73562831
0.75389171 3.0097778 -0.73635662
0.77113599 3.0003979 -0.73514277
0.79027432 2.9984238 -0.73587108
0.80941749 2.9963276 -0.73659939
0.82597375 2.9847608 -0.7349
0.84506679 2.9824362 -0.73562831
0.8657856 2.9855793 -0.73781323
0.88546968 2.9848602 -0.73902708
0.90404969 2.9802992 -0.73926985
0.92404526 2.9802547 -0.74072647
0.94319433 2.9773028 -0.74145478
0.9590531 2.9640765 -0.73951262
0.97600371 2.954452 -0.73854154
0.99163127 2.9410548 -0.73659939
1.0074471 2.9284945 -0.7349
1.0247539 2.9204273 -0.73441446
1.040364 2.9076917 -0.73271507
1.0581857 2.9012535 -0.73271507
1.0773209 2.8983426 -0.73368615
1.0954283 2.8925848 -0.73392892
1.1145542 2.8894286 -0.7349
1.1340375 2.8870494 -0.73611385
1.1542546 2.8863411 -0.73781323
1.1726751 2.881001 -0.73829877
1.1907022 2.8746474 -0.73854154
1.2075641 2.8654997 -0.738056
1.2224461 2.8517959 -0.73635662
1.2375933 2.8389068 -0.7349
1.2561696 2.8339198 -0.73562831
1.2727368 2.8243902 -0.73514277
1.2908515 2.8182912 -0.73562831
1.3081199 2.8103178 -0.73562831
1.3257542 2.8031151 -0.73587108
1.345872 2.8010473 -0.73757046
1.3609046 2.7883782 -0.73635662
1.3758323 2.7756305 -0.73514277
1.3924009 2.7662699 -0.7349
1.4084646 2.7559469 -0.73441446
1.4262424 2.7489748 -0.7349
1.4435353 2.74103 -0.73514277
1.457581 2.7269888 -0.73368615
1.4752119 2.7196989 -0.73417169
1.49234 2.7114456 -0.73441446
1.5080024 2.7005441 -0.73392892
1.5317212 2.7038987 -0.73757046
1.5415123 2.6826763 -0.73417169
1.5603878 2.677357 -0.73538554
1.5807377 2.6744115 -0.73732769
1.5986149 2.6671576 -0.738056
1.6164626 2.659785 -0.73878431
1.6337707 2.6514678 -0.73926985
1.650009 2.6413934 -0.73926985
1.6615117 2.6238449 -0.73708493
1.6744341 2.6087036 -0.73562831
1.6872333 2.5935025 -0.73417169
1.7047179 2.5855303 -0.7349
1.7167755 2.5693767 -0.73320061
1.736318 2.5644159 -0.7349
1.7553148 2.5585122 -0.73635662
1.7759665 2.5548606 -0.73854154
1.7966393 2.5510516 -0.74072647
1.8122585 2.5399797 -0.74072647
1.8278095 2.5288119 -0.74072647
1.8450116 2.5198967 -0.74145478
1.8587042 2.5061915 -0.74072647
1.8711323 2.4908626 -0.73951262
1.8840299 2.4762473 -0.73854154
1.8991884 2.4646406 -0.73854154
1.917858 2.4575284 -0.73999816
1.9353082 2.4487576 -0.74096924
1.95151 2.4383512 -0.74145478
1.9694901 2.4300981 -0.74266857
1.9831325 2.4164684 -0.74218303
2.0016439 2.4087298 -0.74363965
2.0182605 2.3986287 -0.74436796
2.0291638 2.3817706 -0.74291134
2.0532486 2.3802898 -0.74655288
2.0607927 2.359612 -0.74388242
2.0726607 2.3440168 -0.74291134
2.0850625 2.3290875 -0.74218303
2.0954037 2.3119388 -0.74072647
2.10955 2.2990379 -0.74072647
2.1203146 2.2824984 -0.73951262
2.1362743 2.2715647 -0.74024093
2.149503 2.2577116 -0.73999816
2.1700501 2.2514622 -0.7424258
2.1797576 2.2339401 -0.74096924
2.189332 2.2163839 -0.73951262
2.2035763 2.2035944 -0.73975539
2.2122231 2.1852617 -0.738056
2.2207279 2.1669061 -0.73635662
2.2444627 2.1633334 -0.73999816
2.2562888 2.1481836 -0.73951262
2.2729619 2.1376204 -0.74072647
2.2817695 2.1196737 -0.73926985
2.3011677 2.1115336 -0.74145478
2.3162377 2.0993278 -0.74218303
2.3334134 2.0889568 -0.74363965
2.3483679 2.0765269 -0.74436796
2.3691049 2.0690949 -0.74703842
2.3788166 2.051986 -0.74606735
2.3972721 2.042382 -0.7480095
2.4097586 2.0276341 -0.7480095
2.4229009 2.0134296 -0.74825227
2.4419606 2.0040612 -0.7504372
2.4534574 1.9884295 -0.75019443
2.4701576 1.9769733 -0.75165105
2.4776738 1.9581721 -0.75019443
2.4758725 1.9321947 -0.74582458
2.4899876 1.9187422 -0.74655288
2.4924469 1.8963825 -0.74363965
2.5032601 1.880471 -0.74339688
2.5131927 1.8639208 -0.74291134
2.535543 1.8564842 -0.74631011
2.5460999 1.8403234 -0.74606735
2.5557642 1.82354 -0.74558181
2.5740452 1.8128483 -0.74776673
2.5899007 1.8003407 -0.74922335
2.5968978 1.7816728 -0.7480095
2.6134055 1.7695101 -0.74970889
2.6298614 1.7572118 -0.75140828
2.6373537 1.7389075 -0.7504372
2.6536672 1.7263932 -0.75213659
2.6544113 1.7037936 -0.74922335
2.6623561 1.6859183 -0.74849504
2.6751194 1.6710916 -0.74922335
2.686975 1.6556631 -0.74970889
2.6896207 1.6346134 -0.74752396
2.6987677 1.617581 -0.74728119
2.7119832 1.6029644 -0.74825227
2.716738 1.5833648 -0.74679565
2.7247195 1.5656995 -0.74631011
2.7275214 1.5451287 -0.74436796
2.7344093 1.5269458 -0.74363965
2.7462771 1.5115414 -0.74436796
2.7572057 1.4955865 -0.7448535
2.7697535 1.4804684 -0.74582458
2.7779269 1.462994 -0.74558181
2.7902963 1.4477072 -0.74655288
2.7991269 1.4305589 -0.74655288
2.8035185 1.4111778 -0.74533904
2.8086472 1.3922271 -0.74436796
2.817137 1.3749672 -0.74436796
2.8333914 1.3614341 -0.74655288
2.8408146 1.3436086 -0.74631011
2.8569219 1.3298339 -0.74849504
2.8712027 1.3151046 -0.75019443
2.8818717 1.2986572 -0.75092274
2.8888988 1.2805572 -0.75067997
2.8931441 1.2612576 -0.74970889
2.891911 1.2396632 -0.74728119
2.896781 1.2207662 -0.74655288
2.9051132 1.2033398 -0.74679565
2.9034557 1.1818378 -0.74436796
2.9061484 1.1622009 -0.74315411
2.9114187 1.1436386 -0.74266857
2.9138551 1.1240089 -0.74145478
2.920697 1.1061087 -0.74145478
2.9292479 1.0888422 -0.74194026
2.9376967 1.0715122 -0.7424258
2.9469564 1.0544461 -0.74315411
2.9643567 1.0401944 -0.74606735
2.9780231 1.0245078 -0.7480095
2.9916079 1.0086925 -0.74995166
3.0014257 0.99153322 -0.75092274
3.0185301 0.97667772 -0.75383592
3.0281658 0.95930851 -0.754807
3.0414083 0.94300556 -0.75674915
3.0499225 0.92516983 -0.75747746
3.0583322 0.90726513 -0.75820577
3.0638416 0.88848245 -0.75820577
3.0524337 0.86491221 -0.75383592
3.0763841 0.85133427 -0.75869131
3.0684373 0.82890487 -0.75529253
3.0790944 0.81154305 -0.75674915
3.0896537 0.79408163 -0.75820577
3.0954092 0.77534425 -0.75844854
3.1123612 0.75932115 -0.76160455
3.1075225 0.73797184 -0.75917685
3.108211 0.71801853 -0.75820577
3.1030922 0.69681144 -0.75577807
3.0997264 0.67610705 -0.75383592
3.1095114 0.65827817 -0.75529253
3.1068394 0.63782299 -0.75359321
3.1087916 0.61837 -0.75310767
3.1182432 0.60038149 -0.75456423
3.1218684 0.58123702 -0.75456423
3.119647 0.56104255 -0.75310767
3.1278102 0.54271764 -0.75432146
3.1349087 0.52415407 -0.75529253
3.1304033 0.50367874 -0.75335044
3.1324761 0.48431358 -0.75310767
3.1315503 0.46451601 -0.75213659
3.1304996 0.44474807 -0.75116551
3.1370149 0.42605209 -0.75213659
3.138608 0.4066714 -0.75189382
3.1448956 0.38787919 -0.7528649
3.1452892 0.36835021 -0.75237936
3.156168 0.35000324 -0.75456423
3.1592209 0.33073142 -0.754807
3.1640873 0.31162477 -0.7555353
3.1659398 0.29220444 -0.7555353
3.1763721 0.27351892 -0.75772023
3.1741223 0.25371617 -0.75674915
3.1717494 0.23395133 -0.75577807
3.1711893 0.2143553 -0.75529253
3.1956837 0.19631226 -0.76111901
3.1561458 0.17446646 -0.75092274
3.1629705 0.15538087 -0.75237936
3.1551416 0.13559867 -0.75019443
3.1568837 0.11627189 -0.7504372
3.1614161 0.097017013 -0.75140828
3.1648614 0.077687442 -0.75213659
3.1604288 0.058179278 -0.75092274
3.1529663 0.038693797 -0.74898058
3.1541142 0.019352427 -0.74922335
3.1435027 2.7376736e-06 -0.74655288
3.1405334 -0.019266495 -0.74582458
3.1490862 -0.038646463 -0.7480095
3.1371508 -0.057749573 -0.74509627
3.1454654 -0.07721518 -0.74728119
3.1488109 -0.09663441 -0.74825227
3.1500974 -0.11602546 -0.74873781
3.1716173 -0.13631822 -0.75432146
3.1658766 -0.15553653 -0.75310767
3.1629255 -0.17485125 -0.75262213
3.1724436 -0.19491361 -0.75529253
3.1595738 -0.21358626 -0.75237936
3.1688454 -0.23375797 -0.75504977
3.1625166 -0.25280896 -0.75383592
3.1657383 -0.27262697 -0.75504977
3.164006 -0.29204646 -0.75504977
3.1679466 -0.31202757 -0.75650638
3.1707964 -0.3319667 -0.75772023
3.1677356 -0.35130879 -0.75747746
3.1607032 -0.37017307 -0.75626361
3.1583722 -0.38955981 -0.75626361
3.1491885 -0.4080568 -0.75456423
3.1437418 -0.42697945 -0.75383592
3.1372211 -0.44571382 -0.7528649
3.1238725 -0.4633854 -0.75019443
3.1267221 -0.48343587 -0.75165105
3.1179507 -0.5016852 -0.75019443
3.1109869 -0.5201658 -0.74922335
3.1115596 -0.53990948 -0.75019443
3.1072335 -0.55881941 -0.74995166
3.096117 -0.57645118 -0.7480095
3.0925217 -0.59543777 -0.7480095
3.0869071 -0.61402273 -0.74752396
3.0868824 -0.63373381 -0.74849504
3.0857825 -0.65326643 -0.74922335
3.0883503 -0.67363775 -0.75092274
3.0794265 -0.69151032 -0.74970889
3.0930827 -0.71454763 -0.75432146
3.0867527 -0.733064 -0.75383592
3.0737152 -0.74991763 -0.75165105
3.0699968 -0.76899952 -0.75189382
3.0624022 -0.78709674 -0.75116551
3.0612669 -0.80686277 -0.75213659
3.0693684 -0.82917798 -0.7555353
3.0464606 -0.84307307 -0.75092274
3.0430968 -0.86227959 -0.75140828
3.0330906 -0.87958276 -0.75019443
3.0304263 -0.89900565 -0.75092274
3.0248532 -0.91758305 -0.75092274
3.0136073 -0.93440014 -0.74946612
3.0041184 -0.95170045 -0.74849504
3.0019138 -0.97131139 -0.74946612
2.9995813 -0.99093103 -0.7504372
2.9952829 -1.009938 -0.75092274
2.9890296 -1.0282978 -0.75092274
2.9817488 -1.0462972 -0.75067997
2.9743593 -1.0642461 -0.7504372
2.9695957 -1.0831418 -0.75092274
2.9656212 -1.1023575 -0.75165105
2.9524519 -1.1181262 -0.74995166
2.9491556 -1.1376188 -0.75092274
2.9421198 -1.1556931 -0.75092274
2.9385755 -1.175166 -0.75189382
2.9295127 -1.1924425 -0.75140828
2.9140761 -1.2070512 -0.74922335
2.8976767 -1.2211382 -0.74679565
2.8901296 -1.2388951 -0.74679565
2.8735821 -1.2527252 -0.74436796
2.8693883 -1.2719074 -0.74533904
2.8677201 -1.2922819 -0.74703842
2.8623822 -1.3110665 -0.74776673
2.865715 -1.3339312 -0.75092274
2.8592298 -1.35232 -0.75140828
2.8491299 -1.3689975 -0.75092274
2.841548 -1.3868794 -0.75116551
2.8277707 -1.4017018 -0.74970889
2.8130524 -1.4159709 -0.7480095
2.8069022 -1.4345301 -0.74873781
2.7911599 -1.4481493 -0.74679565
2.7796471 -1.4638913 -0.74606735
2.7748892 -1.4832073 -0.74728119
2.7555058 -1.4946517 -0.74436796
2.7522306 -1.5148075 -0.74606735
2.7530458 -1.5373456 -0.74898058
2.7401855 -1.5522952 -0.7480095
2.7314501 -1.5695632 -0.74825227
2.723444 -1.587271 -0.74873781
2.7086437 -1.6009884 -0.74728119
2.7079201 -1.6230675 -0.74995166
2.6912796 -1.6356194 -0.7480095
2.6902757 -1.6577032 -0.75067997
2.6874566 -1.6788076 -0.7528649
2.6787438 -1.6963044 -0.75335044
2.6723659 -1.7153306 -0.75456423
2.6626036 -1.7322249 -0.754807
2.6511149 -1.7479955 -0.75456423
2.6379204 -1.7626117 -0.75383592
2.6246464 -1.777132 -0.75310767
2.6088943 -1.7899084 -0.75165105
2.5970662 -1.8053286 -0.75140828
2.5843542 -1.8201122 -0.75092274
2.5723481 -1.8353715 -0.75067997
2.557894 -1.8488463 -0.74970889
2.5386765 -1.8587726 -0.74728119
2.5295606 -1.8760492 -0.7480095
2.5226541 -1.8950326 -0.74946612
2.5094352 -1.9093003 -0.74898058
2.5015137 -1.927624 -0.75019443
2.489639 -1.9429367 -0.75019443
2.4913659 -1.9690084 -0.75456423
2.4792376 -1.9842582 -0.75456423
2.4647553 -1.9975998 -0.75383592
2.459199 -2.0182269 -0.75602084
2.4311059 -2.0202525 -0.75092274
2.4156959 -2.0326319 -0.74995166
2.3972728 -2.042381 -0.7480095
2.3780868 -2.0513468 -0.74582458
2.3618033 -2.0627079 -0.74461073
2.3483758 -2.0765181 -0.74436796
2.3370354 -2.0921829 -0.7448535
2.3334949 -2.1149559 -0.7480095
2.3247612 -2.1331708 -0.74946612
2.3237069 -2.1586237 -0.75359321
2.3174822 -2.1794896 -0.75602084
2.3026609 -2.1923301 -0.7555353
2.2926567 -2.209785 -0.75674915
2.2797487 -2.2244885 -0.75699192
2.2612271 -2.2336612 -0.75529253
2.2454221 -2.245435 -0.75456423
2.2288761 -2.2564087 -0.75359321
2.2116032 -2.2665696 -0.75237936
2.1929433 -2.2752061 -0.75067997
2.1816163 -2.2914302 -0.75165105
2.1675153 -2.3047733 -0.75165105
2.1572924 -2.3222954 -0.75310767
2.1475918 -2.3404937 -0.754807
2.132539 -2.3529079 -0.75456423
2.1225893 -2.3710098 -0.75626361
2.1112127 -2.3876238 -0.75747746
2.0895064 -2.3924932 -0.754807
2.0779538 -2.4089432 -0.75602084
2.0631337 -2.4216478 -0.75602084
2.0419929 -2.4268365 -0.75359321
2.03512 -2.4490223 -0.75674915
2.0126731 -2.4524622 -0.75383592
1.9969769 -2.4640117 -0.75359321
1.9848498 -2.4800065 -0.754807
1.965988 -2.4875708 -0.75335044
1.9548633 -2.5049419 -0.75504977
1.9394565 -2.5168896 -0.75504977
1.9245638 -2.5295148 -0.75529253
1.9072597 -2.5389485 -0.75456423
1.8951106 -2.5552797 -0.75602084
1.8725225 -2.5574648 -0.75310767
1.8636106 -2.5783434 -0.75602084
1.8308609 -2.5660329 -0.74873781
1.8150815 -2.5772185 -0.74873781
1.8119622 -2.6066322 -0.75432146
1.79374 -2.6145008 -0.75335044
1.7771205 -2.6246541 -0.75310767
1.7696009 -2.6484177 -0.75699192
1.7549182 -2.6616561 -0.75772023
1.7427832 -2.6788807 -0.75966239
1.7168863 -2.6748254 -0.75529253
1.7066659 -2.695147 -0.75820577
1.6895829 -2.7047453 -0.757963
1.6658349 -2.7034965 -0.75456423
1.6562643 -2.7252755 -0.757963
1.6340287 -2.7262321 -0.75529253
1.61727 -2.7362068 -0.75529253
1.5960571 -2.738534 -0.75310767
1.5748767 -2.7407041 -0.75092274
1.5570747 -2.7486272 -0.7504372
1.5382894 -2.754741 -0.74946612
1.52276 -2.7666779 -0.75019443
1.5066798 -2.7776752 -0.75067997
1.4928068 -2.7928576 -0.75237936
1.4797075 -2.8096912 -0.75456423
1.4588681 -2.8118277 -0.75262213
1.4464403 -2.8302298 -0.75529253
1.4246887 -2.8303852 -0.7528649
1.4038509 -2.832119 -0.75092274
1.3877224 -2.8432953 -0.75165105
1.3664719 -2.8438859 -0.74946612
1.3498253 -2.853971 -0.74995166
1.338833 -2.8762736 -0.75383592
1.3163155 -2.8738492 -0.75092274
1.3010465 -2.8871791 -0.75237936
1.2895913 -2.9093001 -0.75626361
1.2693918 -2.9118216 -0.754807
1.2530289 -2.9231226 -0.75577807
1.2369512 -2.9352264 -0.75699192
1.2200304 -2.9454503 -0.75772023
1.1997422 -2.947489 -0.75626361
1.1798347 -2.9502907 -0.75504977
1.1592295 -2.951153 -0.75335044
1.1379607 -2.9500635 -0.75116551
1.1215541 -2.9615269 -0.75237936
1.1026862 -2.9665341 -0.75189382
1.0857913 -2.9768901 -0.7528649
1.0655462 -2.9780154 -0.75140828
1.0437239 -2.974427 -0.74873781
1.0273449 -2.98628 -0.75019443
1.0117886 -3.0008016 -0.75237936
0.98940551 -2.9949772 -0.74922335
0.98055559 -3.0305302 -0.75699192
0.95345592 -3.0096679 -0.74995166
0.93669271 -3.0210216 -0.75140828
0.92038846 -3.0341394 -0.75335044
0.90147847 -3.0387995 -0.75310767
0.89576817 -3.0890002 -0.76476055
0.89211649 -3.1485777 -0.77884108
0.85314298 -3.0829291 -0.7603907
0.8319366 -3.0796766 -0.75820577
0.8061114 -3.0584552 -0.75140828
0.78588313 -3.0577061 -0.74995166
0.76663584 -3.0605884 -0.74946612
0.74738282 -3.0633497 -0.74898058
0.73058659 -3.0763731 -0.75116551
0.71082455 -3.0770171 -0.75019443
0.69256753 -3.0841603 -0.75092274
0.67528152 -3.0959349 -0.7528649
0.65526968 -3.0952744 -0.75165105
0.63451248 -3.0906837 -0.74946612
0.61459196 -3.0897613 -0.74825227
0.59525585 -3.0915689 -0.74776673
0.57698399 -3.098978 -0.74873781
0.56001443 -3.1139181 -0.75165105
0.54238665 -3.1258984 -0.75383592
0.52511179 -3.14065 -0.75674915
0.50782996 -3.1562645 -0.75990516
0.48697525 -3.1497335 -0.75747746
0.46749771 -3.1517026 -0.75723469
0.44665337 -3.1439464 -0.75456423
0.42475012 -3.1274018 -0.74970889
0.40505555 -3.1261008 -0.74873781
0.38503778 -3.1217875 -0.74703842
0.36463833 -3.1134923 -0.74436796
0.34563398 -3.1166353 -0.74461073
0.32670549 -3.1206272 -0.74509627
0.30840406 -3.1312621 -0.74728119
0.29051721 -3.1475856 -0.75092274
0.27153 -3.1531751 -0.75189382
0.25271595 -3.161551 -0.75359321
0.23359631 -3.1669121 -0.75456423
0.2143553 -3.1711893 -0.75529253
0.19471583 -3.1695402 -0.75456423
0.17510468 -3.1677694 -0.75383592
0.1555226 -3.1658773 -0.75310767
0.13609421 -3.1667719 -0.75310767
0.11683743 -3.1723948 -0.75432146
0.097487375 -3.1769304 -0.75529253
0.078132942 -3.1832876 -0.75674915
0.058599189 -3.183707 -0.75674915
0.039063226 -3.1840067 -0.75674915
0.019564943 -3.1909769 -0.75844854
-1.4532114e-05 -3.1900668 -0.75820577
-0.019537916 -3.1822462 -0.75626361
-0.039014388 -3.1781864 -0.75529253
-0.058296047 -3.1662481 -0.75237936
-0.077674352 -3.1638913 -0.75189382
-0.096905462 -3.1575375 -0.7504372
-0.11598939 -3.149128 -0.74849504
-0.13509983 -3.1435113 -0.74728119
-0.15448143 -3.1445608 -0.74776673
-0.17415051 -3.1503339 -0.74946612
-0.19377655 -3.1540473 -0.75067997
-0.21299419 -3.1508632 -0.75019443
-0.23246697 -3.1514318 -0.75067997
-0.25226536 -3.1557479 -0.75213659
-0.2717075 -3.155107 -0.75237936
-0.29150933 -3.1582103 -0.75359321
-0.31107315 -3.158293 -0.75407869
-0.3302435 -3.1543951 -0.75359321
-0.35034326 -3.1590583 -0.75529253
-0.36994666 -3.1587763 -0.75577807
-0.38944069 -3.1574094 -0.75602084
-0.4080568 -3.1491885 -0.75456423
-0.42711034 -3.1447031 -0.75407869
-0.44680828 -3.1449044 -0.754807
-0.46581125 -3.1401844 -0.75432146
-0.48640752 -3.145895 -0.75650638
-0.50508338 -3.1390204 -0.7555353
-0.5236932 -3.1320353 -0.75456423
-0.54290116 -3.128763 -0.75456423
-0.56174451 -3.1234634 -0.75407869
-0.5801875 -3.1161432 -0.75310767
-0.59819424 -3.1068096 -0.75165105
-0.61516035 -3.0926156 -0.74898058
-0.63510191 -3.0935338 -0.75019443
-0.6530652 -3.0848336 -0.74898058
-0.67384481 -3.089298 -0.75116551
-0.694278 -3.0917301 -0.7528649
-0.71564114 -3.0978081 -0.7555353
-0.73530895 -3.09619 -0.75626361
-0.75337183 -3.0878506 -0.75529253
-0.77206832 -3.0822289 -0.75504977
-0.78975683 -3.0727363 -0.75383592
-0.81008148 -3.0734603 -0.75529253
-0.8294313 -3.0703049 -0.75577807
-0.84644115 -3.0586138 -0.75407869
-0.86810547 -3.0636282 -0.75674915
-0.88580501 -3.0545175 -0.75577807
-0.89955813 -3.0322862 -0.75140828
-0.91645527 -3.0211403 -0.74995166
-0.9309485 -3.0024898 -0.74655288
-0.94935393 -2.996721 -0.74655288
-0.96951747 -2.9963765 -0.7480095
-0.98879856 -2.9931345 -0.74873781
-1.0071455 -2.987011 -0.74873781
-1.0295614 -2.9926984 -0.75189382
-1.0517634 -2.9973078 -0.754807
-1.0668632 -2.9816654 -0.75237936
-1.0834745 -2.9705069 -0.75116551
-1.1087859 -2.9828956 -0.75626361
-1.1253481 -2.9715006 -0.75504977
-1.1470543 -2.9735892 -0.75747746
-1.1588882 -2.9502449 -0.75310767
-1.1921115 -2.9809036 -0.76330394
-1.1979334 -2.9429884 -0.75504977
-1.2137394 -2.9302058 -0.75359321
-1.2335812 -2.9271724 -0.754807
-1.2469283 -2.9088504 -0.75189382
-1.2682452 -2.9091468 -0.75407869
-1.2888256 -2.9075172 -0.75577807
-1.3122259 -2.9119344 -0.75917685
-1.3284513 -2.9003005 -0.75820577
-1.3474513 -2.8947327 -0.75893408
-1.3651878 -2.8864105 -0.75893408
-1.3866569 -2.8858476 -0.76111901
-1.4060413 -2.8807714 -0.76209009
-1.4254155 -2.8755658 -0.76306117
-1.4399774 -2.8607011 -0.76136178
-1.455736 -2.8483572 -0.7603907
-1.4745271 -2.841954 -0.76111901
-1.4955561 -2.8397183 -0.76306117
-1.5115793 -2.8279221 -0.76233286
-1.5251998 -2.8117738 -0.7603907
-1.5471046 -2.8108592 -0.7628184
-1.5595897 -2.7928455 -0.7603907
-1.576697 -2.7832234 -0.7603907
-1.5956794 -2.7768602 -0.76136178
-1.6165981 -2.7737207 -0.76330394
-1.6409957 -2.776273 -0.76694542
-1.6540074 -2.7594969 -0.76500332
-1.6754454 -2.7567554 -0.76718819
-1.6943657 -2.7497258 -0.76815927
-1.7086346 -2.7351649 -0.76694542
-1.726943 -2.7270875 -0.76767373
-1.7420707 -2.7139914 -0.76694542
-1.7602785 -2.7056899 -0.76767373
-1.7805872 -2.700506 -0.76937312
-1.7928097 -2.6830785 -0.76743096
-1.8130484 -2.677649 -0.76913035
-1.829993 -2.6672738 -0.76937312
-1.8407847 -2.6480315 -0.76694542
-1.8681755 -2.6525452 -0.77180082
-1.8832886 -2.6394534 -0.77131528
-1.8977429 -2.6254902 -0.77058697
-1.9132435 -2.613014 -0.7703442
-1.9286624 -2.6004462 -0.77010143
-1.9375869 -2.5792584 -0.76718819
-1.9545518 -2.5688646 -0.76767373
-1.9685001 -2.5545189 -0.76694542
-1.9823459 -2.5400987 -0.76621711
-2.0009034 -2.5316918 -0.76743096
-2.021858 -2.5261812 -0.76961589
-2.0263207 -2.5001662 -0.76524609
-2.0379291 -2.4831879 -0.76378947
-2.0525069 -2.4698908 -0.76354671
-2.0576258 -2.4453776 -0.75966239
-2.0782561 -2.4393499 -0.76184732
-2.0988898 -2.433161 -0.76403224
-2.1252711 -2.4333842 -0.76840204
-2.134376 -2.4137595 -0.76621711
-2.1472046 -2.3984504 -0.76548886
-2.1612289 -2.3845115 -0.76524609
-2.1626968 -2.356915 -0.7603907
-2.1797597 -2.3464425 -0.76136178
-2.1974406 -2.3365557 -0.76257563
-2.2097285 -2.3209214 -0.76184732
-2.2239277 -2.3073192 -0.76184732
-2.2360101 -2.2915478 -0.76111901
-2.2507107 -2.2784746 -0.76136178
-2.2577868 -2.2577646 -0.75893408
-2.2971425 -2.2690833 -0.7679165
-2.2804611 -2.2251475 -0.75723469
-2.2884817 -2.2057295 -0.75529253
-2.3005669 -2.1903088 -0.754807
-2.3090148 -2.1715012 -0.75310767
-2.3230064 -2.1579525 -0.75335044
-2.3354886 -2.1430025 -0.75310767
-2.3449986 -2.125376 -0.75189382
-2.3543806 -2.1077135 -0.75067997
-2.3563645 -2.0835924 -0.74703842
-2.3639884 -2.06463 -0.74533904
-2.3677948 -2.0424855 -0.7424258
-2.3765893 -2.0247743 -0.74121201
-2.388226 -2.0095296 -0.74096924
-2.397526 -1.9923589 -0.73999816
-2.405205 -1.9739196 -0.73854154
-2.4150097 -1.9572928 -0.73781323
-2.4201558 -1.9369848 -0.73562831
-2.4259048 -1.9172888 -0.73368615
-2.4337983 -1.8993849 -0.7324723
-2.4431012 -1.8826401 -0.73174399
-2.4530623 -1.8664398 -0.73125845
-2.4644685 -1.851353 -0.73125845
-2.4734435 -1.8344637 -0.73053014
-2.4823043 -1.817534 -0.72980183
-2.4871182 -1.7977248 -0.72785974
-2.4949424 -1.7801777 -0.72688866
-2.5018518 -1.7620441 -0.72567481
-2.5062425 -1.7422326 -0.72373265
-2.5104845 -1.7224337 -0.72179049
-2.516185 -1.7037356 -0.72033387
-2.5217509 -1.6850326 -0.71887726
-2.5239418 -1.6641909 -0.71644962
-2.5349188 -1.6492016 -0.71669239
-2.5392745 -1.6299506 -0.714993
-2.5459487 -1.6122645 -0.71402192
-2.5525017 -1.5945579 -0.71305084
-2.5572813 -1.5758145 -0.71159422
-2.5677311 -1.5605972 -0.71183699
-2.5747619 -1.5433172 -0.71110868
-2.5749946 -1.5220635 -0.70843822
-2.5859621 -1.5072113 -0.70892376
-2.5926375 -1.4898667 -0.70819545
-2.5958207 -1.4705857 -0.70649606
-2.6014066 -1.4527397 -0.70552498
-2.6111214 -1.4372178 -0.70576775
-2.6164794 -1.4193203 -0.70479667
-2.6345518 -1.4082661 -0.70746714
-2.6379921 -1.3893639 -0.70601052
-2.6378548 -1.3686869 -0.70358288
-2.6453395 -1.3520344 -0.70334011
-2.6466522 -1.3322908 -0.70139796
-2.643476 -1.3104295 -0.69824195
-2.647979 -1.292484 -0.69727087
-2.6514871 -1.2741129 -0.69605702
-2.6601319 -1.2582341 -0.69629979
-2.6678023 -1.2418882 -0.69629979
-2.6727259 -1.2242845 -0.69557148
-2.67488 -1.2054727 -0.69411486
-2.6822264 -1.1890372 -0.69411486
-2.6779096 -1.1675216 -0.69095892
-2.6787806 -1.1483952 -0.68925953
-2.6902471 -1.1338187 -0.69047338
-2.6863968 -1.1128396 -0.68756014
-2.6931746 -1.0963352 -0.68756014
-2.705256 -1.0819488 -0.68901676
-2.7109406 -1.064975 -0.68877399
-2.6775949 -1.032974 -0.67809218
-2.7111027 -1.0268221 -0.68537521
-0.28373596 -0.10659442 -0.035726588
-0.25704035 -0.094889291 -0.02844353
-0.26949322 -0.097554483 -0.031599522
-0.27374867 -0.097182512 -0.032570597
-0.27709213 -0.096446708 -0.033298902
-0.27859804 -0.095054284 -0.033541668
-0.27917603 -0.093343049 -0.033541668
-0.27420503 -0.08983852 -0.032085057
-0.27105153 -0.086983822 -0.031113984
-0.26509342 -0.08331041 -0.029414605
-0.26467121 -0.081401005 -0.029171836
-0.26516569 -0.079775475 -0.029171836
-0.26192299 -0.077067584 -0.028200762
-0.26332438 -0.075723119 -0.02844353
-0.26378405 -0.074105971 -0.02844353
-0.26236057 -0.071980737 -0.027957993
-0.26185915 -0.070122674 -0.027715225
-0 -0 -0
-0.26269996 -0.066903979 -0.027715225
-0.26310551 -0.065290824 -0.027715225
-0.26255727 -0.063451409 -0.027472457
-0.26105112 -0.061403196 -0.026986919
-0.25763661 -0.058951478 -0.026015844
-0 -0 -0
-0.25359499 -0.054782625 -0.024802003
-0.25392637 -0.053225566 -0.024802003
-0 -0 -0
-0 -0 -0
-0 -0 -0
-0 -0 -0
-0 -0 -0
-0 -0 -0
-0 -0 -0
-0 -0 -0
-0 -0 -0
-0 -0 -0
-0 -0 -0
-0 -0 -0
-0 -0 -0
-0 -0 -0
-0 -0 -0
-0 -0 -0
-0 -0 -0
-0 -0 -0
-0 -0 -0
-0 -0 -0
-0 -0 -0
-0.26458684 -0.018958166 -0.026258614
-0 -0 -0
-0 -0 -0
-0 -0 -0
-0.27757207 -0.012995996 -0.029414605
-0.27861601 -0.011327947 -0.029657373
-0 -0 -0
-0.28067365 -0.0079549421 -0.030142911
-0 -0 -0
-0 -0 -0
-0 -0 -0
-0.27399376 -0.0010669883 -0.02844353
-0.27496523 0.00062053802 -0.028686298
-0 0 -0
-0 0 -0
-0.27684677 0.0057299766 -0.029171836
-0.27680641 0.0074285688 -0.029171836
-0.27869445 0.0091990121 -0.029657373
-0 0 -0
-0.28243616 0.012810166 -0.030628446
-0.28428942 0.014650727 -0.031113984
-0.28709888 0.016574355 -0.031842291
-0.28989533 0.018533003 -0.032570597
-0.25581121 -0.0060332594 -0.026759299
-0.26744908 -0.0046840147 -0.029802367
-0.26747277 -0.0030428898 -0.029802367
-0.27232286 -0.0014341759 -0.031070312
-0.27329385 0.00023622297 -0.031323902
-0.27038535 0.0018970214 -0.030563135
-0.27036864 0.0035560392 -0.030563135
-0.27034172 0.0052149231 -0.030563135
-0.26740354 0.0068041021 -0.029802367
-0.26735675 0.0084447311 -0.029802367
-0.26536655 0.010014974 -0.029295189
-0.26723298 0.011724974 -0.029802367
-0 0 -0
-0 0 -0
-0 0 -0
-0 0 -0
-0 0 -0
-0 0 -0
-0 0 -0
-0 0 -0
-0 0 -0
-0 0 -0
-0 0 -0
-0 0 -0
-0 0 -0
-0 0 -0
-0 0 -0
-0 0 -0
-0 0 -0
-0 0 -0
-0 0 -0
-0 0 -0
-0 0 -0
-0 0 -0
-0 0 -0
-0 0 -0
-0 0 -0
-0 0 -0
-0 0 -0
-0 0 -0
-0 0 -0
-0 0 -0
-0 0 -0
-0 0 -0
-0 0 -0
-0 0 -0
-0 0 -0
-0 0 -0
-0 0 -0
-0 0 -0
-0 0 -0
-0 0 -0
-0 0 -0
-0 0 -0
-0 0 -0
-0 0 -0
-0 0 -0
-0 0 -0
-0 0 -0
-0 0 -0
-0 0 -0
-0 0 -0
-0 0 -0
-0 0 -0
-0 0 -0
-0 0 -0
-0 0 -0
-0 0 -0
-0 0 -0
-0 0 -0
-0 0 -0
-0 0 -0
-0 0 -0
-0 0 -0
-0 0 -0
-0 0 -0
-0 0 -0
-0 0 -0
-0 0 -0
-0 0 -0
-0 0 -0
-0 0 -0
-0 0 -0
-0 0 -0
-0 0 -0
-0 0 -0
-0 0 -0
-0 0 -0
-0 0 -0
-0 0 -0
-0 0 -0
-0 0 -0
-0 0 -0
-0 0 -0
-0 0 -0
-0 0 -0
-0 0 -0
-0.25673789 0.16505149 -0.039692342
-0.25815371 0.16820475 -0.04045311
-0 0 -0
-0.25365633 0.16974923 -0.039692342
-0.26302686 0.17834665 -0.042989001
-0.2411807 0.16574121 -0.036395684
-0.25446177 0.17714773 -0.04096029
-0.26365545 0.1859405 -0.044256948
-0.26723611 0.19092295 -0.045778483
-0.25900093 0.1874634 -0.04349618
-0.26253065 0.19247501 -0.045017716
-0.26834032 0.19926417 -0.047300018
-0.26943386 0.20264851 -0.048060786
-0.24970134 0.19025154 -0.041974645
-0.24622959 0.19001018 -0.041213877
-0.28396836 0.22184569 -0.054146923
-0.2826018 0.22358391 -0.054146923
-0.26611316 0.21323392 -0.049075142
-0.28058866 0.22764364 -0.054400511
-0.27993467 0.22997423 -0.054654103
-0.27851832 0.23168755 -0.054654103
-0.27709147 0.23339215 -0.054654103
-0.26313046 0.22443096 -0.050343085
-0.25515297 0.22035876 -0.048060786
-0.25379607 0.22192019 -0.048060786
-0.26983023 0.23884134 -0.054146923
-0.25538015 0.22888659 -0.049582317
-0.26687896 0.24213459 -0.054146923
-0.24827343 0.22808182 -0.048060786
-0.2553784 0.23749614 -0.051103853
-0.25744155 0.24237002 -0.0523718
-0.25244471 0.24061215 -0.051103853
-0.25862908 0.24953623 -0.053893335
-0.270255 0.26394612 -0.058711529
-0.23971014 0.23706554 -0.048060786
-0.26083606 0.26109037 -0.056429226
-0.26739141 0.27093923 -0.059472296
-0 0 -0
-0 0 -0
-0 0 -0
-0 0 -0
-0 0 -0
-0 0 -0
-0 0 -0
-0 0 -0
-0 0 -0
-0 0 -0
-0 0 -0
-0 0 -0
-0 0 -0
-1.9810061 2.3816502 -0.77180415
-0 0 -0
-1.9516304 2.4057808 -0.77180415
-1.9362272 2.4169557 -0.77155054
-1.9195598 2.4265149 -0.7707898
-1.9028482 2.4359608 -0.77002901
-1.8914109 2.4521859 -0.77155054
-1.8769151 2.4645145 -0.77180415
-1.8617579 2.4759846 -0.77180415
-1.8499906 2.4920213 -0.77332568
-1.8358088 2.5048859 -0.77383286
-1.822673 2.5192378 -0.77484721
-1.8083055 2.5319481 -0.77535439
-1.7938507 2.5445771 -0.77586156
-1.7776511 2.5547421 -0.77560794
-1.7613943 2.5648041 -0.77535439
-1.7472522 2.5779655 -0.77611518
-1.7319391 2.589442 -0.77636874
-1.7149521 2.5984056 -0.77586156
-1.6963364 2.6048269 -0.77459359
-1.6829365 2.6192551 -0.77586156
-1.6637254 2.6246305 -0.77434003
-1.6475897 2.6347895 -0.77434003
-1.6334236 2.6481423 -0.77535439
-1.6161385 2.6564622 -0.77484721
-1.6067773 2.6779404 -0.77839744
-1.594257 2.6944084 -0.78042614
-1.5776944 2.7041397 -0.78042614
-1.5663792 2.7229922 -0.78321564
-1.5520282 2.7367587 -0.78448361
-1.5408719 2.7563617 -0.78752667
-1.5271986 2.7716944 -0.78930181
-1.5110865 2.7827129 -0.78980899
-1.496266 2.7961967 -0.7910769
-1.4754708 2.79848 -0.78904819
-1.451136 2.7937469 -0.78499079
-1.4330851 2.8008761 -0.78448361
-1.4089055 2.7957964 -0.78042614
-1.3934448 2.8078542 -0.7814405
-1.3706676 2.8050537 -0.77814388
-1.351333 2.8090529 -0.77687591
-1.3369702 2.8234112 -0.77865106
-1.3167599 2.8254244 -0.77687591
-1.2961719 2.826417 -0.77484721
-1.2799988 2.836962 -0.77560794
-1.2645299 2.8491831 -0.77687591
-1.2493464 2.8622074 -0.77839744
-1.2252729 2.8547089 -0.77408642
-1.2103668 2.8684115 -0.77586156
-1.1920025 2.8739972 -0.77535439
-1.169963 2.8705084 -0.77231133
-1.1512487 2.8749394 -0.77155054
-1.1318158 2.8774486 -0.77028263
-1.1116982 2.8780231 -0.76850748
-1.0957336 2.8893123 -0.76977545
-1.0779845 2.8959811 -0.76977545
-1.0595309 2.9007239 -0.76926821
-1.0426916 2.9099021 -0.77002901
-1.0238547 2.9135075 -0.76926821
-1.0059584 2.919735 -0.76926821
-0.98647636 2.9212701 -0.7680003
-0.96974909 2.9309413 -0.76901466
-0.9526419 2.9395969 -0.76977545
-0.93458694 2.9453869 -0.76977545
-0.91534877 2.947371 -0.76876104
-0.89921618 2.9594104 -0.77053618
-0.88048935 2.9630179 -0.77002901
-0.86337191 2.9720802 -0.77104336
-0.063179627 0.22392459 -0.02067316
-0.82916176 2.9908404 -0.77332568
-0.81307006 3.0042748 -0.77560794
-0.073872335 0.28116295 -0.035888508
-0.063457429 0.24788895 -0.026759299
-0 0 -0
-0 0 -0
-0 0 -0
-0.058664508 0.2550258 -0.028280834
-0.057311092 0.25632462 -0.028534422
-0 0 -0
-0 0 -0
-0.052778374 0.25828356 -0.028788012
-0 0 -0
-0.049237967 0.25701225 -0.028280834
-0.04783766 0.2582604 -0.028534422
-0.046080325 0.25759715 -0.028280834
-0.044830739 0.25978097 -0.028788012
-0.043235909 0.26005116 -0.028788012
-0 0 -0
-0.038557768 0.25100347 -0.026252121
-0 0 -0
-0.035338044 0.25050014 -0.025998531
-0 0 -0
-0 0 -0
-0 0 -0
-0 0 -0
-0 0 -0
-0 0 -0
-0 0 -0
-0.28336754 3.0547433 -0.7639429
-0.26311457 3.039078 -0.75937825
-0.24384102 3.0329216 -0.75734955
-0.22364876 3.0131385 -0.75177062
-0.20436659 3.0028732 -0.7487275
-0.18545838 2.996347 -0.7466988
-0.16674589 2.9916337 -0.74517727
-0.1484825 2.9945328 -0.74568444
-0.12993717 2.9915218 -0.74467009
-0.11150675 2.9903295 -0.74416292
-0.093488991 3.0015926 -0.74695241
-0.07487534 2.9943738 -0.74492371
-0.056537546 2.996711 -0.74543089
-0.038136568 2.9960344 -0.74517727
-0.019674469 2.9846044 -0.74213421
-0.0013586298 2.9807997 -0.74111986
0.016877584 2.9710791 -0.73858398
0.035107464 2.9709196 -0.73858398
0.053318787 2.969681 -0.73833036
0.071585745 2.9712319 -0.73883754
0.089902841 2.9736376 -0.73959833
0.10835725 2.9788299 -0.74111986
0.12675586 2.9810083 -0.7418806
0.14532597 2.9859715 -0.74340212
0.16332787 2.9792283 -0.7418806
0.18160501 2.9781702 -0.7418806
0.1994226 2.9702437 -0.74010551
0.21722037 2.9631758 -0.73858398
0.23516846 2.9588943 -0.73782319
0.25315461 2.9554679 -0.73731601
0.27181429 2.9596386 -0.73883754
0.29119435 2.9704304 -0.74213421
0.3098157 2.9724362 -0.74314857
0.32900289 2.9791327 -0.74543089
0.34839579 2.986666 -0.74796677
0.36695078 2.9863923 -0.74847394
0.38464937 2.9792876 -0.74720597
0.40136728 2.9653683 -0.74416292
0.4192839 2.9609342 -0.74365574
0.43687847 2.954478 -0.74264139
0.45426238 2.9469616 -0.74137342
0.47172362 2.9402983 -0.74035907
0.49039191 2.9411652 -0.74137342
0.50777006 2.934288 -0.74035907
0.52713025 2.9387343 -0.74238777
0.54444605 2.9316404 -0.74137342
0.56096542 2.9206448 -0.73934472
0.57849926 2.9152501 -0.73883754
0.59521216 2.9059596 -0.73731601
0.61303163 2.9022527 -0.73731601
0.63082796 2.8984365 -0.73731601
0.64881194 2.8954554 -0.73756963
0.66721743 2.8942475 -0.73833036
0.68407184 2.8863342 -0.73731601
0.70314151 2.8877215 -0.73883754
0.72061253 2.8824143 -0.73858398
0.73708391 2.8732536 -0.73731601
0.75297809 2.8621283 -0.73554087
0.76951873 2.8537183 -0.73452652
0.78675687 2.8480103 -0.73427296
0.80500662 2.8459218 -0.73503369
0.82164711 2.8381412 -0.73427296
0.84069353 2.8386114 -0.73579448
0.85949636 2.8380287 -0.73706245
0.87432069 2.8243847 -0.73478013
0.89280069 2.8226562 -0.73579448
0.90742815 2.8088403 -0.73351216
0.92616022 2.8078129 -0.73478013
0.94460529 2.8057444 -0.73579448
0.9618032 2.7998955 -0.73579448
0.98312163 2.8058095 -0.73909116
1.0025966 2.8061011 -0.74086624
1.0221121 2.8062592 -0.74264139
1.0393118 2.7999346 -0.74264139
1.0554461 2.7907903 -0.7418806
1.0728978 2.7851644 -0.74213421
1.0885546 2.7749267 -0.74111986
1.1044848 2.7655001 -0.74035907
1.119612 2.7541902 -0.73909116
1.1361207 2.7463746 -0.73883754
1.151075 2.7348938 -0.73756963
1.1674538 2.7268903 -0.73731601
1.1826196 2.7161276 -0.73630166
1.1973058 2.7043974 -0.73503369
1.2146709 2.6987643 -0.73554087
1.2312074 2.6912603 -0.73554087
1.2472898 2.6827779 -0.73528731
1.2699234 2.6881945 -0.73909116
1.2859756 2.6794796 -0.73883754
1.2960358 2.6584954 -0.73503369
1.3256255 2.6773679 -0.74289495
1.3415942 2.6683192 -0.74264139
1.3548635 2.654006 -0.74086624
1.3711227 2.6456428 -0.74086624
1.3846288 2.6320431 -0.73934472
1.3989308 2.620084 -0.73833036
1.413138 2.6080489 -0.73731601
1.4258527 2.593395 -0.73554087
1.443152 2.587132 -0.73630166
1.4613806 2.5824378 -0.73756963
1.4723842 2.5650325 -0.73503369
1.4885818 2.5567858 -0.73528731
1.5032585 2.5459378 -0.73478013
1.5218326 2.541646 -0.73630166
1.5379012 2.5330873 -0.73655522
1.5518941 2.5211318 -0.73579448
1.5657982 2.5091 -0.73503369
1.5832324 2.5027153 -0.73604804
1.6006471 2.4962111 -0.73706245
1.6206766 2.493643 -0.73934472
1.6439266 2.49577 -0.74314857
1.6554509 2.4800038 -0.74137342
1.677139 2.4794149 -0.74441653
1.694508 2.4722695 -0.74543089
1.7085423 2.4602365 -0.74492371
1.7247189 2.4512892 -0.74543089
1.7369205 2.4367216 -0.74416292
1.7524054 2.4268024 -0.74441653
1.7741148 2.4253738 -0.74745959
1.7912664 2.4175515 -0.74847394
1.8031639 2.4026463 -0.74720597
1.8149459 2.3876863 -0.74593806
1.8283824 2.3749719 -0.74543089
1.8369738 2.3560791 -0.74289495
1.8513958 2.3447633 -0.74289495
1.8560843 2.3212702 -0.73883754
1.8672494 2.3060784 -0.73756963
1.8825905 2.2960739 -0.73807681
1.8910834 2.2777805 -0.73579448
1.9062687 2.2676151 -0.73630166
1.9207735 2.2566125 -0.73655522
1.9345837 2.2447844 -0.73655522
1.9553156 2.2408903 -0.73934472
1.969669 2.2295754 -0.73959833
1.9833122 2.2174478 -0.73959833
1.9975301 2.2059538 -0.73985189
2.0103745 2.1929426 -0.73959833
2.0231342 2.1798568 -0.73934472
2.0391207 2.170222 -0.74035907
2.0543983 2.1597724 -0.74111986
2.0676117 2.1471262 -0.74111986
2.0780468 2.1316283 -0.74010551
2.0958428 2.1236575 -0.7418806
2.1095173 2.1114421 -0.74213421
2.1244965 2.1004992 -0.74289495
2.1394207 2.0894518 -0.74365574
2.1556816 2.0796437 -0.74492371
2.1726024 2.0703819 -0.74644524
2.1937163 2.0649693 -0.74948829
2.2020955 2.0475175 -0.74796677
2.2131927 2.0326583 -0.74745959
2.2249069 2.0183902 -0.74720597
2.2430122 2.0098653 -0.74923468
2.2538538 1.9947822 -0.7487275
2.2660511 1.9809153 -0.7487275
2.2803593 1.9688705 -0.74948829
2.294605 1.9567248 -0.75024909
2.3058283 1.9419852 -0.74999547
2.3117518 1.922851 -0.74796677
2.3167803 1.9031034 -0.74568444
2.3254094 1.8864141 -0.74467009
2.3286369 1.8654563 -0.7418806
2.3453493 1.8553346 -0.74365574
2.355927 1.8403133 -0.74340212
2.3710039 1.8287774 -0.74467009
2.3852584 1.8165395 -0.74568444
2.3909481 1.7977996 -0.74390936
2.4027109 1.7836719 -0.74416292
2.41361 1.7688955 -0.74416292
2.4244182 1.7540525 -0.74416292
2.431987 1.7368944 -0.74314857
2.4449701 1.7236117 -0.74390936
2.4610577 1.7124453 -0.74568444
2.4763024 1.7005986 -0.74720597
2.4842885 1.6837438 -0.74644524
2.4897492 1.6652415 -0.74492371
2.5071855 1.6547298 -0.74720597
2.5205336 1.6414268 -0.74822032
2.5321851 1.6269761 -0.7487275
2.5478389 1.6150342 -0.75050265
2.5618012 1.6019355 -0.75177062
2.5707588 1.5856785 -0.751517
2.5812664 1.5703776 -0.75177062
2.5908535 1.5545096 -0.75177062
2.5978458 1.5371052 -0.75100982
2.6088991 1.5221113 -0.751517
2.6165128 1.5051099 -0.75100982
2.6282227 1.4904587 -0.75177062
2.644917 1.4785533 -0.75405288
2.6513979 1.4608958 -0.75329214
2.6433117 1.4353653 -0.74822032
2.663156 1.4250536 -0.751517
2.6632938 1.4041735 -0.74898112
2.6727178 1.3882513 -0.74923468
0 0 -0
2.6645033 1.3427212 -0.7418806
2.6752911 1.3276372 -0.74264139
2.6859941 1.3124713 -0.74340212
2.6905103 1.2942878 -0.74238777
2.7097657 1.283138 -0.74568444
2.7184646 1.2668958 -0.74593806
2.730583 1.2522084 -0.74720597
2.738215 1.2354302 -0.74720597
2.7492802 1.2201757 -0.74822032
2.75051 1.2005739 -0.74644524
2.762269 1.1855826 -0.74771315
2.7703829 1.1689875 -0.74796677
2.7783968 1.1523376 -0.74822032
2.7881024 1.1363635 -0.74898112
2.7968183 1.1199541 -0.74948829
2.8036375 1.102772 -0.74948829
2.809449 1.0851998 -0.74923468
2.8142459 1.0672547 -0.7487275
0 0 -0
2.8107769 1.0266633 -0.74416292
2.8115602 1.0074389 -0.74264139
2.8094757 0.98728114 -0.74035907
2.8301127 0.97506738 -0.74441653
2.8397081 0.95892215 -0.74543089
2.8464568 0.94178396 -0.74568444
2.875186 0.93175894 -0.75202417
2.8928344 0.91790438 -0.75532085
2.9039547 0.9018591 -0.75684237
2.9131358 0.88514912 -0.75785673
2.9129488 0.86560386 -0.7563352
2.9154186 0.84690416 -0.75557441
2.9214907 0.82926381 -0.75582802
2.9199991 0.80951244 -0.75405288
2.9193091 0.7900635 -0.75253135
2.9222314 0.77164191 -0.75202417
2.9100502 0.74935275 -0.74745959
2.9267898 0.73454559 -0.75075626
2.9368794 0.71795231 -0.75227779
2.9355834 0.69857407 -0.75075626
2.943584 0.68142164 -0.75177062
2.9467659 0.66313481 -0.751517
2.9488895 0.64462793 -0.75100982
2.9499507 0.62591904 -0.75024909
2.9527884 0.60761166 -0.74999547
2.9498208 0.5881573 -0.74822032
2.9495749 0.56931269 -0.74720597
2.9634721 0.55315751 -0.74999547
2.9706182 0.53565067 -0.75100982
2.9767079 0.51791108 -0.75177062
2.9874616 0.50091726 -0.75379932
2.986659 0.48196018 -0.75278497
2.9819133 0.46243837 -0.75075626
2.9904351 0.44498798 -0.75227779
2.9825754 0.42512777 -0.74948829
2.9937537 0.40799576 -0.75177062
2.9923639 0.3891193 -0.75075626
2.9927752 0.3705132 -0.75024909
3.0094025 0.35383916 -0.75405288
3.0067103 0.33483121 -0.75278497
0 0 -0
3.0125179 0.29809982 -0.75329214
2.9979165 0.27808872 -0.74898112
3.0014937 0.25985572 -0.74948829
3.0030317 0.24143401 -0.74948829
2.9996333 0.22264457 -0.74822032
3.0086637 0.20476143 -0.75024909
3.0098634 0.18629676 -0.75024909
3.0196421 0.16831073 -0.75253135
3.0322113 0.15035577 -0.75557441
3.0379088 0.13195817 -0.75684237
3.0367281 0.11324308 -0.7563352
3.0325315 0.094456725 -0.75506723
3.028219 0.075726144 -0.75379932
3.0344296 0.057254162 -0.75532085
3.0356908 0.038646616 -0.75557441
3.0194268 0.019908652 -0.75126344
3.0185249 0.0013808518 -0.75100982
3.0184765 -0.017140495 -0.75100982
3.0183146 -0.035661194 -0.75100982
3.019006 -0.054197792 -0.75126344
3.0089464 -0.072489351 -0.7487275
3.0103786 -0.091008738 -0.74923468
3.0184636 -0.10979367 -0.751517
3.0167668 -0.12827158 -0.75126344
3.0236523 -0.14715487 -0.75329214
3.0130339 -0.16517664 -0.75075626
3.012929 -0.18371992 -0.75100982
3.0088496 -0.20200942 -0.75024909
3.0046592 -0.22025581 -0.74948829
3.0032513 -0.2386879 -0.74948829
3.0065491 -0.25752315 -0.75075626
2.9991329 -0.2754361 -0.74923468
3.011827 -0.29524696 -0.75303853
3.0138071 -0.31412223 -0.75405288
3.0185533 -0.33335105 -0.75582802
3.0231767 -0.35264993 -0.75760317
3.0247965 -0.37166452 -0.75861752
3.0205402 -0.38996986 -0.75811034
3.0200078 -0.40875545 -0.75861752
3.0107384 -0.4263297 -0.75684237
3.0080659 -0.44479522 -0.75684237
2.9947636 -0.46162435 -0.75405288
2.9918747 -0.47999117 -0.75405288
2.9888732 -0.49833995 -0.75405288
2.9800401 -0.51568109 -0.75253135
2.9853892 -0.53549248 -0.75481367
2.9791939 -0.55327088 -0.75405288
2.9709933 -0.57062882 -0.75278497
2.9617431 -0.58771884 -0.75126344
2.9571335 -0.60568672 -0.75100982
2.9476826 -0.62262124 -0.74948829
2.9352999 -0.63884586 -0.74720597
2.9360445 -0.65790141 -0.74847394
2.9300671 -0.67546993 -0.74796677
2.9230435 -0.6927669 -0.74720597
2.9234371 -0.71183294 -0.74847394
2.9171374 -0.72928846 -0.74796677
2.9238517 -0.7500568 -0.75100982
2.923872 -0.76921302 -0.75227779
2.9190972 -0.78713906 -0.75227779
2.91328 -0.80477804 -0.75202417
2.9027023 -0.82105947 -0.75050265
2.8938928 -0.83777922 -0.74948829
2.8877704 -0.85524547 -0.74923468
2.8880231 -0.87462991 -0.75075626
2.880754 -0.89176214 -0.75024909
2.8844512 -0.91233724 -0.75278497
2.8824811 -0.93120772 -0.75379932
2.871201 -0.94705945 -0.75227779
2.8699198 -0.96620154 -0.7535457
2.8621075 -0.98316455 -0.75303853
2.8496306 -0.99846941 -0.75126344
2.8407176 -1.0149596 -0.75050265
2.8353453 -1.0327017 -0.75075626
2.8280485 -1.0497432 -0.75050265
2.8260782 -1.0687863 -0.75177062
2.8194671 -1.0861067 -0.75177062
2.8145509 -1.1040924 -0.75227779
2.8131135 -1.1234932 -0.75379932
2.8070631 -1.1410972 -0.75405288
2.7991147 -1.1579299 -0.75379932
2.7910655 -1.174708 -0.7535457
2.7802479 -1.1902891 -0.75253135
2.7684574 -1.2053958 -0.75126344
2.7574708 -1.2207942 -0.75024909
2.7463996 -1.2361032 -0.74923468
2.7361243 -1.2517246 -0.74847394
2.7275152 -1.2680819 -0.74822032
2.7258058 -1.2876852 -0.74999547
2.7178535 -1.3043861 -0.74999547
2.7158856 -1.3240044 -0.75177062
2.7129121 -1.3432184 -0.75329214
2.7054834 -1.3602736 -0.7535457
2.6988091 -1.377728 -0.75405288
2.6877282 -1.3929267 -0.75329214
2.6791308 -1.409392 -0.75329214
2.6670191 -1.4239824 -0.75227779
2.6582315 -1.4403201 -0.75227779
2.6484962 -1.4561377 -0.75202417
2.636977 -1.4709479 -0.75126344
2.6329534 -1.489958 -0.75278497
2.6204057 -1.5041597 -0.75177062
2.608619 -1.5187502 -0.75100982
2.603416 -1.5371863 -0.75227779
2.5931051 -1.5526348 -0.75202417
2.5851831 -1.5695204 -0.75253135
2.5837424 -1.5904227 -0.75506723
2.569011 -1.6031743 -0.7535457
2.5615783 -1.6204584 -0.7543065
2.553216 -1.6371895 -0.75481367
2.5390666 -1.6501898 -0.7535457
2.5264697 -1.6641423 -0.75278497
2.5178204 -1.6806868 -0.75329214
2.5058579 -1.6950206 -0.75278497
2.4986022 -1.7125514 -0.75379932
2.4848688 -1.7256436 -0.75278497
2.4710689 -1.738632 -0.75177062
2.4627175 -1.7554455 -0.75253135
2.4495471 -1.7688248 -0.75177062
2.4316204 -1.7786828 -0.74948829
2.4229927 -1.7952968 -0.75024909
2.4080625 -1.8072275 -0.74898112
2.3961582 -1.8213838 -0.7487275
2.3811045 -1.8331022 -0.74745959
2.3690491 -1.8470832 -0.74720597
2.3622265 -1.8651807 -0.7487275
2.356782 -1.8844719 -0.75075626
2.3474302 -1.9007232 -0.751517
2.338716 -1.9175438 -0.75253135
2.3328607 -1.9368001 -0.75456005
2.3179708 -1.9485885 -0.7535457
2.305234 -1.9621477 -0.75329214
2.2894871 -1.9730985 -0.75202417
2.2729635 -1.9832941 -0.75050265
2.2578514 -1.994642 -0.74948829
2.2520597 -2.0142615 -0.75177062
2.2396581 -2.0280418 -0.75177062
2.2293115 -2.0437067 -0.75253135
2.2167296 -2.0573471 -0.75253135
2.2019491 -2.068923 -0.75177062
2.1892128 -2.0823951 -0.75177062
2.183363 -2.1024973 -0.7543065
2.1655722 -2.1111286 -0.75253135
2.1560206 -2.1277735 -0.75379932
2.1477149 -2.1457477 -0.75557441
2.1345084 -2.1588855 -0.75557441
2.1212215 -2.1719418 -0.75557441
2.1078548 -2.1849165 -0.75557441
2.088402 -2.1915073 -0.75329214
2.0788946 -2.2085059 -0.75481367
2.063328 -2.2190952 -0.75405288
2.0562172 -2.2388372 -0.75658882
2.0417912 -2.2506955 -0.7563352
2.0324621 -2.2682235 -0.75811034
2.0191474 -2.2813761 -0.7583639
2.0012908 -2.2893531 -0.75684237
1.9916317 -2.3067143 -0.75861752
1.976185 -2.3174195 -0.75811034
1.9594355 -2.3265424 -0.75709599
1.9451232 -2.3385215 -0.75709599
1.9227544 -2.3406966 -0.75379932
1.9162794 -2.362215 -0.75709599
1.8957003 -2.36638 -0.75456005
1.8781437 -2.3741744 -0.75329214
1.8641362 -2.386416 -0.7535457
1.8476857 -2.3955116 -0.75278497
1.835297 -2.4098816 -0.75379932
1.8210571 -2.4218705 -0.75405288
1.8096226 -2.4376583 -0.75557441
1.7980628 -2.453397 -0.75709599
1.7824081 -2.4635999 -0.75684237
1.7661335 -2.4729159 -0.7563352
1.7509269 -2.4837062 -0.7563352
1.7378645 -2.4975786 -0.75734955
1.7208638 -2.5058031 -0.75658882
1.7038276 -2.5139129 -0.75582802
1.6889083 -2.5251241 -0.75608158
1.6717839 -2.5330176 -0.75532085
1.6588501 -2.5472806 -0.75658882
1.644235 -2.5590384 -0.75709599
1.6259121 -2.5649946 -0.75582802
1.6121949 -2.578203 -0.75684237
1.595329 -2.5864003 -0.7563352
1.5789263 -2.595314 -0.75608158
1.5624743 -2.6041238 -0.75582802
1.5430174 -2.6078348 -0.75405288
1.5255243 -2.6147473 -0.75329214
1.5133113 -2.6307659 -0.75532085
1.4904587 -2.6282227 -0.75177062
1.4757205 -2.6398513 -0.75253135
1.4548258 -2.6403849 -0.74999547
1.439059 -2.6501119 -0.75024909
1.42551 -2.6640089 -0.75177062
1.4091371 -2.6727054 -0.75177062
1.3927113 -2.6813014 -0.75177062
1.3788772 -2.694963 -0.75329214
1.3623152 -2.703373 -0.75329214
1.3482827 -2.7168796 -0.75481367
1.3290381 -2.719887 -0.75329214
1.3123242 -2.7279906 -0.75329214
1.2947327 -2.7342432 -0.75278497
1.2779312 -2.742136 -0.75278497
1.2630985 -2.7543218 -0.75405288
1.2497559 -2.7699552 -0.7563352
1.2292036 -2.7696145 -0.75405288
1.2121865 -2.7771046 -0.75405288
1.1955053 -2.7853789 -0.7543065
1.1810251 -2.7989001 -0.75608158
1.1653121 -2.8096681 -0.75709599
1.1447634 -2.8087039 -0.75481367
1.1285871 -2.8183689 -0.75557441
1.1105642 -2.8234406 -0.75506723
1.0893837 -2.8202765 -0.75227779
1.0703428 -2.8223858 -0.75100982
1.0499667 -2.8207417 -0.7487275
1.0296513 -2.818954 -0.74644524
1.0139672 -2.8297715 -0.74771315
1.0004348 -2.8468907 -0.75075626
0.97884995 -2.8410869 -0.74745959
0.96263731 -2.8507051 -0.74847394
0.94695145 -2.8620682 -0.74999547
0.9305656 -2.8715053 -0.75100982
0.91409957 -2.8808489 -0.75202417
0.89697981 -2.8882511 -0.75253135
0.88121033 -2.9001789 -0.7543065
0.86394989 -2.9073856 -0.75481367
0.84609425 -2.912632 -0.75481367
0.82741398 -2.9149771 -0.75405288
0.81028807 -2.9227955 -0.75481367
0.793603 -2.9323809 -0.75608158
0.77460694 -2.9334543 -0.75506723
0.75466228 -2.9306581 -0.75303853
0.73572356 -2.9314806 -0.75202417
0.71772248 -2.9359398 -0.75202417
0.69879812 -2.9365244 -0.75100982
0.67945713 -2.9351027 -0.74948829
0.6599474 -2.9326108 -0.74771315
0.64235425 -2.9384949 -0.74822032
0.62591904 -2.9499507 -0.75024909
0.60702634 -2.9499459 -0.74923468
0.58796805 -2.9488721 -0.74796677
0.57133061 -2.9600222 -0.74999547
0.55280226 -2.9615705 -0.74948829
0.53513539 -2.9677625 -0.75024909
0.51741326 -2.9738491 -0.75100982
0.4972353 -2.9655201 -0.74796677
0.48118904 -2.9818845 -0.751517
0.46377367 -2.9905159 -0.75303853
0.44071305 -2.9617324 -0.74467009
0.42635739 -2.991194 -0.75177062
0.4076035 -2.9908783 -0.75100982
0.38924414 -2.9933231 -0.75100982
0.371584 -3.001415 -0.75253135
0.35180366 -2.9921103 -0.74948829
0.33290187 -2.9894059 -0.74822032
0.31485683 -2.9942782 -0.74898112
0.2957153 -2.9884529 -0.74695241
0.27746239 -2.9911745 -0.74720597
0.25918725 -2.9937842 -0.74745959
0.24026932 -2.9885688 -0.74568444
0.22250111 -2.997704 -0.74771315
0.20430078 -3.0019081 -0.74847394
0.18593746 -3.0040705 -0.7487275
0.16777113 -3.009984 -0.74999547
0.14953922 -3.0157874 -0.75126344
0.13094768 -3.0147154 -0.75075626
0.11230257 -3.0115955 -0.74974185
0.093972862 -3.0170622 -0.75100982
0.075531669 -3.020483 -0.75177062
0.056905042 -3.0160539 -0.75050265
0.038497332 -3.0240841 -0.75253135
0.019960692 -3.0271652 -0.75329214
0.0013939571 -3.0407732 -0.75684237
-0.017204881 -3.0300841 -0.75405288
-0.035864606 -3.0357249 -0.75557441
-0.054473557 -3.0344806 -0.75532085
-0.072883226 -3.0253859 -0.75303853
-0.0917072 -3.0335836 -0.75532085
-0.11014402 -3.0281305 -0.75405288
-0.12864028 -3.0254648 -0.7535457
-0.14743623 -3.0294492 -0.75481367
-0.16612744 -3.0304193 -0.75532085
-0.18501237 -3.0341706 -0.75658882
