# .PCD v0.7 - Point Cloud Data file format
VERSION 0.7
FIELDS x y z
SIZE 4 4 4
TYPE F F F
COUNT 1 1 1
WIDTH 1625
HEIGHT 1
VIEWPOINT 0 0 0 1 0 0 0
POINTS 1625
DATA ascii
-0 0 -0
-0 0 -0
-0 0 -0
-0 0 -0
-0 0 -0
-0 0 -0
-0 0 -0
-0 0 -0
-0 0 -0
-0 0 -0
-0 0 -0
-0 0 -0
-0 0 -0
-0 0 -0
-0 0 -0
-0 0 -0
-0 0 -0
-0 0 -0
-0 0 -0
-0 0 -0
-0 0 -0
-0 0 -0
-0 0 -0
-0 0 -0
-0 0 -0
-0 0 -0
-0 0 -0
-0 0 -0
-0 0 -0
-0 0 -0
-0 0 -0
-0 0 -0
-0 0 -0
-0 0 -0
-0 0 -0
-0 0 -0
-0 0 -0
-0 0 -0
-0 0 -0
-0 0 -0
-0 0 -0
-0 0 -0
-0 0 -0
-0 0 -0
-0 0 -0
-0 0 -0
-0 0 -0
-0 0 -0
-0 0 -0
-0 0 -0
-0 0 -0
-0 0 -0
-0 0 -0
-0 0 -0
-0 0 -0
-0 0 -0
-0 0 -0
-0 0 -0
-0 0 -0
-0 0 -0
-0 0 -0
-0 0 -0
-0 0 -0
-0 0 -0
-0 0 -0
-0 0 -0
-0 0 -0
-0 0 -0
-0 0 -0
-0 0 -0
-0 0 -0
-0 0 -0
-0 0 -0
-0 0 -0
-0 0 -0
-0 0 -0
-0 0 -0
-0 0 -0
-0 0 -0
-0 0 -0
-0 0 -0
-0 0 -0
-0 0 -0
-0 0 -0
-0 0 -0
-0 0 -0
-0 0 -0
-0 0 -0
-0 0 -0
-0 0 -0
-0 0 -0
-0 0 -0
-0 0 -0
-0 0 -0
-0 0 -0
-0 0 -0
-0 0 -0
-0 0 -0
-0 0 -0
-0 0 -0
-0 0 -0
-0 0 -0
-0 0 -0
-0 0 -0
-0 0 -0
-0.24678622 0.20541902 -0.0060197399
-0 0 -0
-0 0 -0
-0.23395918 0.20216623 -0.0043766294
-0 0 -0
-0.24927713 0.22076291 -0.0076628509
-0.23241326 0.20841964 -0.0047874069
-0.26417121 0.2397636 -0.010949072
-0.2334889 0.21460313 -0.0054720365
-0.25249666 0.23490065 -0.0093059614
-0.23372535 0.22016557 -0.0060197399
-0.24744192 0.23593324 -0.0088951839
-0.26739478 0.25806126 -0.013002961
-0.26722488 0.26108012 -0.013276813
-0.26632291 0.26341072 -0.013413738
-0.23527068 0.23563331 -0.0076628509
-0.26655254 0.27018127 -0.014098368
-0.26696599 0.27393785 -0.014509146
-0.26665556 0.27699661 -0.014782998
-0.26631761 0.28006187 -0.015056849
-0.27613598 0.29395315 -0.017384589
-0.25071993 0.27025038 -0.012592183
-0.26513764 0.28929403 -0.015878405
-0.26402313 0.29164916 -0.01601533
-0.26156759 0.29252592 -0.015878405
-0.25976777 0.29412535 -0.015878405
-0.2560024 0.29347625 -0.015467627
-0.22506692 0.26130015 -0.0093059614
-0.22345936 0.26267621 -0.0093059614
-0 0 -0
-0 0 -0
-0 0 -0
-0 0 -0
-0 0 -0
-0 0 -0
-0 0 -0
-3.3875458 4.3929682 -0.72844076
-3.3893337 4.4514995 -0.73501325
-3.3667185 4.4785466 -0.7361086
-3.3385849 4.4983244 -0.73597169
-3.3232169 4.5355043 -0.73884714
-3.3005505 4.5630331 -0.74007946
-3.2880332 4.6049643 -0.7437765
-3.2882519 4.665535 -0.75062275
-3.2618258 4.6888762 -0.75117046
-3.2386014 4.7169681 -0.75253975
-3.2090421 4.7359309 -0.75240278
-3.1881826 4.7678833 -0.7544567
-3.1932414 4.8394423 -0.76308304
-3.2007837 4.9162221 -0.77253091
-3.1834083 4.955771 -0.77581716
-3.1529403 4.9752107 -0.77581716
-3.1192026 4.9894233 -0.77499557
-3.0999694 5.0270171 -0.77800792
-3.0855401 5.0730252 -0.78238958
-3.0619986 5.1046038 -0.7844435
-3.0381856 5.1360841 -0.78649735
-3.0106072 5.1614742 -0.78759277
-2.9823375 5.1858606 -0.78855127
-2.946064 5.1963072 -0.78731889
-2.9242742 5.2324443 -0.79019433
-2.8858995 5.2390094 -0.7884143
-2.8555899 5.2601004 -0.78896201
-2.7896137 5.2146368 -0.77910334
-2.7996025 5.3113961 -0.79156363
-2.7692425 5.3328695 -0.79224825
-2.7432358 5.3629889 -0.79430211
-2.7120605 5.3832588 -0.79484981
-2.6921875 5.4264188 -0.79895759
-2.6744957 5.4748764 -0.80388695
-2.6533043 5.5170717 -0.80785781
-2.6066854 5.5063891 -0.80375004
-2.5678289 5.5115051 -0.80210692
-2.5546067 5.5721793 -0.80895323
-2.5264785 5.6012931 -0.81100708
-2.4960802 5.6257443 -0.81237638
-2.4615142 5.640954 -0.81237638
-2.4256837 5.6532207 -0.81196558
-2.3870997 5.6588712 -0.81059629
-2.3500559 5.6679215 -0.80977476
-2.3126171 5.6758132 -0.80881625
-2.2806931 5.6972532 -0.80991167
-2.2623699 5.7535448 -0.81621027
-2.2341619 5.7857995 -0.81894881
-2.1972141 5.7956944 -0.8184011
-2.1647205 5.8174224 -0.81963342
-2.1259265 5.8222208 -0.8184011
-2.0918324 5.8398185 -0.81908572
-2.0444674 5.8198338 -0.81429332
-2.0087192 5.8322692 -0.81429332
-1.9820849 5.8717017 -0.81826419
-1.9503751 5.8969197 -0.82018113
-1.9169036 5.9172568 -0.82141346
-1.8796613 5.926075 -0.82100266
-1.8409141 5.9299283 -0.81990725
-1.804782 5.9420605 -0.82004422
-1.7736486 5.9710641 -0.82264578
-1.7339383 5.9713702 -0.82113963
-1.6980773 5.984756 -0.82155037
-1.6586777 5.9855165 -0.82018113
-1.6203675 5.9898443 -0.8193596
-1.578274 5.9795609 -0.81648415
-1.5509397 6.0255857 -0.82168734
-1.5149025 6.0388317 -0.82223499
-1.47735 6.0460892 -0.82196116
-1.4321992 6.0213113 -0.81716877
-1.3887486 6.0019984 -0.81319791
-1.349938 6.001709 -0.81196558
-1.3099142 5.9953632 -0.80991167
-1.2739249 6.007164 -0.81045938
-1.242631 6.0420346 -0.81429332
-1.2004993 6.0242872 -0.81073326
-1.1657646 6.0432119 -0.81237638
-1.1299342 6.0570674 -0.81333482
-1.0872995 6.0336657 -0.80909014
-1.057387 6.0812125 -0.81484103
-1.0205448 6.090517 -0.81525177
-0.98094606 6.082973 -0.81333482
-0.94785255 6.1162863 -0.81716877
-0.90651625 6.0965123 -0.81360871
-0.85847145 6.0274286 -0.80320233
-0.83176816 6.1081591 -0.81374562
-0.78763336 6.0620675 -0.80662549
-0.7524907 6.0834985 -0.80895323
-0.71503329 6.0870175 -0.80881625
-0.6760267 6.0765228 -0.8067624
-0.63852203 6.0785861 -0.80648851
-0.60062748 6.0764747 -0.80566698
-0.56452054 6.0928683 -0.80744702
-0.5258438 6.0814142 -0.80539316
-0.48828098 6.0815639 -0.80498236
-0.44861102 6.0528336 -0.80060071
-0.41435349 6.0979691 -0.80648851
-0.37711272 6.103363 -0.80689931
-0.3392154 6.0976496 -0.80580389
-0.3026278 6.1164355 -0.80813164
-0.26328871 6.076612 -0.80238074
-0.22633021 6.0870218 -0.80361307
-0.18925384 6.0972071 -0.80484545
-0.15045416 6.0427985 -0.79717755
-0.11318699 6.0337038 -0.79580832
-0.075383618 5.9728737 -0.78731889
-0.03897991 6.0108647 -0.79252207
-0.0020622998 5.9267917 -0.78088337
0.034723241 5.9999943 -0.79101592
0.071326442 5.9818392 -0.78855127
0.10710219 5.9297872 -0.78143108
0.14121421 5.8349404 -0.76842314
0.18043126 5.9468389 -0.7840327
0.21489817 5.8901839 -0.77636486
0.25031951 5.8719296 -0.77403712
0.28634429 5.8702831 -0.77403712
0.32224974 5.8664374 -0.77376324
0.35594681 5.8267775 -0.76856005
0.39003256 5.7997751 -0.7651369
0.42488736 5.7873936 -0.76376766
0.46211761 5.8064017 -0.76678002
0.4970597 5.7955608 -0.7656846
0.52817017 5.7440672 -0.75897527
0.56321174 5.7387466 -0.75870138
0.59635878 5.7154779 -0.75596291
0.63435405 5.7382951 -0.75965989
0.6633516 5.6811638 -0.75226587
0.69517684 5.6524072 -0.74884272
0.72997314 5.6490178 -0.74897969
0.76501983 5.647377 -0.74939042
0.79535031 5.6121721 -0.74514574
0.82614744 5.5826883 -0.74172258
0.87034947 5.6421289 -0.75075972
0.9054234 5.6396165 -0.75117046
0.9338181 5.5968256 -0.74596727
0.9605394 5.5470672 -0.73980564
0.98825991 5.5059686 -0.73487628
0.99181294 5.3371563 -0.71200967
1.0101523 5.2560654 -0.70146638
1.0134565 5.1040239 -0.68092752
1.0300432 5.025898 -0.67079496
1.0530814 4.9826541 -0.66559178
1.0707817 4.9170561 -0.65723932
1.1015819 4.9132929 -0.65765011
1.1270348 4.8861709 -0.65477467
1.1556237 4.8733802 -0.65395308
1.173316 4.8161507 -0.64683294
1.1997215 4.7963676 -0.64505291
1.2219894 4.7610903 -0.64108205
1.2395848 4.7094359 -0.63478345
1.2648468 4.6883516 -0.6328665
1.2906884 4.6699996 -0.63136029
1.3125771 4.6381626 -0.62793714
1.3443177 4.6414394 -0.62958026
1.3722091 4.6312041 -0.62930644
1.3908364 4.5904636 -0.62465096
1.4183909 4.5799508 -0.62437707
1.442881 4.5598278 -0.62273401
1.4693096 4.546176 -0.62204933
1.491901 4.5210824 -0.61972159
1.5230908 4.5221701 -0.6212278
1.5463037 4.4996238 -0.61931086
1.5735562 4.4891162 -0.61917388
1.5974046 4.4691157 -0.61766773
1.6285261 4.4694681 -0.61917388
1.6500587 4.4436045 -0.61684614
1.668532 4.4102335 -0.61342305
1.7048205 4.4239454 -0.61698312
1.7301242 4.4087911 -0.61629844
1.7611854 4.4082112 -0.61780465
1.7923043 4.4074159 -0.61931086
1.8223436 4.4036579 -0.62040627
1.8504826 4.3951325 -0.62081701
1.8700075 4.3663936 -0.61821544
1.8991369 4.3602867 -0.61903697
1.9178344 4.3304362 -0.61629844
1.9484354 4.32762 -0.61766773
1.9782495 4.3227892 -0.61876315
2.0009775 4.3024855 -0.61753082
2.0184531 4.2713184 -0.61465538
2.0514817 4.2731414 -0.61684614
2.0828722 4.2711582 -0.61848927
2.1107986 4.261848 -0.61903697
2.1333489 4.2417364 -0.61794156
2.1579843 4.2259197 -0.61753082
2.1925342 4.2293091 -0.62013239
2.2156763 4.2105165 -0.61931086
2.2531345 4.2186871 -0.62273401
2.2836971 4.2134919 -0.62410325
2.3018711 4.1855121 -0.62191242
2.3299224 4.1756344 -0.62259704
2.3569636 4.163846 -0.62300783
2.3829613 4.1501646 -0.62314475
2.4098766 4.1380329 -0.62355554
2.4422734 4.1351099 -0.62547249
2.4762514 4.1344943 -0.62780023
2.5082569 4.1302299 -0.62958026
2.5366683 4.119823 -0.63040185
2.5629482 4.1058617 -0.63067567
2.5949779 4.1009407 -0.63245571
2.6345298 4.1074553 -0.63615274
2.6629221 4.0961957 -0.63697428
2.6890957 4.0814338 -0.6372481
2.7179384 4.0706239 -0.6382066
2.7445292 4.0563321 -0.6386174
2.7811279 4.0565734 -0.64149284
2.8054013 4.038619 -0.64135593
2.84039 4.0359116 -0.64382058
2.8829255 4.0434122 -0.64806527
2.9158006 4.0368896 -0.64998221
2.959816 4.0453057 -0.65450078
2.986351 4.0294561 -0.65491158
3.0223172 4.0261092 -0.65751314
3.0589535 4.0232606 -0.66025168
3.0805607 4.0004911 -0.65956706
3.1020038 3.977608 -0.65888244
3.1545906 3.9942608 -0.66518104
3.190794 3.9895287 -0.6677826
3.2170835 3.9721847 -0.6681934
3.255214 3.9692221 -0.67120576
3.2959597 3.9689889 -0.67476583
3.3393745 3.9714372 -0.6788736
3.3733115 3.9621868 -0.68092752
3.4066133 3.9519188 -0.68284446
3.4392648 3.9406447 -0.68462449
3.4568207 3.912044 -0.68325526
3.4827406 3.8929746 -0.68366599
3.5285046 3.895762 -0.68818456
3.5389538 3.8594348 -0.68544602
3.5686331 3.844182 -0.68667835
3.6009717 3.8315973 -0.68845844
3.6339726 3.819478 -0.69037539
3.6745186 3.8149462 -0.69379854
3.7172196 3.8121877 -0.69763243
3.770462 3.8196232 -0.70352024
3.8148324 3.8174384 -0.70762801
3.8656573 3.8211198 -0.71296817
3.920922 3.8284729 -0.7191298
3.9628758 3.8222234 -0.72268987
4.0048995 3.8156028 -0.72624993
4.0484333 3.8099673 -0.73008388
4.0964007 3.8079875 -0.73473936
4.1568985 3.8169522 -0.74172258
4.2198601 3.8273132 -0.7491166
4.2617087 3.8178742 -0.75253975
4.3132434 3.8165994 -0.75774294
4.3529887 3.804404 -0.7607553
4.4024935 3.8002796 -0.76554769
4.4423113 3.7873347 -0.76856005
4.4677396 3.7619202 -0.76897085
4.4914999 3.7350693 -0.76910776
4.5227532 3.7143557 -0.77061397
4.5369964 3.6796703 -0.76910776
4.570313 3.6604328 -0.7710247
4.5787024 3.6212592 -0.76856005
4.5961518 3.5894382 -0.76773852
4.5945578 3.5430202 -0.76363075
4.6343369 3.5285652 -0.76678002
4.6289811 3.4798231 -0.76212454
4.677289 3.4714289 -0.76678002
4.6929083 3.4385655 -0.76582158
4.6689739 3.3771913 -0.75815368
4.6968632 3.3536606 -0.759386
4.7165427 3.3242073 -0.75924909
4.7612453 3.3121769 -0.76335686
4.7602472 3.2683208 -0.7597968
4.7588911 3.2246022 -0.75623673
4.7752938 3.1931388 -0.75568902
4.7890091 3.1599586 -0.75473052
4.8240805 3.1407845 -0.75733215
4.8407607 3.109519 -0.75692135
4.8773193 3.0908947 -0.7597968
4.9054322 3.0666866 -0.76130301
4.9325876 3.0417297 -0.76267225
4.9266162 2.9964769 -0.75870138
4.9389634 2.9626241 -0.75774294
4.9621639 2.9352899 -0.75856447
4.9467115 2.8853204 -0.75322437
4.9823546 2.8652854 -0.75609982
4.9963951 2.8327057 -0.75555211
5.0716152 2.8343773 -0.76472616
5.0680881 2.791733 -0.76143992
5.0729351 2.7539661 -0.75952297
5.1141934 2.735872 -0.76335686
5.1343894 2.7062883 -0.76390457
5.211555 2.7062364 -0.77335244
5.1583943 2.638566 -0.76253533
5.1966028 2.6180086 -0.76595849
5.1717505 2.5658195 -0.75965989
5.2043076 2.5423002 -0.76226145
5.1903505 2.4961495 -0.75774294
5.221684 2.4718854 -0.76020759
5.1972461 2.4213898 -0.75418282
5.2435207 2.4039052 -0.75897527
5.2690077 2.3765745 -0.76061839
5.3034105 2.3530393 -0.76363075
5.3059459 2.3153028 -0.76185071
5.3318863 2.2877812 -0.76363075
5.319356 2.2438555 -0.75965989
5.2708025 2.1853709 -0.75034893
5.3391523 2.1754191 -0.75856447
5.3625159 2.146668 -0.76007068
5.3396344 2.0995841 -0.75473052
5.372746 2.0746329 -0.75774294
5.3575873 2.031091 -0.75363517
5.4061556 2.0116544 -0.75897527
5.4546852 1.9916979 -0.76431537
5.50597 1.9722235 -0.77006626
5.4422674 1.911804 -0.75897527
5.4651346 1.8822465 -0.76061839
5.4540563 1.8410724 -0.75733215
5.5169754 1.8246838 -0.76486307
5.4979124 1.781027 -0.76048142
5.4964623 1.7433647 -0.75870138
5.5231385 1.7146001 -0.76102912
5.5430331 1.6835579 -0.76239842
5.5855436 1.659107 -0.7670539
5.5195169 1.6027002 -0.75609982
5.589283 1.5858412 -0.76472616
5.5444965 1.5364342 -0.75692135
5.5748558 1.5080769 -0.75993371
5.6328502 1.4867378 -0.76691693
5.667768 1.4588158 -0.77061397
5.6141605 1.4083408 -0.76171374
5.6650357 1.3842148 -0.76773852
5.6290932 1.3388817 -0.76143992
5.5937743 1.2942657 -0.75527823
5.6547637 1.2718778 -0.76280916
5.5395584 1.2102958 -0.74541956
5.6360302 1.1951946 -0.75801677
5.6403465 1.1599913 -0.75760597
5.5987849 1.1156781 -0.75075972
5.6629105 1.0923774 -0.7588383
5.64711 1.0534303 -0.75568902
5.5988746 1.008919 -0.74802119
5.6683955 0.98558009 -0.75692135
5.6909442 0.95356488 -0.75924909
5.7270041 0.92351878 -0.76349378
5.5798564 0.86468595 -0.74213338
5.6458044 0.83946913 -0.75062275
5.6645789 0.8067677 -0.75253975
5.6458659 0.76878601 -0.74925351
5.6062727 0.72838289 -0.74309182
5.6322641 0.69664639 -0.74610424
5.6079021 0.65872103 -0.74213338
5.7033968 0.63449126 -0.75486749
5.7180195 0.60062295 -0.75637364
5.6821666 0.56162643 -0.75089663
5.6914234 0.52729946 -0.75171816
5.7527785 0.49740613 -0.7597968
5.7320247 0.4601942 -0.75651056
5.716959 0.42369545 -0.7540459
5.6858487 0.38632342 -0.74939042
5.7602868 0.35589263 -0.759386
5.6970849 0.31690583 -0.75034893
5.7256351 0.28326663 -0.7540459
5.7153897 0.24761413 -0.75240278
5.7276902 0.21294607 -0.75390899
5.7298789 0.17782842 -0.7540459
5.7358136 0.14279079 -0.75473052
5.6791382 0.10651247 -0.74678886
5.7173243 0.072141454 -0.75199205
5.7018104 0.036955435 -0.74980122
5.6098056 0.001930904 -0.7370671
5.7563152 -0.03332904 -0.75733215
5.7322302 -0.06836661 -0.7540459
5.7762718 -0.10433965 -0.76020759
5.7547269 -0.13927834 -0.75733215
5.6676226 -0.17197819 -0.74541956
5.7139773 -0.20848124 -0.75199205
5.7007141 -0.24303214 -0.75034893
5.7090096 -0.27848843 -0.75171816
5.6686187 -0.31139666 -0.74637806
5.7209821 -0.34949112 -0.75390899
5.6525102 -0.38013911 -0.74473494
5.6579747 -0.41539481 -0.74583036
5.756041 -0.45811296 -0.7597968
5.6465297 -0.4842881 -0.74500883
5.7588634 -0.52952963 -0.76102912
5.7525487 -0.56456536 -0.76061839
5.7085814 -0.59563965 -0.75500441
5.6930041 -0.62935036 -0.75336128
5.6555824 -0.66036642 -0.7487058
5.7340112 -0.70520741 -0.76020759
5.7197518 -0.7391085 -0.7588383
5.6866422 -0.77033609 -0.75486749
5.698482 -0.80757588 -0.75719523
5.6963592 -0.84296077 -0.75760597
5.6714993 -0.87487805 -0.75486749
5.6288581 -0.90369689 -0.74966431
5.6749926 -0.94685453 -0.75692135
5.6515064 -0.97861671 -0.7544567
5.6268702 -1.0099516 -0.75185508
5.6507592 -1.0500667 -0.75609982
5.6208625 -1.0802341 -0.75281358
5.6578517 -1.123381 -0.75897527
5.638237 -1.1554912 -0.75719523
5.6610856 -1.1964126 -0.76143992
5.6381512 -1.2277546 -0.75924909
5.6527438 -1.2673092 -0.76239842
5.6284518 -1.2981863 -0.76007068
5.6415854 -1.3377241 -0.76308304
5.6159472 -1.3680959 -0.76061839
5.6045637 -1.401808 -0.76020759
5.6179256 -1.4418329 -0.76335686
5.5792756 -1.4684626 -0.75911218
5.5548577 -1.4985417 -0.75692135
5.5169144 -1.5246834 -0.75281358
5.556067 -1.5722584 -0.7597968
5.5605874 -1.6104527 -0.76185071
5.5477519 -1.6436975 -0.76143992
5.5546269 -1.6828758 -0.76390457
5.5744767 -1.7263016 -0.76828623
5.5732241 -1.7634611 -0.76965547
5.5406189 -1.7906197 -0.7665062
5.5060096 -1.8168242 -0.76308304
5.5116563 -1.8562641 -0.76554769
5.4720578 -1.8803923 -0.76143992
5.4809833 -1.9211401 -0.76445228
5.467227 -1.9540679 -0.76417845
5.443965 -1.9835088 -0.76253533
5.4196196 -2.0123932 -0.7607553
5.3951249 -2.0410538 -0.75897527
5.4185491 -2.0880079 -0.76431537
5.3918033 -2.1157894 -0.76226145
5.4118361 -2.162061 -0.76719081
5.3691039 -2.1832881 -0.76280916
5.329977 -2.2055876 -0.75897527
5.4176855 -2.2809086 -0.77417403
5.4072309 -2.3156676 -0.77472174
5.2993751 -2.3080673 -0.76061839
5.385653 -2.3850565 -0.77581716
5.3320756 -2.4005737 -0.76992935
5.3415666 -2.4443731 -0.77362633
5.3417377 -2.4842024 -0.77595407
5.2977338 -2.503391 -0.77157241
5.253696 -2.5221334 -0.76719081
5.2301083 -2.550415 -0.76595849
5.2170238 -2.583777 -0.76636922
5.2453218 -2.63799 -0.77321553
5.1761017 -2.6430991 -0.76499999
5.1615453 -2.6757209 -0.76527387
5.1494136 -2.7096474 -0.76595849
5.1720119 -2.7621894 -0.77212012
5.1053233 -2.7669711 -0.76431537
5.0925894 -2.8006313 -0.76499999
5.08569 -2.8376172 -0.76664311
5.0586996 -2.8634021 -0.7651369
5.0796938 -2.9165809 -0.77129859
5.0206122 -2.9237692 -0.76472616
5.0102549 -2.9590533 -0.76595849
4.9537601 -2.9668391 -0.7597968
4.9405432 -3.0002635 -0.76061839
4.9920559 -3.0736234 -0.77198321
4.9579759 -3.0947559 -0.76951855
4.9732156 -3.1468334 -0.77513254
4.9454746 -3.1719418 -0.77376324
4.9010024 -3.1860316 -0.76965547
4.8449631 -3.1920667 -0.76363075
4.8565927 -3.2426345 -0.76883394
4.8431683 -3.2768133 -0.76992935
4.822154 -3.3059087 -0.76979238
4.8229322 -3.3501265 -0.77335244
4.8346906 -3.4024582 -0.77882951
4.7532268 -3.3889337 -0.76856005
4.7202973 -3.4093359 -0.7665062
4.7056851 -3.4429138 -0.76760161
4.6367178 -3.436337 -0.759386
4.626637 -3.4730475 -0.76130301
4.6296859 -3.5199544 -0.76554769
4.6535249 -3.5833454 -0.77348942
4.6587915 -3.6331503 -0.77828181
4.6200852 -3.6487761 -0.77540636
4.5952888 -3.6751997 -0.77499557
4.5788102 -3.7083137 -0.77609098
4.5705242 -3.7482729 -0.7786926
4.5268621 -3.7591612 -0.77499557
4.4968867 -3.7811298 -0.77376324
4.5279112 -3.8548818 -0.78362191
4.4876652 -3.8683643 -0.78060955
4.4765329 -3.9068995 -0.78293729
4.4628696 -3.9434755 -0.78485423
4.4112711 -3.9463496 -0.77978802
4.4104695 -3.9946201 -0.78416961
4.3654318 -4.0028634 -0.78033566
4.3487749 -4.0369864 -0.78184187
4.3614607 -4.0988674 -0.78896201
4.3268981 -4.1166759 -0.78718197
4.2979898 -4.1397119 -0.78649735
4.285984 -4.1791449 -0.78909898
4.2496853 -4.1949267 -0.78704506
4.2329755 -4.2300253 -0.78882509
4.212512 -4.2615542 -0.78992051
4.1523719 -4.2525949 -0.78321111
4.1179476 -4.2694383 -0.78156805
4.0985069 -4.3017964 -0.78293729
4.0788236 -4.3340769 -0.78430653
4.0548515 -4.3619242 -0.78485423
4.0300207 -4.3889112 -0.78526503
4.0169916 -4.4289637 -0.78814048
3.9956894 -4.4601679 -0.7893728
3.913759 -4.4230313 -0.77800792
3.8852422 -4.4454708 -0.7777341
3.8565974 -4.4677267 -0.77746028
3.8471076 -4.5124116 -0.78129417
3.8206236 -4.5374475 -0.78156805
3.7863762 -4.5531893 -0.78019875
3.770942 -4.5916457 -0.78293729
3.7158639 -4.5816169 -0.77704948
3.2640841 -4.0755115 -0.68339217
3.210747 -4.0597248 -0.67709357
3.1754107 -4.0660782 -0.67476583
3.134068 -4.0643067 -0.67106885
2.8054028 -3.6846857 -0.60178435
2.6035597 -3.4635103 -0.56056964
2.5692697 -3.4619215 -0.55755728
2.5321701 -3.4560478 -0.55386025
2.4975624 -3.4530604 -0.55071098
2.4676926 -3.4562283 -0.54865706
2.4378784 -3.4591601 -0.5466032
2.3526788 -3.3821692 -0.53113055
2.3234706 -3.3842924 -0.5290767
2.3015499 -3.3968453 -0.52880281
2.2784612 -3.4076097 -0.52825511
2.2547815 -3.417392 -0.52757049
2.2424188 -3.4444444 -0.52976131
2.2105334 -3.4414709 -0.52702278
2.1851327 -3.448276 -0.52592736
2.1550057 -3.4473405 -0.52359962
2.1275728 -3.450381 -0.5219565
2.099669 -3.4523687 -0.52017647
2.0713115 -3.4532948 -0.51825953
2.0450397 -3.4574137 -0.51689029
2.0197935 -3.4630518 -0.51579487
1.9901105 -3.4607823 -0.51346713
1.9629748 -3.4625878 -0.51182401
1.9334754 -3.459868 -0.50949627
1.9107757 -3.4690635 -0.50908548
1.8856725 -3.4737582 -0.50799006
1.856378 -3.4704149 -0.50566232
0 -0 -0
0 -0 -0
1.771431 -3.4634306 -0.49936375
1.7443517 -3.4627345 -0.49758372
1.7208705 -3.4689357 -0.4968991
1.7004228 -3.4812095 -0.49717292
0 -0 -0
1.6440102 -3.4731648 -0.4927913
0 -0 -0
0 -0 -0
1.5838755 -3.5118666 -0.49416056
1.5695298 -3.5378168 -0.49662524
1.551755 -3.5564594 -0.49799448
1.5314664 -3.569555 -0.49854219
1.5141559 -3.5898368 -0.50018531
1.4951363 -3.6063802 -0.50128073
0 -0 -0
0 -0 -0
1.447354 -3.681226 -0.50840086
1.4329475 -3.7112908 -0.51155013
1.4171728 -3.7385378 -0.51428866
1.403536 -3.772229 -0.51798564
1.3871599 -3.7993793 -0.52072418
1.3651577 -3.8115494 -0.52127188
1.3693283 -3.8983581 -0.53277367
1.3434469 -3.9010673 -0.53195214
1.3166331 -3.9007902 -0.53071976
1.2995181 -3.9294856 -0.53373218
0 -0 -0
1.2739654 -4.0168962 -0.54413849
1.2995261 -4.1864076 -0.56755286
1.2962739 -4.2682314 -0.57823306
1.2751384 -4.2931972 -0.58069772
1.2600996 -4.3399425 -0.5863117
1.244535 -4.3866634 -0.59192568
0 -0 -0
1.5613762 -5.771832 -0.78814048
1.5100012 -5.7209644 -0.77951413
1.4711648 -5.7157326 -0.77746028
1.4418522 -5.7477112 -0.78074646
1.4107913 -5.7737703 -0.78321111
1.3673127 -5.7485895 -0.77841872
1.3358114 -5.7732773 -0.78074646
1.2875333 -5.7243457 -0.77266783
1.2585187 -5.7602029 -0.77663869
1.219451 -5.7503738 -0.77417403
1.1871386 -5.7723022 -0.77622789
1.1668031 -5.8552523 -0.78690815
1.1242849 -5.828259 -0.78211576
1.0837774 -5.8097296 -0.77855563
1.0491637 -5.8221192 -0.77937722
1.0103645 -5.8108807 -0.77691257
0.97845715 -5.8394408 -0.78006184
0.9391377 -5.8238196 -0.77704948
0.9106704 -5.8764591 -0.78362191
0.87284696 -5.8701787 -0.78197879
0.8389079 -5.8901339 -0.7840327
0.79512888 -5.8392243 -0.77622789
0.76286054 -5.8714981 -0.78006184
0.7270627 -5.8780346 -0.78033566
0.69202274 -5.8912392 -0.78156805
0.6532315 -5.8717465 -0.77828181
0.61812282 -5.8845105 -0.77951413
0.5850271 -5.9187512 -0.78375882
0.54824203 -5.9172978 -0.7830742
0.50987428 -5.8968649 -0.77978802
0.47511035 -5.9176559 -0.78225267
0.43556699 -5.8769932 -0.77622789
0.39754888 -5.8508949 -0.77225709
0.36463749 -5.90167 -0.77896643
0.32819831 -5.8998399 -0.77841872
0.29233453 -5.908668 -0.77937722
0.25401279 -5.8628473 -0.7728048
0.21821861 -5.8692451 -0.77348942
0.1521443 -4.9041338 -0.63984972
0.12205024 -4.9049749 -0.63984972
0.092231236 -4.9204874 -0.64190358
0.06200026 -4.9179893 -0.64149284
0.031894252 -4.9291735 -0.64299899
0.0020245234 -5.8356581 -0.76828623
-0.033946797 -5.8642869 -0.77225709
-0.069353223 -5.815433 -0.76554769
-0.1064071 -5.8911605 -0.77609098
-0.14190729 -5.8636589 -0.772394
-0.1777035 -5.8567371 -0.77157241
-0.21388876 -5.8624659 -0.77253091
-0.24631777 -5.7779098 -0.76102912
-0.28586233 -5.8603892 -0.77266783
-0.3198078 -5.8219285 -0.76760161
-0.35522279 -5.8149128 -0.76691693
-0.38890377 -5.7829728 -0.76280916
-0.4234381 -5.7676349 -0.76102912
-0.46148944 -5.798502 -0.7656846
-0.49469146 -5.7679262 -0.76185071
-0.53487706 -5.8170629 -0.76910776
-0.57191342 -5.8274732 -0.7710247
-0.60375553 -5.7864151 -0.76582158
-0.64272976 -5.8141084 -0.77020317
-0.66966641 -5.7352786 -0.7597968
-0.69843978 -5.6789532 -0.75253975
-0.73466772 -5.6853671 -0.7540459
-0.76741213 -5.6650462 -0.75185508
-0.80479735 -5.6788659 -0.7544567
-0.84948319 -5.7404556 -0.76376766
-0.8807652 -5.709681 -0.76020759
-0.91578257 -5.7041693 -0.76020759
-0.84777796 -5.080924 -0.67367041
-0.86305696 -4.9838762 -0.66079938
-0.89309639 -4.9755616 -0.66038859
-0.92179996 -4.9602489 -0.65901935
-0.95408696 -4.9642277 -0.66038859
-0 -0 -0
-1.1306403 -5.5169334 -0.74007946
-1.1693844 -5.5331526 -0.74336571
-1.2113198 -5.562654 -0.74856889
-1.2462955 -5.5589833 -0.7491166
-1.2832745 -5.5637798 -0.75089663
-1.3164752 -5.5519457 -0.75034893
-1.3561419 -5.5668621 -0.75363517
-1.4039707 -5.6132131 -0.76143992
-1.4172144 -5.5219755 -0.74966431
-1.4767809 -5.610889 -0.76363075
-1.5003473 -5.5615525 -0.75787985
-1.5265299 -5.5235977 -0.75377208
-1.5544609 -5.4931574 -0.75075972
-1.6170647 -5.5834236 -0.7651369
-1.580397 -5.3340492 -0.73063159
-1.6845987 -5.5603151 -0.76472616
-1.7028641 -5.4987755 -0.75733215
-1.7488214 -5.5269461 -0.76294613
-1.779351 -5.5057425 -0.76143992
-1.8109277 -5.4881363 -0.76048142
-1.8562641 -5.5116563 -0.76554769
-1.8997037 -5.5282679 -0.76965547
-1.9181917 -5.4725699 -0.76321995
-1.9527346 -5.4634957 -0.76363075
-1.9855431 -5.4495492 -0.76335686
-2.014117 -5.4242625 -0.76143992
-2.048413 -5.4145818 -0.76185071
-2.085515 -5.4120789 -0.76335686
-2.1132569 -5.3853483 -0.76130301
-2.1407495 -5.3584814 -0.75924909
-2.1825421 -5.3672686 -0.76253533
-2.2135403 -5.3491988 -0.76185071
-2.2436306 -5.3291254 -0.76089221
-2.2638104 -5.2861185 -0.75651056
-2.2942252 -5.2675877 -0.75582594
-2.3212898 -5.2416363 -0.7540459
-2.3464959 -5.2119384 -0.75171816
-2.3743103 -5.1884351 -0.75034893
-2.400254 -5.1611934 -0.74843198
-2.4259531 -5.1338296 -0.74651498
-2.4509785 -5.1054521 -0.74446112
-2.4870341 -5.100111 -0.74596727
-2.5055335 -5.0590115 -0.74199647
-2.5307426 -5.0320377 -0.74021637
-2.5494094 -4.9925938 -0.7365194
-2.5786278 -4.9742184 -0.7361086
-2.5929577 -4.9276199 -0.73131621
-2.6124125 -4.8915195 -0.72816694
-2.6409612 -4.8727851 -0.72775614
-2.6693785 -4.8538847 -0.72734535
-2.6744986 -4.7932959 -0.72036213
-2.671658 -4.7198968 -0.71132505
-2.6798549 -4.6673336 -0.70557415
-2.7174146 -4.6662111 -0.70803881
-2.7485132 -4.6537142 -0.70872343
-2.7515707 -4.5942693 -0.70187718
-2.7843359 -4.5849199 -0.7031095
-2.7989142 -4.5458169 -0.69954944
-2.8230829 -4.522675 -0.69859093
-2.8253591 -4.465086 -0.69201851
-2.8660715 -4.4685121 -0.69544166
-2.8874977 -4.4417062 -0.69393545
-2.8994389 -4.400743 -0.6901015
-2.9241869 -4.3795738 -0.6895538
-2.9337981 -4.3361144 -0.68530911
-2.9189041 -4.2575693 -0.67517662
-2.978312 -4.2875814 -0.68325526
-2.9880326 -4.2457328 -0.67928439
-3.0094275 -4.2208657 -0.67818898
-3.03179 -4.1975021 -0.67736739
-3.0533943 -4.173224 -0.67640895
-3.0630198 -4.1329212 -0.67271191
-3.0823748 -4.1061268 -0.67134267
-3.0991189 -4.0760961 -0.66942573
-3.1216538 -4.053864 -0.66887802
-3.1312411 -4.0151043 -0.66545486
-3.1398571 -3.9756026 -0.6618948
-3.1629546 -3.9547148 -0.66162091
-3.1497574 -3.8890431 -0.65340537
-3.167908 -3.8627493 -0.65217304
-3.1668708 -3.8135159 -0.64683294
-3.1857483 -3.7887051 -0.64587444
-3.2134302 -3.7743664 -0.64683294
-3.2106602 -3.7245643 -0.64135593
-3.208704 -3.6764321 -0.63615274
-3.2331693 -3.6589019 -0.63656348
-3.2502759 -3.6330881 -0.63546807
-3.2751665 -3.6160133 -0.63601577
-3.2919369 -3.590008 -0.63492036
-3.2936862 -3.5479605 -0.63081259
-3.2509525 -3.459105 -0.61780465
-3.2741642 -3.4412456 -0.61821544
-3.3082733 -3.4346476 -0.62081701
-3.2864122 -3.3703086 -0.61232764
-3.3077261 -3.350785 -0.61246455
-3.2890151 -3.2911849 -0.60479671
-3.3119652 -3.2737277 -0.60534441
-3.3241944 -3.2457311 -0.60383821
-3.3461862 -3.2273364 -0.604249
-3.3644915 -3.2053771 -0.60397512
-3.3675056 -3.1690571 -0.60082585
-3.3585935 -3.1220298 -0.59548575
-3.3776867 -3.1013632 -0.59548575
-3.3900495 -3.0745897 -0.59425342
-3.4088511 -3.053731 -0.59425342
-3.4060118 -3.0137191 -0.59028256
-3.4125063 -2.9823327 -0.58809173
-3.4247429 -2.9561591 -0.58699632
-3.4300029 -2.9241636 -0.58466858
-3.4259076 -2.884558 -0.58069772
-3.4214561 -2.8451135 -0.57672685
-3.4288979 -2.8158927 -0.57494682
-3.4284172 -2.7804477 -0.57179755
-3.4415474 -2.7562625 -0.57111293
-3.4482949 -2.7271047 -0.5693329
-3.4477885 -2.6924803 -0.56632054
-3.4501252 -2.6603851 -0.56385583
-3.4758413 -2.6463671 -0.56549895
-3.4920137 -2.62499 -0.56549895
-3.4818063 -2.5840302 -0.56098038
-3.4488568 -2.5269005 -0.55262792
-3.4963999 -2.5289156 -0.55810493
-3.4949226 -2.4953253 -0.55522954
-3.5069292 -2.4715509 -0.55468184
-3.4838109 -2.4233963 -0.54824632
-3.4961653 -2.4002924 -0.54783553
-3.5149276 -2.3815737 -0.54852015
-3.51877 -2.3528028 -0.54674011
-3.5141246 -2.3186185 -0.54359084
-3.5166638 -2.2894452 -0.54167384
-3.5514805 -2.2812099 -0.54509699
-3.5495141 -2.2492998 -0.54249543
-3.5590491 -2.2248523 -0.54181075
-3.5616729 -2.1962125 -0.54003072
-3.5725427 -2.1727726 -0.53961998
-3.5662701 -2.1390901 -0.53647065
-3.5861487 -2.1212027 -0.53756607
-3.6016636 -2.100656 -0.53797686
-3.5947356 -2.0671575 -0.53482753
-3.6004581 -2.0411527 -0.53373218
-3.6085913 -2.0166059 -0.5330475
-3.6087503 -1.987734 -0.53113055
-3.6121736 -1.9608269 -0.52976131
-3.6171496 -1.9348875 -0.5286659
-3.6158097 -1.9057275 -0.52661198
-3.6160069 -1.87757 -0.52483195
-3.630105 -1.8567008 -0.52524275
-3.6405444 -1.8339462 -0.52510583
-3.6410806 -1.80629 -0.52346271
-3.6423049 -1.7791314 -0.5219565
-3.658509 -1.7593254 -0.52277809
-3.671921 -1.7381158 -0.52318883
-3.6852105 -1.7168078 -0.52359962
-3.6929741 -1.6929249 -0.52318883
-3.7060008 -1.6714554 -0.52359962
-0.2284606 -0.1009514 0.0038389245
-0.26085156 -0.11341597 -0.00095348188
-0.27337638 -0.11689185 -0.0027335186
-0.26587439 -0.11174665 -0.0015011855
-0.26380998 -0.10897479 -0.0010904078
-0.25346571 -0.10286799 0.00055270299
-0.26512742 -0.10572923 -0.0010904078
-0.26577118 -0.10410045 -0.0010904078
-0 -0 -0
-0 -0 -0
-0 -0 -0
-0 -0 -0
-0 -0 -0
-0 -0 -0
-0 -0 -0
-0 -0 -0
-0 -0 -0
-0 -0 -0
-0 -0 -0
-0 -0 -0
-0 -0 -0
-0 -0 -0
-0 -0 -0
-0 -0 -0
-0 -0 -0
-0 -0 -0
-0 -0 -0
-0 -0 -0
-0 -0 -0
-0 -0 -0
-0 -0 -0
-0 -0 -0
-0 -0 -0
-0 -0 -0
-0 -0 -0
-0 -0 -0
-0 -0 -0
-0 -0 -0
-0 -0 -0
-0 -0 -0
-0 -0 -0
-0 -0 -0
-0 -0 -0
-0 -0 -0
-0 -0 -0
-0 -0 -0
-0 -0 -0
-0 -0 -0
-0 -0 -0
-0 -0 -0
-0 -0 -0
-0 -0 -0
-0 -0 -0
-0 -0 -0
-0 -0 -0
-0 -0 -0
-0 -0 -0
-0 -0 -0
-0 -0 -0
-0 -0 -0
-0 -0 -0
-0 -0 -0
-0 -0 -0
-0 -0 -0
-0.27829358 0.019460132 -0.0035794734
-0.28112578 0.021404805 -0.0040275618
-0.28098914 0.023129357 -0.0040275618
-0 0 -0
-0.28068414 0.026575785 -0.0040275618
-0 0 -0
-0 0 -0
-0.27523729 0.031160871 -0.0032807479
-0 0 -0
-0 0 -0
-0 0 -0
-0 0 -0
-0 0 -0
-0 0 -0
-0 0 -0
-0 0 -0
-0 0 -0
-0 0 -0
-0.25695682 0.046751447 -0.00089094351
-0 0 -0
-0 0 -0
-0 0 -0
-0.27024108 0.056120604 -0.003131385
-0.26989165 0.057777714 -0.003131385
-0.26953205 0.059432652 -0.003131385
-0 0 -0
-0 0 -0
-0.26839244 0.06438379 -0.003131385
-0.26511514 0.065307565 -0.0026832968
-0 0 -0
-0 0 -0
-0.26386812 0.070176408 -0.0026832968
-0 0 -0
-0 0 -0
-0 0 -0
-0.26775351 0.078320332 -0.0035794734
-0.26726791 0.079961762 -0.0035794734
-0 0 -0
-0.26438153 0.082637593 -0.0032807479
-0.2657508 0.084867746 -0.0035794734
-0.26616383 0.086807273 -0.0037288361
-0.26749983 0.089071319 -0.0040275618
-0.27255756 0.092643037 -0.0049237381
-0.27198398 0.094313674 -0.0049237381
-0.27419275 0.096981131 -0.0053718267
-0.2735925 0.098661721 -0.0053718267
-0.27020189 0.099304035 -0.0049237381
-0.26681378 0.099908493 -0.0044756499
-0.26619574 0.10154375 -0.0044756499
-0.2628071 0.10208963 -0.0040275618
-0.26309371 0.10406775 -0.0041769245
-0.26336589 0.10605322 -0.0043262872
-0.26453695 0.10842466 -0.0046250126
-0.26568875 0.11081444 -0.0049237381
-0.26772979 0.11361232 -0.0053718267
-0 0 -0
-0.27173826 0.11929541 -0.006268003
-0.27100116 0.12096052 -0.006268003
-0.27115268 0.12303317 -0.0064173662
-0.26949638 0.12427701 -0.006268003
-0.27140984 0.12719755 -0.0067160917
-0.2688421 0.12800336 -0.0064173662
-0 0 -0
-0.26547956 0.13041389 -0.0061186403
-0.26290828 0.13115059 -0.0058199149
-0.26209861 0.1327613 -0.0058199149
-0.26127905 0.134367 -0.0058199149
-0.25695089 0.13412336 -0.005222464
-0.25699493 0.13616389 -0.0053718267
-0.2561546 0.13773821 -0.0053718267
-0.25530463 0.13930736 -0.0053718267
-0.2596238 0.14376566 -0.006268003
-0.26045707 0.14633135 -0.0065667289
-0.26041141 0.14841969 -0.0067160917
-0.26205814 0.15150937 -0.0071641798
-0.26027253 0.15261105 -0.0070148171
-0.26017913 0.15471382 -0.0071641798
-0.25838014 0.15579349 -0.0070148171
-0.25405291 0.15529989 -0.0064173662
-0.25477204 0.15790415 -0.0067160917
-0.25630391 0.16105233 -0.0071641798
-0.25531089 0.16262196 -0.0071641798
-0.25762275 0.16634351 -0.0077616312
-0.25494665 0.16683196 -0.0074629053
-0.25474012 0.16894278 -0.007612268
-0.25369871 0.17050265 -0.007612268
-0.2518326 0.17149642 -0.0074629053
-0.24996391 0.17247373 -0.0073135425
-0.24970913 0.17457388 -0.0074629053
-0.24943794 0.17667738 -0.007612268
-0.25235495 0.18110219 -0.008359082
-0.25203654 0.18323164 -0.0085084448
-0.2517015 0.18536396 -0.0086578075
-0.25293043 0.1886874 -0.0091058956
-0.25491464 0.19263184 -0.0097033465
-0.25451088 0.19479617 -0.0098527102
-0.25331083 0.19635415 -0.0098527102
-0.25442785 0.19974491 -0.010300798
-0.25319746 0.20130229 -0.010300798
-0.25426134 0.20472068 -0.010748887
-0.25376451 0.2069045 -0.010898249
-0.24944924 0.20592873 -0.010300798
-0.25120637 0.210003 -0.010898249
-0.25217038 0.21346498 -0.011346337
-0.25010735 0.21436211 -0.011196975
-0 0 -0
-0.25338188 0.22265726 -0.012391876
-0.25495675 0.22684695 -0.012989328
-0.257222 0.23172855 -0.013736142
-0.25652361 0.23397125 -0.013885505
-0 0 -0
-0 0 -0
-0 0 -0
-0 0 -0
-0 0 -0
-0 0 -0
-0 0 -0
-0 0 -0
-0 0 -0
-0 0 -0
-0 0 -0
-0 0 -0
-0 0 -0
-0 0 -0
-0 0 -0
-0 0 -0
-0 0 -0
-0 0 -0
-0 0 -0
-0 0 -0
-0 0 -0
-0 0 -0
-0 0 -0
-0 0 -0
-0 0 -0
-0 0 -0
-0 0 -0
-0 0 -0
-3.148138 4.1389246 -0.74695796
-3.1393032 4.180305 -0.75114012
-3.1236024 4.2129941 -0.75367934
-3.1035316 4.2400608 -0.75517291
-3.0855618 4.270246 -0.75726402
-3.0782437 4.3156672 -0.76219296
-3.0653627 4.3538809 -0.76577771
-3.045923 4.3831649 -0.76771939
-3.025121 4.4107428 -0.76936239
-3.0079734 4.4439626 -0.77205092
-2.9855905 4.4697371 -0.77339518
-2.9640923 4.4970546 -0.77503818
-2.9504545 4.5367117 -0.7789216
-2.9316368 4.5688796 -0.78146076
-2.8956172 4.5742478 -0.77922034
-2.8858199 4.6212873 -0.78444803
-2.8651857 4.6515369 -0.78668851
-2.8355641 4.6673398 -0.78638977
-2.793664 4.6625948 -0.78250635
-2.7695274 4.6873112 -0.78385061
-2.7521586 4.7238693 -0.78728592
-2.725091 4.7440972 -0.7878834
-2.6983657 4.7650313 -0.78863019
-2.6825666 4.805676 -0.79281235
-2.6558878 4.8272438 -0.7937085
-2.6299875 4.8504038 -0.79490346
-2.6011078 4.8681941 -0.79520214
-2.5707278 4.8831878 -0.79505277
-2.5411718 4.8997474 -0.79520214
-2.5061135 4.9055605 -0.79355919
-2.4835186 4.9358625 -0.79609835
-2.4593291 4.9634132 -0.7981894
-2.4327283 4.9864087 -0.79953367
-2.3913889 4.9789572 -0.79579961
-2.3683972 5.0096288 -0.79848814
-2.3413665 5.032136 -0.7998324
-2.3157945 5.0580959 -0.80177414
-2.2847149 5.0722103 -0.80177414
-2.2527487 5.0843253 -0.80147541
-2.220325 5.0953326 -0.8010273
-2.1999173 5.1343107 -0.80520946
-2.1656868 5.1413336 -0.80416393
-2.1427946 5.175539 -0.80759925
-2.1013145 5.1647749 -0.80371583
-2.0673835 5.1720614 -0.80281967
-2.0352483 5.1837292 -0.8026703
-2.0030477 5.1951966 -0.80252093
-1.9742815 5.215713 -0.80386519
-1.9446505 5.2342172 -0.80491072
-1.9152051 5.2534833 -0.80610561
-1.8892568 5.2828269 -0.80894351
-1.8564794 5.2933865 -0.80879414
-1.822037 5.2990675 -0.80789798
-1.7875948 5.3045249 -0.80700183
-1.750366 5.3013086 -0.80476135
-1.7150683 5.3034811 -0.80341709
-1.6866703 5.3271027 -0.8055082
-1.6600941 5.3571873 -0.80864483
-1.6334987 5.3880911 -0.81193078
-1.6001264 5.3970647 -0.81178141
-1.5650551 5.4001331 -0.81073588
-1.5335064 5.4153428 -0.81163204
-1.5007763 5.4265566 -0.81193078
-1.4635886 5.4213428 -0.80969036
-1.4222435 5.3996224 -0.80491072
-1.3932635 5.4245291 -0.80744988
-1.3599529 5.4329758 -0.80744988
-1.3247192 5.4335327 -0.80625498
-1.2888455 5.4309754 -0.80461204
-1.2543864 5.4339638 -0.80386519
-1.2233998 5.4521713 -0.8055082
-1.1907643 5.4634399 -0.80610561
-1.1568099 5.468709 -0.80580693
-1.1192631 5.4563308 -0.80281967
-1.0873029 5.4708548 -0.80401456
-1.0561396 5.4900465 -0.8059563
-1.0218915 5.4935069 -0.8055082
-0.98432225 5.4782624 -0.80222219
-0.95035237 5.4822507 -0.80192345
-0.92125165 5.5152874 -0.80610561
-0.88974386 5.5354805 -0.80834609
-0.85485774 5.5349722 -0.80744988
-0.81899828 5.5273976 -0.8055082
-0.7834028 5.5205708 -0.80371583
-0.74938178 5.5242939 -0.80356646
-0.71496445 5.5248656 -0.80296904
-0.67996496 5.5203156 -0.80162477
-0.6460802 5.524384 -0.80162477
-0.61217099 5.5282445 -0.80162477
-0.578444 5.5338635 -0.80192345
-0.54370552 5.5294361 -0.80072856
-0.50949579 5.5297141 -0.80028051
-0.47580993 5.5356917 -0.80072856
-0.44144249 5.5335789 -0.79998177
-0.40632281 5.5204053 -0.79759198
-0.37124878 5.5050364 -0.79490346
-0.33589658 5.4815502 -0.79101998
-0.30133453 5.4667239 -0.78848082
-0.26740047 5.4605689 -0.78728592
-0.23418465 5.4690223 -0.78833145
-0.20001048 5.453558 -0.78579229
-0.16693385 5.4675307 -0.78773403
-0.13242659 5.4289126 -0.7817595
-0.098791912 5.4118276 -0.77907097
-0.065265983 5.3856368 -0.77503818
-0.032361619 5.410655 -0.77877223
0.00085318089 5.451292 -0.78489614
0.034340266 5.4571166 -0.78579229
0.067536347 5.434063 -0.78235698
0.10050651 5.413774 -0.77936971
0.13320564 5.3922973 -0.77623308
0.16521524 5.3567882 -0.77100539
0.19767639 5.3448043 -0.76936239
0.23136705 5.3642359 -0.77249902
0.26589018 5.3953052 -0.77742797
0.29783636 5.3728395 -0.7742914
0.33006591 5.3590684 -0.77249902
0.36334464 5.3628612 -0.77339518
0.39514711 5.3457394 -0.77115476
0.42627826 5.3225164 -0.76801813
0.46361461 5.3739815 -0.77623308
0.49585006 5.3631592 -0.77503818
0.52368975 5.3088484 -0.76727134
0.55491126 5.2927513 -0.7653296
0.58639234 5.2804027 -0.76398534
0.61774284 5.2678666 -0.76264107
0.64908302 5.2561269 -0.76144618
0.6799202 5.2412591 -0.75980318
0.71019906 5.2232723 -0.75771213
0.73805177 5.1894493 -0.75323123
0.77395231 5.2122078 -0.75741339
0.80183017 5.1809788 -0.7533806
0.8376984 5.2013416 -0.75726402
0.86322385 5.1580715 -0.75143886
0.89519578 5.1546259 -0.75173759
0.93031472 5.168498 -0.75472486
0.9571141 5.1364484 -0.75069207
0.98599046 5.1168866 -0.74860096
1.005193 5.0496488 -0.73919111
1.0208192 4.9688106 -0.72769016
1.0192851 4.8115597 -0.70438957
1.0247262 4.6950922 -0.68736225
1.0337683 4.6009307 -0.67377025
1.0519484 4.5511513 -0.66704887
1.0800828 4.5455728 -0.66719824
1.0945745 4.4841104 -0.65868461
1.1097966 4.4283977 -0.65106708
1.1221585 4.3640509 -0.64210534
1.1660752 4.4220939 -0.65226197
1.195769 4.4244003 -0.65375561
1.2210456 4.4103098 -0.65271008
1.2526723 4.4189053 -0.65524924
1.2739719 4.3911953 -0.6521126
1.3011733 4.3842435 -0.65226197
1.3274753 4.3742852 -0.65196323
1.3604472 4.3858881 -0.65509987
1.3882298 4.3802853 -0.65554798
1.3989291 4.3218307 -0.64763176
1.4428097 4.365736 -0.65599608
1.4581846 4.3230748 -0.65061897
1.4750228 4.2859998 -0.64613813
1.4986715 4.2694054 -0.64494324
1.5325094 4.2815394 -0.64837855
1.5618041 4.2804146 -0.64972281
1.5773482 4.2420235 -0.64509255
1.5998418 4.2230191 -0.64359897
1.6275047 4.2177353 -0.64434576
1.6598669 4.2242332 -0.64703429
1.6883276 4.2203946 -0.64807981
1.7082217 4.1953049 -0.64569002
1.7456721 4.2130589 -0.65032029
1.7503521 4.1521616 -0.64210534
1.7808652 4.1531563 -0.64404702
1.8086878 4.1475883 -0.64494324
1.8308946 4.1291819 -0.64374828
1.8419664 4.0863233 -0.6385206
1.8740106 4.0902243 -0.64105976
1.9028307 4.0867152 -0.64240402
1.93464 4.0892615 -0.64479387
1.9596949 4.0773139 -0.64479387
1.9833738 4.0625472 -0.64434576
2.012219 4.0582728 -0.64569002
2.0304089 4.0326042 -0.6434496
2.0564651 4.0227108 -0.64389765
2.0934131 4.03371 -0.64793044
2.1185851 4.0216637 -0.64807981
2.1455538 4.0129476 -0.64882666
2.1710801 4.0014453 -0.6491254
2.1984541 3.9932449 -0.65002155
2.2248445 3.9831328 -0.65061897
2.2565579 3.9823086 -0.65285945
2.2868659 3.9786732 -0.65465176
2.3107374 3.9637122 -0.65450245
2.3324976 3.9452043 -0.65375561
2.3805676 3.9706702 -0.66077566
2.4105384 3.965281 -0.66241866
2.4343047 3.949574 -0.66226929
2.4563963 3.9312093 -0.66167182
2.4857645 3.9244151 -0.66316545
2.5220892 3.9282229 -0.66660082
2.5547771 3.9259317 -0.66899061
2.5897098 3.926688 -0.67197788
2.6203506 3.9205871 -0.67377025
2.6565602 3.9224432 -0.67705619
2.6923313 3.9231868 -0.68019283
2.6977186 3.8798075 -0.67526388
2.7152076 3.8542914 -0.67362088
2.7411044 3.8407774 -0.6742183
2.7756302 3.839108 -0.67705619
2.8003032 3.8235998 -0.67735493
2.827837 3.8119035 -0.67840046
2.8583031 3.8039646 -0.68019283
2.8977633 3.8075953 -0.68422562
2.9246948 3.7944412 -0.68512177
2.9607029 3.792789 -0.68825841
2.9918933 3.7846329 -0.69020015
3.0268037 3.7808671 -0.69303805
3.0636485 3.7791185 -0.69632399
3.112509 3.7915776 -0.70244789
3.1496243 3.7891335 -0.70573384
3.1919215 3.7924268 -0.71021473
3.2414336 3.8036196 -0.71633863
3.2834487 3.8053648 -0.72067016
3.3230038 3.8037586 -0.72440422
3.35742 3.7958858 -0.72694337
3.3938439 3.7899427 -0.72993064
3.4442708 3.7990754 -0.73605448
3.496274 3.8091872 -0.74247712
3.5195811 3.7876627 -0.74247712
3.5847707 3.8106382 -0.75173759
3.5930793 3.7728217 -0.74845159
3.6250851 3.7599556 -0.75039333
3.6695025 3.7595725 -0.7550236
3.6911113 3.7355797 -0.75472486
3.7167609 3.7156568 -0.75532228
3.7106376 3.6643023 -0.74919844
3.7181842 3.6269693 -0.7460618
3.7360959 3.5999713 -0.74516565
3.7688603 3.5872023 -0.74740607
3.7850356 3.5585923 -0.74621117
3.8162203 3.5440459 -0.74815291
3.8495553 3.5312552 -0.7505427
3.8931367 3.5274808 -0.7550236
3.908812 3.4982526 -0.75382864
3.906492 3.4532521 -0.74904907
3.9253724 3.4272668 -0.74860096
3.9702942 3.423775 -0.7533806
3.9859571 3.3948624 -0.75233507
4.0150375 3.3773408 -0.75397801
4.0257959 3.3444297 -0.75203633
4.0431828 3.3171568 -0.75143886
4.0649972 3.2935305 -0.75173759
4.0859017 3.2691438 -0.75188696
4.1020036 3.2409475 -0.75114012
4.1140156 3.2096367 -0.74964648
4.1398993 3.1891592 -0.75084144
4.1963849 3.1918232 -0.75786144
4.230125 3.1766992 -0.76055002
4.2312655 3.1371431 -0.75711465
4.2376666 3.1017802 -0.75472486
4.2502065 3.0710886 -0.75352997
4.2931237 3.0621719 -0.7580108
4.2948513 3.0238221 -0.75487423
4.3303781 3.009258 -0.7580108
4.3300037 2.9697719 -0.75457549
4.3432302 2.9398232 -0.75367934
4.377634 2.9240987 -0.75666654
4.3740253 2.8830397 -0.75278312
4.3957782 2.8588414 -0.75352997
4.4273863 2.8408902 -0.75606912
4.4422274 2.8120849 -0.75562102
4.4736581 2.7936752 -0.75816017
4.4755597 2.7568417 -0.75547165
4.5076041 2.7385662 -0.75816017
4.5022669 2.697648 -0.75427675
4.53406 2.6790223 -0.75696528
4.5598116 2.6566248 -0.75860828
4.5580192 2.6182575 -0.75547165
4.5696959 2.5878055 -0.75472486
4.6036215 2.5698345 -0.75786144
4.6236353 2.5439212 -0.75860828
4.6339417 2.5126765 -0.75771213
4.6353164 2.4767432 -0.75532228
4.6539264 2.4500966 -0.75591975
4.6802845 2.4274101 -0.75786144
4.7003746 2.4013445 -0.75875765
4.7088366 2.3693488 -0.75771213
4.7418938 2.3496263 -0.7608487
4.7624426 2.3235199 -0.76189429
4.7944379 2.3028126 -0.76488149
4.7825513 2.2611008 -0.76055002
4.8053012 2.2358823 -0.7620436
4.8953552 2.2413266 -0.77473944
4.817049 2.1698451 -0.75950444
4.8438339 2.1462529 -0.76174492
4.8596315 2.1176755 -0.76219296
4.8588996 2.081979 -0.75995255
4.8542681 2.044837 -0.75711465
4.8932195 2.0259767 -0.76144618
4.9156342 2.0000112 -0.76308918
4.8800654 1.9507376 -0.75532228
4.9407277 1.9398993 -0.76323855
4.926703 1.8995926 -0.75905639
4.9354916 1.8682777 -0.75860828
4.9375925 1.8345172 -0.75711465
4.9153104 1.7920011 -0.75173759
4.959733 1.7737873 -0.75711465
4.9350648 1.7308937 -0.75143886
4.9745812 1.7105409 -0.75606912
4.9887314 1.6812475 -0.75666654
5.0214891 1.6580411 -0.76025128
5.0212188 1.6238542 -0.75860828
5.0424004 1.5965931 -0.76040065
5.0464349 1.5638686 -0.75950444
5.030385 1.5251346 -0.75547165
5.0453367 1.4959252 -0.75636786
5.0344758 1.4591635 -0.75323123
5.058557 1.4325525 -0.75562102
5.0672517 1.4014868 -0.75562102
5.0843477 1.3726859 -0.75696528
5.0917187 1.3412114 -0.75681591
5.0778241 1.3042911 -0.7533806
5.0828538 1.2723899 -0.75293249
5.1203465 1.2484324 -0.75756276
5.1192517 1.214938 -0.75621849
5.1439528 1.1875037 -0.75890702
5.1154432 1.1479161 -0.7533806
5.1629686 1.1253419 -0.75965381
5.18332 1.0965034 -0.76174492
5.1783266 1.0622965 -0.75995255
5.1731091 1.0281924 -0.75816017
5.1550455 0.99176681 -0.75442612
5.1658945 0.96102047 -0.75517291
5.1405501 0.92371601 -0.75039333
5.199707 0.90143436 -0.75860828
5.2100167 0.8703261 -0.75935507
5.2181878 0.83881181 -0.75980318
5.1909881 0.80180401 -0.75487423
5.1703787 0.76617485 -0.75099075
5.2190375 0.74067783 -0.75771213
5.1637139 0.70054531 -0.74860096
5.1659541 0.66859484 -0.74830222
5.2180471 0.64279753 -0.75562102
5.220911 0.61065346 -0.75547165
5.2393017 0.58023638 -0.75771213
5.2762003 0.55156571 -0.76279044
5.2922783 0.52043635 -0.76473218
5.3052182 0.48885888 -0.76622576
5.2578745 0.45198953 -0.75860828
5.230979 0.41736662 -0.75412738
5.209774 0.3835251 -0.7505427
5.1913118 0.35015857 -0.74740607
5.2436967 0.3213723 -0.7550236
5.2406335 0.28892046 -0.75427675
5.2462578 0.25695172 -0.75487423
5.244772 0.22463018 -0.75442612
5.2253013 0.19168805 -0.75128949
5.2510872 0.16037169 -0.7550236
5.2529607 0.12817252 -0.75517291
5.2704549 0.096241705 -0.75771213
5.2472172 0.063618578 -0.75412738
5.2692614 0.03154647 -0.75741339
5.2396922 -0.00077470235 -0.75293249
5.2583756 -0.033047076 -0.75577039
5.2541189 -0.065261237 -0.75517291
5.2704258 -0.097814314 -0.75771213
5.2687383 -0.13012657 -0.75756276
5.2609224 -0.1622376 -0.75651717
5.2529111 -0.19425763 -0.75547165
5.2960739 -0.22841227 -0.76219296
5.3123488 -0.26178396 -0.76488149
5.2810249 -0.29272673 -0.76040065
5.3008413 -0.32646695 -0.7636866
5.2829542 -0.35791332 -0.76129681
5.2846026 -0.3906146 -0.76189429
5.2653513 -0.42168733 -0.75935507
5.2419777 -0.45219779 -0.75621849
5.2637181 -0.48663452 -0.75995255
5.2380013 -0.51668543 -0.75651717
5.2691507 -0.55243158 -0.76174492
5.2715578 -0.58540821 -0.76264107
5.2590284 -0.61670446 -0.76129681
5.2796779 -0.65199667 -0.76503086
5.2667532 -0.68323314 -0.7636866
5.2614822 -0.71540302 -0.76353723
5.2569933 -0.74767339 -0.76353723
5.2532849 -0.78006107 -0.7636866
5.2708731 -0.81576318 -0.76712197
5.2706494 -0.84887648 -0.76786876
5.2633915 -0.88087374 -0.76757002
5.2198949 -0.90654594 -0.76174492
5.2521853 -0.94539732 -0.76757002
5.2219853 -0.97307265 -0.76383597
5.2052364 -1.0030354 -0.76219296
5.2358332 -1.0422993 -0.76786876
5.2651739 -1.0817767 -0.77339518
5.2187791 -1.1056519 -0.76727134
5.2118969 -1.1376529 -0.76727134
5.1864896 -1.1654881 -0.76443344
5.1763506 -1.1966211 -0.76398534
5.1487098 -1.2235547 -0.7608487
5.1564736 -1.2588792 -0.76323855
5.2071552 -1.3051722 -0.77234966
5.2258606 -1.3439999 -0.77653182
5.1792741 -1.3659455 -0.77055728
5.160296 -1.3948587 -0.76891428
5.1268659 -1.4196295 -0.76503086
5.1313758 -1.4548395 -0.76712197
5.1024117 -1.4805069 -0.76398534
5.0704832 -1.5050292 -0.76040065
5.106566 -1.549907 -0.76757002
5.0875163 -1.5782793 -0.76607645
5.0899892 -1.6133525 -0.76801813
5.0555372 -1.6366304 -0.76413471
5.0303793 -1.6626515 -0.76174492
5.0341353 -1.6982301 -0.76398534
5.0329695 -1.7323071 -0.76547897
5.0241113 -1.7638117 -0.76577771
5.0131941 -1.7946059 -0.76577771
4.9788685 -1.8168534 -0.7620436
4.9796739 -1.8518521 -0.76398534
4.9488015 -1.8750107 -0.7608487
4.959341 -1.9138895 -0.76443344
4.9438233 -1.9428359 -0.76383597
4.9244657 -1.9701942 -0.76264107
4.9058743 -1.9977612 -0.76159555
4.9273186 -2.0418384 -0.76712197
4.9292741 -2.0781827 -0.76951176
4.9355116 -2.1165771 -0.77264839
4.919713 -2.1456347 -0.77220029
4.8657837 -2.1577346 -0.76547897
4.845242 -2.1842973 -0.76428407
4.8326468 -2.2143981 -0.76443344
4.8055243 -2.237745 -0.76219296
4.8354945 -2.2879205 -0.76951176
4.8231473 -2.3184047 -0.7698105
4.7821779 -2.3349345 -0.7653296
4.7863617 -2.3734622 -0.76846623
4.7505155 -2.3921087 -0.76488149
4.7304664 -2.4185104 -0.76398534
4.736598 -2.4584272 -0.76757002
4.713552 -2.4832945 -0.76622576
4.6816607 -2.5033073 -0.76338786
4.6705575 -2.5343451 -0.76413471
4.6930261 -2.5839477 -0.77070665
4.6805353 -2.6146245 -0.77130413
4.6738658 -2.6486592 -0.77294713
4.6412406 -2.6679215 -0.77010924
4.5974517 -2.6804068 -0.7653296
4.6073003 -2.7241724 -0.76995987
4.5981297 -2.7569687 -0.77130413
4.5769029 -2.7825613 -0.77055728
4.5555353 -2.807997 -0.7698105
4.5256438 -2.8280339 -0.76757002
4.5107117 -2.8573375 -0.76801813
4.5380177 -2.9138196 -0.77608371
4.5192251 -2.9410698 -0.77593434
4.4895396 -2.9611197 -0.77384329
4.4638886 -2.9836645 -0.77249902
4.4348559 -3.0037875 -0.77055728
4.4220476 -3.0348604 -0.77160287
4.3984728 -3.0585485 -0.77070665
4.3448701 -3.0609846 -0.76428407
4.3549757 -3.1082721 -0.76966113
4.3510432 -3.145946 -0.77249902
4.3316584 -3.1725843 -0.77249902
4.3160801 -3.2020497 -0.77324581
4.2607856 -3.2017348 -0.76652449
4.2418466 -3.2284172 -0.76667386
4.2321367 -3.2622335 -0.7686156
4.2167158 -3.2917917 -0.76951176
4.2119489 -3.3298709 -0.77249902
4.1837206 -3.3494709 -0.77100539
4.1477308 -3.3626213 -0.76801813
4.1499434 -3.4068348 -0.77249902
