# .PCD v0.7 - Point Cloud Data file format
VERSION 0.7
FIELDS x y z
SIZE 4 4 4
TYPE F F F
COUNT 1 1 1
WIDTH 1631
HEIGHT 1
VIEWPOINT 0 0 0 1 0 0 0
POINTS 1631
DATA ascii
1.3529088 6.5833616 -0.311703
1.3972149 6.5934978 -0.31268743
1.4389246 6.5906544 -0.31299832
1.481967 6.5933933 -0.31362006
1.5239714 6.5909863 -0.31398275
1.5671575 6.5931702 -0.31460452
1.6090053 6.5892506 -0.31491539
1.6530511 6.5937834 -0.3156926
1.6972131 6.5980234 -0.31646979
1.7407243 6.5990725 -0.31709155
1.7827475 6.5940514 -0.31740242
1.8261081 6.5935745 -0.31797236
1.870893 6.5976171 -0.31880137
1.913568 6.5936856 -0.31921589
1.9571183 6.5923505 -0.31978583
2.0010142 6.5916843 -0.3204076
2.0473447 6.5983572 -0.32144386
2.0935299 6.6037574 -0.32242829
2.1398585 6.6088381 -0.32341275
2.1835053 6.6050653 -0.32393086
2.2265475 6.5991125 -0.32434538
2.2699239 6.5938244 -0.3248117
2.3235807 6.6174607 -0.32688421
2.3651512 6.6058993 -0.32703966
2.4076951 6.5968909 -0.32735053
2.4512622 6.5904169 -0.32781684
2.5015669 6.6013985 -0.32926762
2.5467021 6.5980358 -0.32994118
2.5955448 6.6036611 -0.33113289
2.6441808 6.6080074 -0.33227277
2.6903296 6.6055312 -0.33304998
2.7403727 6.6119618 -0.33434531
2.7878783 6.6115851 -0.33527794
2.8323317 6.6035318 -0.33579606
2.8843801 6.6125722 -0.33729863
2.9321904 6.6111803 -0.33823127
2.980092 6.6094503 -0.33916393
3.0280826 6.6073809 -0.34009656
3.0782683 6.6094966 -0.34128824
3.1303031 6.6148548 -0.34268719
3.1816533 6.6180224 -0.34398252
3.2327213 6.6199112 -0.34522605
3.2852638 6.624105 -0.346625
3.3366308 6.625227 -0.3478685
3.3872252 6.6241889 -0.34900841
3.4360912 6.6192336 -0.34994105
3.4924743 6.6280622 -0.35170269
3.5392017 6.6179552 -0.35237625
3.5926073 6.6198115 -0.3537752
3.6456864 6.6203856 -0.35512233
3.7008562 6.6240435 -0.35667673
3.7532525 6.6220603 -0.35792026
3.8107419 6.6283402 -0.3596819
3.8669395 6.6315742 -0.3612881
3.9228113 6.6335082 -0.3628425
3.9747419 6.6281538 -0.36398238
4.0303869 6.6283836 -0.36548495
4.0846114 6.6256294 -0.36683211
4.1410708 6.6258454 -0.36838648
4.2014279 6.6315222 -0.37030357
4.2641692 6.6400671 -0.37242791
4.3233585 6.6422319 -0.37418956
4.3805337 6.6405854 -0.37574396
4.4372959 6.6376562 -0.37724653
4.4981079 6.6400666 -0.3791118
4.5534635 6.6337466 -0.38045892
4.6066284 6.6237178 -0.38159883
4.6880331 6.6532826 -0.38527754
4.7455983 6.6479611 -0.38678011
4.8003478 6.6381373 -0.38802364
4.8687305 6.6464186 -0.39045885
4.9338236 6.6492977 -0.39258319
4.9949336 6.6460395 -0.39434484
5.0634484 6.6518149 -0.39672825
5.1401496 6.6672792 -0.39978519
5.1951003 6.6537166 -0.4009769
5.2599902 6.6522627 -0.40299761
5.3269296 6.6525998 -0.40517378
5.3946996 6.6531405 -0.40740174
5.471549 6.6639028 -0.41035506
5.5417085 6.665525 -0.41273847
5.6101627 6.6642442 -0.41496643
5.6749215 6.6578131 -0.41688353
5.750905 6.6636882 -0.41968143
5.829145 6.6711359 -0.42263478
5.9017353 6.6711421 -0.42512178
5.9738774 6.6697631 -0.42755702
6.0428686 6.6640501 -0.42973316
6.1275496 6.6746588 -0.433101
6.2037473 6.6749692 -0.43579528
6.2822309 6.6767759 -0.43864501
6.3589025 6.6757002 -0.44133928
6.4441156 6.6825585 -0.44465533
6.5191851 6.6779037 -0.44719416
6.5923328 6.6704469 -0.44957757
6.6825871 6.6792841 -0.45320448
6.7568493 6.6711273 -0.45563969
6.8620081 6.6922884 -0.46030286
6.9324327 6.6784616 -0.4624272
7.0166922 6.6770997 -0.465536
7.1135659 6.6865802 -0.46952561
7.2042308 6.6890068 -0.4730489
7.2907753 6.6865211 -0.47626129
7.3805189 6.685905 -0.47968096
7.4504318 6.6664605 -0.48170167
7.5525632 6.6748424 -0.48595035
7.6460462 6.6743402 -0.48957726
7.7466135 6.6788082 -0.49367049
7.8353548 6.6719341 -0.49693471
7.9403529 6.6777172 -0.50128698
8.0334225 6.6722531 -0.50481027
8.1390762 6.6760287 -0.5091626
8.2528381 6.6850419 -0.51403302
8.3693533 6.6947794 -0.51905888
8.4659195 6.6872444 -0.52273762
8.5753059 6.6886005 -0.52724534
8.663661 6.6724138 -0.53035414
8.7910938 6.6850085 -0.53600174
8.9142113 6.6926918 -0.5413385
9.0257158 6.6901941 -0.54589808
9.1326866 6.6830401 -0.5501467
9.2407169 6.6754084 -0.55444723
9.3823338 6.6904693 -0.56087202
9.4828281 6.6747298 -0.56465441
9.6474571 6.702445 -0.57247818
9.7559433 6.6894259 -0.57672685
9.8960619 6.6965904 -0.58294439
10.025835 6.6950765 -0.5884884
10.146785 6.6861768 -0.59346247
10.293119 6.6923709 -0.5999909
10.444112 6.6997142 -0.60677838
10.597264 6.7065215 -0.61366957
10.736488 6.7027097 -0.61967987
10.893068 6.7079115 -0.62672645
11.027064 6.6974459 -0.63237405
11.118501 6.6599312 -0.63543105
11.144538 6.5829511 -0.63455021
11.058722 6.4410744 -0.62698549
11.093706 6.3706121 -0.62672645
11.135194 6.3038979 -0.6268819
11.173664 6.235455 -0.6268819
11.179336 6.1489725 -0.62496477
11.176467 6.0583735 -0.62258142
11.199335 5.9821548 -0.62175238
11.216387 5.9030938 -0.6206125
11.267469 5.8419733 -0.62149334
11.315555 5.7790856 -0.62221873
11.364184 5.7162762 -0.62299591
11.433947 5.6637235 -0.62501663
11.484641 5.6013379 -0.62594926
11.697953 5.6167679 -0.63626003
11.808947 5.5811496 -0.64066416
11.994193 5.5789094 -0.64931697
12.234338 5.5995355 -0.66107851
12.276662 5.5280514 -0.6615448
12.335005 5.4635367 -0.66294378
12.517538 5.4527435 -0.67138928
12.618693 5.4049258 -0.67522347
12.675551 5.337472 -0.67657059
12.719136 5.2641773 -0.67719239
12.765074 5.1916776 -0.67796957
12.819874 5.1225166 -0.6792649
13.880188 5.4475675 -0.73662198
13.935718 5.3709149 -0.73786545
14.077696 5.3266468 -0.7439276
14.21497 5.279099 -0.74973065
14.394411 5.2454491 -0.75786531
14.523187 5.1916451 -0.76320207
14.641474 5.1328235 -0.76796889
14.769028 5.0759897 -0.7732538
14.88886 5.015233 -0.77812421
15.013241 4.9547606 -0.78325373
15.149791 4.8969407 -0.78905678
15.309995 4.8451624 -0.79615515
15.521645 4.8075519 -0.80605149
15.653117 4.7432032 -0.81159544
16.011312 4.7446508 -0.82941914
16.419025 4.7560449 -0.84988534
16.637203 4.7087741 -0.86009252
16.729313 4.6241574 -0.86351216
16.760263 4.5222015 -0.86366761
16.806046 4.4241066 -0.86465204
16.852221 4.3258681 -0.86568832
16.928825 4.2349825 -0.86838257
17.003006 4.1428466 -0.87097323
17.092239 4.0536461 -0.87439293
17.255945 3.9807858 -0.8818022
17.680555 3.9646115 -0.90309733
17.716257 3.8586006 -0.90371913
17.659479 3.7328923 -0.89947045
17.471712 3.5813642 -0.88833064
17.466909 3.4688418 -0.88693166
17.537882 3.3712125 -0.88957411
17.479689 3.2489443 -0.88542908
17.501261 3.1419826 -0.88553274
17.481833 3.0278933 -0.88351202
17.54047 2.9273071 -0.88563633
17.529507 2.8150358 -0.88413376
17.50993 2.7017913 -0.88221669
17.678316 2.6168113 -0.89019591
17.816648 2.5256627 -0.89662069
17.771442 2.4081182 -0.89346009
17.738344 2.2928874 -0.89097309
17.763973 2.1854663 -0.89159483
17.714558 2.0691323 -0.88833064
17.700119 1.9574369 -0.88693166
17.744576 1.8522134 -0.88864148
17.644291 1.732378 -0.88283843
17.651606 1.6238078 -0.88268298
17.591585 1.509497 -0.8790561
17.63735 1.4044594 -0.88097316
17.66456 1.297601 -0.88195759
17.654253 1.1879832 -0.88102496
17.668188 1.0800624 -0.88138765
17.650551 0.97031808 -0.88014418
17.650188 0.86170632 -0.87983328
17.580311 0.75020224 -0.8759473
17.606539 0.6431179 -0.87708718
17.444454 0.5300504 -0.86848623
17.517263 0.4246929 -0.87211311
17.487587 0.31662464 -0.87045509
17.468231 0.20906729 -0.86936706
17.402275 0.10149457 -0.86589557
17.327671 -0.0052579222 -0.86200958
17.500076 -0.11270257 -0.87097323
17.524021 -0.22039454 -0.87226856
17.354593 -0.32476535 -0.86356395
17.425154 -0.43306118 -0.86734635
17.256472 -0.53482515 -0.85874534
17.217936 -0.63939929 -0.85693192
17.23065 -0.7457698 -0.8578127
17.233728 -0.85187596 -0.85822725
17.235157 -0.95799255 -0.85858995
17.241913 -1.0645283 -0.85926348
17.256975 -1.1717926 -0.86040336
17.215599 -1.275147 -0.85864174
17.221388 -1.3818752 -0.85936713
17.245417 -1.4903573 -0.86107695
17.201145 -1.5929197 -0.85926348
17.208935 -1.7002025 -0.86019611
17.216057 -1.8076408 -0.86112875
17.205633 -1.913353 -0.8611806
17.186626 -2.0180731 -0.86081791
17.153107 -2.1209154 -0.85972983
17.084312 -2.2189181 -0.85682827
16.974392 -2.3106313 -0.85180241
16.885744 -2.4041779 -0.84791642
16.855858 -2.5055382 -0.84713924
16.841154 -2.6090696 -0.84719104
16.874123 -2.7203064 -0.84978169
16.935907 -2.8369975 -0.85392672
16.995909 -2.9543774 -0.85801995
17.01874 -3.0660462 -0.86019611
17.085016 -3.1863484 -0.86470383
17.088676 -3.2956603 -0.86594737
17.264992 -3.4396858 -0.87636179
17.242582 -3.545356 -0.87630999
16.975296 -3.5990818 -0.86330491
16.695324 -3.6468914 -0.84962624
17.145174 -3.8555598 -0.87475562
17.152328 -3.9678926 -0.87641364
17.036333 -4.0513387 -0.87154317
16.994663 -4.1517649 -0.87066239
16.953369 -4.2520761 -0.86983335
11.185116 -2.8779922 -0.5622192
11.159522 -2.9445295 -0.56180465
10.91374 -2.9513984 -0.54957676
10.682738 -2.9593651 -0.53812611
10.601932 -3.0071378 -0.53475827
10.498885 -3.0476253 -0.53019869
10.458927 -3.1057315 -0.52905881
10.414829 -3.1623013 -0.52771169
10.373294 -3.2193356 -0.52651995
10.34573 -3.2805085 -0.52610546
10.303555 -3.336848 -0.52491379
10.266768 -3.394675 -0.52403295
10.242908 -3.4566486 -0.5238775
10.223393 -3.5200834 -0.52398115
10.278863 -3.6098895 -0.52822977
10.230195 -3.6634614 -0.52677906
10.226285 -3.7330148 -0.52781528
10.238753 -3.8089271 -0.5297842
10.270284 -3.8925672 -0.53284115
10.163293 -3.9234929 -0.52822977
10.207802 -4.0128245 -0.53206396
10.220072 -4.090229 -0.53413647
10.208655 -4.158514 -0.53491366
10.200474 -4.2283425 -0.53589815
10.1909 -4.2978387 -0.53683078
10.184527 -4.3689518 -0.53797066
10.174004 -4.4385505 -0.5389033
10.173963 -4.5130444 -0.54045767
10.178851 -4.5901685 -0.54232293
10.169559 -4.6612787 -0.54341102
10.167017 -4.7358212 -0.54491359
10.161236 -4.809226 -0.54626077
10.150434 -4.8805733 -0.5473488
10.147217 -4.955914 -0.54890323
10.147927 -5.033618 -0.5507167
10.143606 -5.1092701 -0.55227107
10.134293 -5.1827841 -0.5535664
10.125344 -5.2568355 -0.55491352
8.2085295 -4.325573 -0.44439626
8.1818333 -4.3758578 -0.44439626
10.111122 -5.4880619 -0.55988759
10.119245 -5.5731287 -0.56237459
10.097934 -5.6424227 -0.56315184
10.089185 -5.7190528 -0.56470621
10.07468 -5.7928004 -0.56594974
10.020831 -5.8439417 -0.56486166
8.8476372 -5.2326183 -0.49631295
8.7648373 -5.2564979 -0.49325597
8.8313923 -5.3703799 -0.4992663
8.7846737 -5.41608 -0.49843729
8.3905449 -5.2443528 -0.47636491
0 -0 -0
7.9869466 -5.1294007 -0.45548424
7.929379 -5.1614189 -0.45387805
7.8750544 -5.1951251 -0.45247909
7.8272567 -5.2328 -0.45149463
7.8545256 -5.321064 -0.4552252
7.8357239 -5.378768 -0.45610601
7.9116049 -5.5025983 -0.46299714
7.4450679 -5.2461104 -0.43553624
7.3712888 -5.2620969 -0.43289375
7.318634 -5.2925944 -0.43159842
7.2956877 -5.3444843 -0.43222019
7.3116736 -5.425456 -0.43538079
7.3077812 -5.4924216 -0.43729788
7.3033409 -5.5595427 -0.43921494
7.3102131 -5.635963 -0.44190922
7.3093371 -5.7071433 -0.44413719
7.2820139 -5.75808 -0.44465533
7.2808423 -5.8301229 -0.44693509
7.3372302 -5.9495482 -0.45310086
0 -0 -0
7.3373795 -6.10044 -0.4580749
0 -0 -0
0 -0 -0
0 -0 -0
0 -0 -0
0 -0 -0
0 -0 -0
0 -0 -0
0 -0 -0
0 -0 -0
0 -0 -0
0 -0 -0
0 -0 -0
0 -0 -0
0 -0 -0
0 -0 -0
0 -0 -0
0 -0 -0
0 -0 -0
0 -0 -0
0 -0 -0
7.3806515 -7.9493279 -0.52579457
7.4214997 -8.0923634 -0.5326857
7.3904772 -8.158474 -0.53413647
7.3362832 -8.1992016 -0.53382564
7.2990608 -8.2590294 -0.53486186
7.2679462 -8.3262329 -0.53641629
7.2349772 -8.3918514 -0.53786701
7.2998748 -8.5729618 -0.54719341
3.1275346 -3.7179296 -0.21507162
3.0823336 -3.7101591 -0.21325816
2.9132285 -3.5506222 -0.20128934
2.8700182 -3.5420439 -0.1995277
2.8195391 -3.523711 -0.1971443
2.7706318 -3.5064609 -0.19486453
2.7294128 -3.4981947 -0.1932065
2.6938837 -3.4966769 -0.1920148
2.6608942 -3.4980357 -0.19103035
2.6159995 -3.4831481 -0.18900965
2.5797131 -3.4790752 -0.18771432
2.5465238 -3.4787188 -0.18667805
2.5169451 -3.4829443 -0.18595268
2.4792941 -3.475554 -0.1845019
2.4447031 -3.4719172 -0.18331021
2.4159474 -3.4761896 -0.18263663
2.3397999 -3.4110501 -0.17761077
2.2992401 -3.3963926 -0.17579731
2.2717028 -3.4004698 -0.17517556
2.2480481 -3.4101751 -0.17491649
2.2298026 -3.428091 -0.17517556
2.2184308 -3.4568396 -0.1761082
2.183295 -3.4484448 -0.17476106
2.1568069 -3.4533045 -0.17424291
2.1319122 -3.4605205 -0.17388023
2.089905 -3.4393926 -0.17180771
2.0697882 -3.4538648 -0.17191133
2.038908 -3.4501615 -0.17092688
2.0126743 -3.4539771 -0.17040876
1.988957 -3.4619312 -0.17014968
1.9583313 -3.4575572 -0.16916524
1.9317269 -3.4599152 -0.1685953
1.9032428 -3.4585767 -0.1678181
1.8672347 -3.4429715 -0.16621189
1.8512486 -3.4640539 -0.16678184
1.8285637 -3.4726963 -0.16662639
1.803085 -3.4758713 -0.16616008
1.7830858 -3.4895377 -0.16631553
1.7553594 -3.487922 -0.16559014
1.7321521 -3.4950473 -0.16538289
1.7041088 -3.4921455 -0.16460569
1.6787598 -3.4944332 -0.16413938
1.6564335 -3.5028622 -0.16403575
1.6399623 -3.5238264 -0.1646575
1.6203873 -3.5383632 -0.16491657
1.596186 -3.5427754 -0.16460569
1.5744179 -3.5525026 -0.16460569
1.5601668 -3.5794926 -0.16559014
1.5436778 -3.6018505 -0.16631553
1.5242605 -3.6176975 -0.16667821
1.504325 -3.6325188 -0.16698909
0 -0 -0
0 -0 -0
1.4481508 -3.6874826 -0.16854349
1.4244204 -3.6935031 -0.16838804
1.4020839 -3.7031078 -0.16843985
1.3810737 -3.7163222 -0.16869892
0 -0 -0
1.3451113 -3.760262 -0.1702015
0 -0 -0
0 -0 -0
1.2960675 -3.8449557 -0.17351754
1.2824639 -3.8831835 -0.17517556
1.2847152 -3.9717524 -0.17957966
1.285023 -4.0576358 -0.18382834
1.2671913 -4.0883393 -0.18507186
1.2516366 -4.1275778 -0.18678169
1.2396193 -4.1801839 -0.1892169
1.2211694 -4.2126517 -0.19056404
1.2039987 -4.2508149 -0.19222206
1.2683327 -4.5853996 -0.20983849
1.2557786 -4.6509476 -0.21294728
1.2549212 -4.7638345 -0.21859491
1.2413061 -4.8323855 -0.22185913
1.2356188 -4.9358239 -0.22698863
2.331732 -9.5676994 -0.4739297
2.269526 -9.5672503 -0.47315252
2.20876 -9.572238 -0.4726862
2.1493289 -9.5826874 -0.47253075
1.2480778 -5.7266688 -0.26709193
2.0369411 -9.6337452 -0.47387791
1.9729799 -9.6225824 -0.47263438
1.9234284 -9.6825047 -0.47517321
1.8666198 -9.7078543 -0.47589859
1.1929594 -6.4142084 -0.30149582
1.1812751 -6.5757313 -0.30963045
1.1698675 -6.7501388 -0.31843868
1.159485 -6.9433632 -0.32823136
1.1323708 -7.0469785 -0.33330902
1.5447222 -10.007845 -0.48838556
1.4799243 -9.9944134 -0.48719385
1.4150693 -9.9785862 -0.48589852
1.348454 -9.9474964 -0.48382601
1.2857285 -9.9427071 -0.48315242
1.2238438 -9.943471 -0.48278973
1.1614192 -9.9388895 -0.48216799
1.1000843 -9.9428511 -0.48201254
1.0378121 -9.9374952 -0.48139077
0.97389174 -9.9138594 -0.4798364
0.9098435 -9.8848419 -0.47802293
0.84874755 -9.8852634 -0.47776386
0.78799754 -9.8892899 -0.47771206
0.72810721 -9.9048948 -0.478282
0.66986358 -9.9470387 -0.4802509
0.60991275 -9.9689045 -0.48118353
0.54862374 -9.9704647 -0.48107991
0.48772755 -9.9796286 -0.48139077
0.42508167 -9.9495068 -0.47968096
0.18179531 -4.9539762 -0.2202011
0.14970012 -4.8990989 -0.21729958
0.11884043 -4.8669791 -0.21558975
0.088362582 -4.8336682 -0.2138281
0.058500044 -4.8171434 -0.21294728
0.028860906 -4.8034306 -0.21222191
-0.00061108073 -4.7985239 -0.21196283
-0.029924298 -4.7784572 -0.21092658
-0.058902912 -4.7512221 -0.20952763
-0.087792218 -4.7367926 -0.20880224
-0.11685498 -4.7361646 -0.20880224
-0.14613037 -4.7423458 -0.20916493
-0.17518897 -4.7403617 -0.20911312
-0.20379624 -4.7282228 -0.20854317
-0.23216239 -4.7139168 -0.2078696
-0.26119307 -4.7143974 -0.20797323
-0.29023835 -4.7146997 -0.20807685
-0.31943265 -4.7168155 -0.20828411
-0.34836847 -4.7147665 -0.20828411
-0.37721121 -4.711545 -0.2082323
-0.40542519 -4.7011824 -0.20781779
-0.43619871 -4.7194881 -0.20890586
-0.46593478 -4.7246733 -0.20932037
-0.4941856 -4.7147732 -0.20895767
-0.52332652 -4.7136374 -0.20906129
-0.55398691 -4.725215 -0.20983849
-0.58247942 -4.7177625 -0.20963125
-0.61167347 -4.7160802 -0.20973487
-0.64073408 -4.7132277 -0.20978668
-0.67006433 -4.7121739 -0.20994212
-0.70160925 -4.7257538 -0.21087477
-0.73242825 -4.7332025 -0.21149652
-0.76479608 -4.7493234 -0.21258458
-0.79953492 -4.7780285 -0.21434623
-0.83071935 -4.7838559 -0.21491618
-0.8621825 -4.7904625 -0.21553794
-0.89558947 -4.8066797 -0.21667783
-0.92676842 -4.8099194 -0.21714415
-0.96856117 -4.8658438 -0.22040837
-1.9430206 -9.4523621 -0.46367073
-1.9931091 -9.4031391 -0.46170181
-2.0537529 -9.4043913 -0.4624272
-2.1061585 -9.3682289 -0.4611837
-2.1631508 -9.3531837 -0.46108007
-2.2195756 -9.3358488 -0.4608728
-2.278003 -9.3269043 -0.46113187
-2.3402922 -9.3330927 -0.46221995
-2.3947763 -9.3079185 -0.46165001
-2.4434326 -9.2611847 -0.45994017
-2.4968216 -9.2334862 -0.4592666
-2.5539637 -9.2199173 -0.45937023
-2.6170306 -9.2271299 -0.46061376
-2.6833456 -9.2444649 -0.4624272
-2.7431462 -9.2383566 -0.46299714
-2.8003604 -9.2232618 -0.46310076
-2.8628228 -9.2249804 -0.46413705
-2.9235997 -9.2205677 -0.46486241
-2.9801211 -9.2024555 -0.46486241
-3.0384119 -9.1896849 -0.4651733
-3.0969775 -9.1774921 -0.465536
-3.1561582 -9.1668148 -0.46600232
-3.2192965 -9.1670628 -0.46709037
-3.2721162 -9.1377354 -0.46657225
-3.3181887 -9.0902815 -0.46506968
-3.3728583 -9.0669432 -0.46491423
-3.4273663 -9.0432758 -0.46475878
-3.472717 -8.9959908 -0.46330804
-3.5260227 -8.9698658 -0.46304896
-3.5854485 -8.9591875 -0.46367073
-3.6347008 -8.9231462 -0.46289352
-3.6989465 -8.9237385 -0.46418884
-3.7509148 -8.894433 -0.46382615
-3.8093574 -8.8804283 -0.46434429
-3.8382118 -8.7983084 -0.46102825
-3.8641775 -8.711606 -0.45745316
-3.888814 -8.6240091 -0.45382625
-3.9208465 -8.5545959 -0.45123559
-3.9551265 -8.4914522 -0.44900763
-3.9892073 -8.4291143 -0.44683146
-4.0140162 -8.3486795 -0.44361907
-4.0305367 -8.253006 -0.43952584
-4.0580196 -8.1816006 -0.43683153
-4.086576 -8.1137381 -0.43434453
-4.1144538 -8.0458345 -0.4318575
-4.1384311 -7.9716916 -0.42900777
-4.1728306 -7.9187622 -0.42740157
-4.2006125 -7.8542643 -0.42512178
-4.2244253 -7.7835817 -0.42247933
-4.2422299 -7.7032824 -0.41926691
-4.2582345 -7.621316 -0.41595089
-4.285708 -7.5611639 -0.41393018
-4.3195748 -7.5130825 -0.41263485
-4.3464718 -7.4536567 -0.41066596
-4.3641591 -7.3795733 -0.40781623
-4.3852119 -7.3124061 -0.40538102
-4.4061246 -7.2461133 -0.40299761
-4.4269142 -7.1806908 -0.40066603
-4.4581847 -7.1330695 -0.39942253
-4.4671202 -7.0507517 -0.39605466
-4.4843903 -6.9828787 -0.39356765
-4.5048108 -6.9209185 -0.39144331
-4.5207911 -6.8531375 -0.38895628
-4.5444365 -6.7978745 -0.38724643
-4.5670147 -6.7417536 -0.38548478
-4.5777702 -6.6691475 -0.38268688
-4.5900893 -6.5999436 -0.38009623
-4.6149654 -6.5496159 -0.37869728
-4.6434593 -6.5049214 -0.37766102
-4.67275 -6.4617424 -0.37672839
-4.7087688 -6.4281158 -0.37641752
-4.7350278 -6.3814607 -0.37527764
-4.7368884 -6.3027959 -0.37206522
-4.7530875 -6.2442141 -0.37014812
-4.7669177 -6.1832995 -0.36807561
-4.7875562 -6.131896 -0.36662483
-4.7965932 -6.0663743 -0.36424145
-4.821239 -6.0212398 -0.36320516
-4.8417382 -5.9713778 -0.36185804
-4.8630748 -5.9230351 -0.36061454
-4.8916636 -5.8838706 -0.35999277
-4.914166 -5.8377032 -0.35890469
-4.9323988 -5.786922 -0.35750574
-4.9214811 -5.7028761 -0.353827
-4.9498086 -5.6650519 -0.35330889
-4.9745483 -5.6233554 -0.3525317
-4.9969645 -5.5793376 -0.35159904
-5.0150023 -5.5308189 -0.35035554
-5.0225015 -5.4712558 -0.34833482
-5.0376186 -5.4205871 -0.34693587
-5.0297179 -5.3459411 -0.3438271
-5.0638032 -5.3164244 -0.34393072
-5.0595837 -5.2471585 -0.34118462
-5.0686603 -5.1924357 -0.3394748
-5.0786605 -5.1392207 -0.3378686
-5.0945578 -5.092432 -0.33672869
-5.1036754 -5.0393286 -0.3351225
-5.1237745 -4.9974604 -0.33434531
-5.1608157 -4.9721627 -0.33481163
-5.1485391 -4.8997903 -0.33175465
-5.1763234 -4.8660555 -0.33159921
-5.1504574 -4.782567 -0.32766142
-5.1664562 -4.7387261 -0.32672879
-5.1880331 -4.700232 -0.32621065
-5.1966796 -4.6503334 -0.3248117
-5.1989222 -4.5952158 -0.32299823
-5.2067051 -4.5454998 -0.32159927
-5.2140737 -4.495862 -0.32020032
-5.2233119 -4.4482479 -0.31895682
-5.2306333 -4.399405 -0.31760967
-5.2398582 -4.3525538 -0.31641799
-5.2456169 -4.3032227 -0.31501901
-5.2517438 -4.2546144 -0.31367189
-5.2785311 -4.2229338 -0.31372371
-5.2988567 -4.1861334 -0.31336102
-5.3110552 -4.1431012 -0.31248018
-5.3379593 -4.1116538 -0.3125838
-5.3614974 -4.0776148 -0.31248018
-5.3536701 -4.0200601 -0.31035584
-5.3565726 -3.9710808 -0.30895689
-5.3526282 -3.9175005 -0.30714345
-5.3692784 -3.8793211 -0.30667713
-5.3807831 -3.8376069 -0.30589992
-5.3895283 -3.7941735 -0.30496728
-5.4118872 -3.760463 -0.30491549
-5.4159145 -3.7141981 -0.30372378
-5.4220595 -3.6697047 -0.30268753
-5.4536104 -3.6424661 -0.30325747
-5.4741898 -3.607836 -0.30315384
-5.4978986 -3.5752678 -0.30325747
-5.5079637 -3.5339181 -0.30253208
-5.5244803 -3.4968514 -0.30222121
-5.557693 -3.4702909 -0.30294657
-5.5924883 -3.4445014 -0.30377558
-5.6041284 -3.4044199 -0.30320564
-5.6077766 -3.3597076 -0.30216938
-5.6205468 -3.3206654 -0.30170307
-5.6917329 -3.3157659 -0.30476004
-5.6565428 -3.2489564 -0.30144399
-5.6685495 -3.2097602 -0.30097768
-5.6427884 -3.1496162 -0.2982834
-5.6935105 -3.1322572 -0.30014867
-5.7012081 -3.0910776 -0.2994751
-5.7394476 -3.0663872 -0.30061498
-5.7104301 -3.0060015 -0.29781708
-5.708375 -2.9603357 -0.29662538
-5.7175374 -2.9207127 -0.29610726
-5.6978793 -2.8667312 -0.2939311
-5.6777749 -2.8131015 -0.29175496
-5.6706929 -2.7663927 -0.29035601
-5.6794577 -2.7276564 -0.28988969
-5.6717081 -2.681237 -0.28849074
-5.6880531 -2.6463857 -0.28849074
-5.6932869 -2.6064482 -0.28786898
-5.698245 -2.5665462 -0.28724721
-5.7001886 -2.5254688 -0.28647003
-5.7018433 -2.4844644 -0.28569284
-5.696784 -2.440783 -0.28455293
-5.7015285 -2.40152 -0.28398299
-5.7152338 -2.3661091 -0.2839312
-0.2548686 -0.10489383 0.022698551
-5.8977871 -2.357295 -0.29253215
-0.25892559 -0.10285264 0.022543112
-0.25675619 -0.10018476 0.022698551
-0 -0 -0
-0.25796625 -0.09702643 0.022698551
-0.25855675 -0.095441751 0.022698551
-0 -0 -0
-0 -0 -0
-0 -0 -0
-0 -0 -0
-0.26420784 -0.088404387 0.022543112
-0.26569557 -0.087088652 0.022491299
-0.2652728 -0.085155495 0.022543112
-0.26579031 -0.083526202 0.022543112
-0.26725358 -0.082183316 0.022491299
-0.26679531 -0.080258258 0.022543112
-0.26920122 -0.079175301 0.022439485
-0 -0 -0
-0 -0 -0
-0 -0 -0
-0.26623434 -0.071274102 0.022698551
-0.26956859 -0.070383884 0.022543112
-0 -0 -0
-0 -0 -0
-0.27470535 -0.066331632 0.022335859
-0 -0 -0
-0 -0 -0
-0 -0 -0
-0.28113586 -0.0606024 0.022076793
-0 -0 -0
-0.28185838 -0.057147868 0.022076793
-0 -0 -0
-0 -0 -0
-0 -0 -0
-0 -0 -0
-0.27756846 -0.047489066 0.022387672
-0.27785462 -0.045785043 0.022387672
-0 -0 -0
-0 -0 -0
-0 -0 -0
-0 -0 -0
-0 -0 -0
-0 -0 -0
-0 -0 -0
-0 -0 -0
-0.27399859 -0.029757313 0.022698551
-0 -0 -0
-0 -0 -0
-0 -0 -0
-0.27464634 -0.02302409 0.022698551
-0 -0 -0
-0 -0 -0
-0 -0 -0
-0 -0 -0
-0 -0 -0
-0 -0 -0
-0 -0 -0
-0 -0 -0
-0 -0 -0
-0 -0 -0
-0 -0 -0
-0 -0 -0
-0 0 -0
-0 0 -0
-0 0 -0
-0 0 -0
-0 0 -0
-0 0 -0
-0 0 -0
-0 0 -0
-0 0 -0
-0 0 -0
-0 0 -0
-0 0 -0
-0 -0 -0
-0 -0 -0
-0 -0 -0
-0 -0 -0
-0 -0 -0
-0 0 -0
-0 0 -0
-0 0 -0
-0 0 -0
-0 0 -0
-0 0 -0
-0 0 -0
-0 0 -0
-0 0 -0
-0 0 -0
-0 0 -0
-0 0 -0
-0 0 -0
-0 0 -0
-0 0 -0
-0 0 -0
-0 0 -0
-0 0 -0
-0 0 -0
-0 0 -0
-0 0 -0
-0 0 -0
-0 0 -0
-0 0 -0
-0 0 -0
-0 0 -0
-0 0 -0
-0 0 -0
-0 0 -0
-0 0 -0
-0 0 -0
-0 0 -0
-0 0 -0
-0 0 -0
-0 0 -0
-0 0 -0
-0 0 -0
-0 0 -0
-0 0 -0
-0 0 -0
-0 0 -0
-0 0 -0
-0 0 -0
-0 0 -0
-0 0 -0
-0 0 -0
-0 0 -0
-0 0 -0
-0 0 -0
-0 0 -0
-0 0 -0
-0 0 -0
-0 0 -0
-0 0 -0
-0 0 -0
-0 0 -0
-0 0 -0
-0 0 -0
-0 0 -0
-0 0 -0
-0 0 -0
-0 0 -0
-0 0 -0
-0 0 -0
-0 0 -0
-0 0 -0
-0 0 -0
-0 0 -0
-0 0 -0
-0 0 -0
-0 0 -0
-0 0 -0
-0 0 -0
-0 0 -0
-0 0 -0
-0 0 -0
-0 0 -0
-0 0 -0
-0 0 -0
-0 0 -0
-0 0 -0
-0 0 -0
-0 0 -0
-0 0 -0
-0 0 -0
-0 0 -0
-0 0 -0
-0 0 -0
-0 0 -0
-0 0 -0
-0 0 -0
-0 0 -0
-0 0 -0
-0 0 -0
-0 0 -0
-0 0 -0
-0 0 -0
-0 0 -0
-0 0 -0
-0 0 -0
-0 0 -0
-0 0 -0
-0 0 -0
-0 0 -0
-0 0 -0
-0 0 -0
-0 0 -0
-0 0 -0
-0 0 -0
-0 0 -0
-0 0 -0
-0 0 -0
-0 0 -0
-0 0 -0
-0 0 -0
-0 0 -0
-0 0 -0
-0 0 -0
-0 0 -0
-0 0 -0
-0 0 -0
-0 0 -0
-0 0 -0
-0 0 -0
-0.24558285 0.23705535 0.015357205
-0 0 -0
-0 0 -0
-0.21999912 0.22037441 0.017272273
-0.23548156 0.23875272 0.01574022
-0.2507461 0.25732869 0.014208164
-0.23461252 0.2437792 0.015548712
-0.25583062 0.26905617 0.013442136
-0 0 -0
-0.23620124 0.25463426 0.014974192
-0.23665945 0.25828388 0.014782685
-0.25719655 0.28412348 0.01267611
-0.23480397 0.26265511 0.014655014
-0.22988106 0.26035422 0.014974192
-0.24929608 0.28580397 0.012931451
-0.24884205 0.28883901 0.012803781
-0.21727978 0.25542891 0.01574022
-0.23113644 0.27507746 0.014208164
-0.22944424 0.27649051 0.014208164
-0.2277434 0.27789316 0.014208164
-0.22980605 0.28393558 0.01382515
-0 0 -0
-0 0 -0
-0 0 -0
-0 0 -0
-0 0 -0
-0 0 -0
-5.3036785 7.1456528 -0.53203321
-5.317543 7.256947 -0.53828907
-5.3524666 7.3994026 -0.54697073
-5.3429222 7.4824576 -0.55092853
-5.3199086 7.5477276 -0.553482
-5.3225131 7.6506782 -0.55897182
-5.3127537 7.7374892 -0.56318498
-5.2976494 7.8178573 -0.56688744
-5.2911887 7.9124312 -0.57167512
-5.291461 8.0188799 -0.57735652
-5.2884459 8.1222811 -0.58278251
-5.2967658 8.2452555 -0.58967674
-5.3032398 8.3677921 -0.59650719
-5.2877731 8.4577141 -0.60084802
-5.3227406 8.6310015 -0.61144471
-5.3277707 8.7589893 -0.61859429
-5.3165393 8.8625441 -0.62389266
-5.3047438 8.9671459 -0.62925482
-5.3054409 9.0952091 -0.63634062
-5.3032718 9.2210188 -0.64323485
-5.2982793 9.3445377 -0.64993757
-5.2934294 9.4709511 -0.65683186
-5.2944493 9.6107655 -0.66468364
-5.2749028 9.7158632 -0.66998196
-5.2622685 9.8360395 -0.67636555
-5.2511482 9.9617195 -0.68313211
-5.2400618 10.090287 -0.69009018
-5.2330475 10.229752 -0.69781429
-5.209249 10.339204 -0.70336801
-5.2255564 10.531884 -0.71485841
-5.2234831 10.691972 -0.72398692
-5.2105551 10.83354 -0.73177487
-5.2187185 11.023151 -0.74294609
-5.1897631 11.138186 -0.74881893
-5.210753 11.364856 -0.76254362
-5.1864738 11.497588 -0.76962936
-5.1595464 11.627711 -0.77652359
-5.1795168 11.868604 -0.79114199
-5.1498876 12.00104 -0.79816389
-5.1320162 12.164817 -0.80735624
-5.1065922 12.314995 -0.81559104
-5.0768805 12.458844 -0.82337898
-5.0544968 12.625024 -0.83269894
-5.0149221 12.752387 -0.83933789
-4.9948273 12.93373 -0.84967923
-4.9341264 13.01359 -0.85306251
-4.9133596 13.202619 -0.86391455
-4.8329425 13.234392 -0.86404222
-4.7671299 13.307014 -0.8669787
-4.6843972 13.33319 -0.8667872
-4.6041236 13.366399 -0.86710638
-4.5162759 13.377378 -0.86595732
-4.434422 13.405786 -0.86602116
-4.3490062 13.423248 -0.86538279
-4.2611284 13.432559 -0.86423373
-4.1718211 13.436531 -0.86276555
-4.0861068 13.451372 -0.86206335
-4.0651703 13.68378 -0.87591565
-4.081337 14.053473 -0.89889652
-4.064508 14.323064 -0.91517454
-4.0629148 14.659325 -0.9358573
-3.9820135 14.717694 -0.93809158
-3.9265325 14.874042 -0.94683701
-3.8565917 14.980968 -0.95232689
-3.7740703 15.0421 -0.95481646
-3.6909435 15.102781 -0.95730609
-3.6051347 15.15427 -0.95922112
-3.5269337 15.240274 -0.96343428
-3.4454031 15.315178 -0.96694523
-3.3479567 15.320431 -0.96592391
-3.2495403 15.320184 -0.96458334
-3.1520576 15.323217 -0.96349812
-3.0542698 15.323674 -0.96228528
-2.9590535 15.336247 -0.96190226
-2.8661778 15.360982 -0.96234912
-2.7785985 15.4156 -0.96477485
-2.6902857 15.468738 -0.96713674
-2.5956507 15.486922 -0.96726441
-2.4934235 15.458222 -0.96439183
-2.3917992 15.429838 -0.96158308
-2.2900302 15.396843 -0.95851898
-2.1869261 15.350338 -0.95462501
-2.0852878 15.309082 -0.951114
-1.987583 15.29289 -0.9492628
-1.8891751 15.268152 -0.94690084
-1.7911457 15.242785 -0.94453895
-1.694603 15.226708 -0.94281536
-1.59603 15.188188 -0.93968743
-1.4997618 15.166908 -0.93770856
-1.4067633 15.176819 -0.93777239
-1.3136137 15.185164 -0.93777239
-1.2177768 15.160112 -0.93566579
-1.120968 15.116543 -0.93241018
-1.0261619 15.093266 -0.93049514
-0.92872661 15.021586 -0.92551595
-0.83398563 14.981167 -0.92257953
-0.7386893 14.918223 -0.9182387
-0.64406717 14.851686 -0.91370636
-0.54947227 14.762613 -0.90776962
-0.45614997 14.677929 -0.90215212
-0.36338958 14.572705 -0.89525783
-0.27261394 14.50282 -0.89066172
-0.18212728 14.38647 -0.88312912
-0.093209498 14.289518 -0.8768732
-0.0054978821 14.214974 -0.87208551
0.081175536 14.118938 -0.86595732
0.16706072 14.055307 -0.86193568
0.25279656 14.026079 -0.86014825
0.33868566 14.017281 -0.8597014
0.31917322 10.529661 -0.6366598
0.37978095 10.417802 -0.62963784
0.44369623 10.415276 -0.62963784
0.50778902 10.416344 -0.62989318
0.57218498 10.422 -0.63046771
0.63606161 10.417297 -0.63040388
0.70023656 10.417181 -0.63065922
0.76538301 10.429608 -0.63174444
0.8298381 10.430685 -0.63212746
0.89305711 10.416448 -0.63155293
0.949467 10.329283 -0.6263184
0.95535916 9.737277 -0.58865541
0.95733619 9.177372 -0.55303514
0.80749774 7.3055139 -0.43296033
0.81286466 6.9624109 -0.41119239
0.8561787 6.9622445 -0.41151157
0.90744644 7.0231729 -0.41578853
0.96632248 7.1341672 -0.42332116
0.96459115 6.806972 -0.40257457
0.97757345 6.6064429 -0.38999894
1.0171789 6.5944028 -0.38961595
1.0590454 6.5969052 -0.39019045
1.1003242 6.5952048 -0.39050964
1.1411113 6.5902958 -0.39063731
1.1831132 6.5920105 -0.39121184
1.2246324 6.5905142 -0.39159486
1.2671189 6.5936561 -0.39229703
1.3087187 6.5916305 -0.39268005
1.3525445 6.6000962 -0.39376527
1.3930165 6.5916729 -0.39376527
1.4361955 6.5956783 -0.39459512
1.478603 6.5955057 -0.39516965
1.5203898 6.592144 -0.39555266
1.5624211 6.589488 -0.39599949
1.6058939 6.5923824 -0.39682937
1.6492187 6.5940223 -0.39759541
1.6926241 6.5953789 -0.39836141
1.7335685 6.5867991 -0.39848909
1.7788892 6.5943451 -0.39970198
1.8209125 6.5890775 -0.40008497
1.8640246 6.5873833 -0.40072334
1.9080172 6.5882835 -0.40155321
1.9552085 6.5994167 -0.40308526
2.0000045 6.6016226 -0.40404278
2.0431299 6.597806 -0.40461731
2.0862839 6.593709 -0.40519184
2.1306915 6.5931287 -0.40602168
2.1773591 6.5988851 -0.40729842
2.223222 6.6014795 -0.40838361
2.2669287 6.5971518 -0.40902197
2.3103356 6.5915942 -0.4095965
2.3577895 6.5970292 -0.41093704
2.4033473 6.5965033 -0.41189456
2.449682 6.597537 -0.41297978
2.4947071 6.5945163 -0.41380963
2.5405052 6.5930538 -0.41476718
2.5874722 6.5940638 -0.4159162
2.6352873 6.5965981 -0.41719294
2.6836066 6.5997186 -0.41853347
2.7324448 6.603415 -0.41993785
2.7806544 6.6049209 -0.42121458
2.8285925 6.6051655 -0.42242745
2.877435 6.6068997 -0.42376798
2.9239805 6.6028075 -0.42472553
2.973861 6.6056724 -0.42619374
3.0247166 6.6099877 -0.42778963
3.0744746 6.6112123 -0.42919403
3.1235087 6.6102695 -0.43047073
3.171351 6.6062746 -0.43155596
3.2240722 6.6118078 -0.43334335
3.2778664 6.6187301 -0.43525842
3.3296244 6.6207829 -0.4368543
3.3819847 6.6233373 -0.43851402
3.4335825 6.6237254 -0.44004607
3.4857769 6.6246123 -0.44164196
3.5362306 6.6215863 -0.44298252
3.5882044 6.6208215 -0.44451457
3.6427057 6.6240401 -0.4463658
3.694464 6.6216092 -0.44783401
3.7502613 6.6257396 -0.44981292
3.8022733 6.62251 -0.45128116
3.8579011 6.6249275 -0.45319623
3.9131939 6.6260514 -0.45504746
3.9686453 6.6267452 -0.45689869
4.0237341 6.6261544 -0.45868608
4.0805335 6.6276851 -0.46066499
4.1369748 6.6279211 -0.46258005
4.1951723 6.6302428 -0.46468663
4.2519374 6.6295791 -0.4666017
4.3110271 6.631814 -0.46877211
4.3697548 6.6327391 -0.47087869
4.4303174 6.6356816 -0.47317678
4.4894028 6.6356506 -0.47528335
4.5475254 6.6334963 -0.47726226
4.6057897 6.630878 -0.47924116
4.6664896 6.6310582 -0.48147538
4.7430053 6.6526823 -0.48543319
4.8012638 6.6477261 -0.48734826
4.8631754 6.6471372 -0.48964635
4.9211001 6.6404247 -0.49149758
4.9827194 6.6380396 -0.49373183
5.0535536 6.6470647 -0.49692363
5.1216402 6.651515 -0.49979621
5.1893573 6.6545916 -0.50260496
5.252975 6.6516037 -0.50496691
5.3179965 6.6496439 -0.50745648
5.3750267 6.6370525 -0.50911623
5.4719672 6.6726279 -0.51479757
5.5332069 6.6634965 -0.51684034
5.5977507 6.6576834 -0.51920223
5.6688991 6.658927 -0.52220249
5.746788 6.6671062 -0.52584118
5.8230205 6.6723232 -0.52928829
5.8955679 6.6723661 -0.53235239
5.9623456 6.6650748 -0.53484195
6.0346141 6.6631322 -0.53784221
6.1192212 6.6737924 -0.54199153
6.1953588 6.6741548 -0.54531103
6.2737803 6.6760149 -0.54882199
6.3345728 6.6583624 -0.55067319
6.3780775 6.6222444 -0.55092853
6.4443669 6.6094232 -0.55329049
6.4932127 6.57828 -0.55405647
6.5165248 6.5213714 -0.55252445
6.5507393 6.4756513 -0.55201375
6.5867796 6.4318485 -0.55169457
6.6117558 6.3774548 -0.55041784
6.6413708 6.327816 -0.54958802
6.6996932 6.3054137 -0.55131155
6.7419105 6.2675843 -0.55163074
6.7728906 6.2193484 -0.55099237
6.8072286 6.1743212 -0.55067319
6.841269 6.129107 -0.550354
6.8862209 6.0936279 -0.55099237
6.959547 6.0827856 -0.55405647
7.0239339 6.0634456 -0.55635458
7.0678406 6.0260611 -0.55692911
7.0924692 5.9722948 -0.55590773
7.1458611 5.9427028 -0.55731213
7.2207489 5.9304156 -0.5605039
7.2918782 5.9142885 -0.56337649
7.3303671 5.8713069 -0.563568
7.3740816 5.8324094 -0.56420636
7.4482675 5.8171539 -0.56733429
7.5415082 5.8158336 -0.5719943
7.6238952 5.8051219 -0.5757606
7.697659 5.7870202 -0.5788247
7.7193999 5.7295675 -0.57773948
7.7423363 5.6732459 -0.57678199
7.9071794 5.7198081 -0.5870595
8.0119705 5.7210598 -0.59254938
8.0811815 5.6959405 -0.59523046
8.1315441 5.6570773 -0.59644336
8.1990089 5.629673 -0.59899676
8.293705 5.6201291 -0.60365677
8.3496008 5.5835581 -0.60531646
8.4070263 5.5476122 -0.60710388
8.5002842 5.5345869 -0.61163622
8.6071301 5.5292549 -0.61718994
8.673768 5.4971747 -0.61967951
8.7225657 5.4533734 -0.62082857
8.7524652 5.3976545 -0.62057322
8.776042 5.3381433 -0.61987102
8.8009291 5.2795734 -0.61929649
8.840888 5.2300463 -0.61987102
8.9098787 5.1973243 -0.62261593
8.9666882 5.1569862 -0.62446719
9.0268097 5.1181149 -0.62657374
9.1390572 5.107914 -0.63251048
9.2550125 5.0984535 -0.63870251
9.314187 5.056808 -0.64074528
9.3617582 5.0085073 -0.64195812
9.4099693 4.960278 -0.64323485
9.4676828 4.9167051 -0.64521372
9.6087284 4.9153352 -0.65319318
9.6654444 4.8697567 -0.65510827
9.7353706 4.8303204 -0.65798086
9.817728 4.7963419 -0.66174716
9.9027319 4.7628312 -0.66570497
9.9795742 4.7246137 -0.66908824
10.034609 4.6755152 -0.67093951
10.167429 4.6616907 -0.67828059
10.212215 4.6066036 -0.67942965
10.308702 4.5742154 -0.68421733
10.374076 4.5272431 -0.68683457
10.510791 4.5103383 -0.69443101
10.564933 4.4570107 -0.69628227
10.651079 4.4165678 -0.70036775
10.741746 4.3771176 -0.70477235
10.844371 4.3415427 -0.71000689
10.948817 4.3056026 -0.71536911
11.04392 4.2649469 -0.72009295
11.151997 4.2282395 -0.72571045
11.231042 4.179574 -0.72934908
11.321157 4.1342049 -0.73375374
11.525752 4.1289511 -0.74594635
11.736351 4.1233244 -0.75852197
11.890697 4.0957642 -0.76726747
11.990299 4.0479474 -0.77231044
12.046178 3.9846432 -0.77441704
12.86597 4.1684361 -0.82791126
12.918891 4.098165 -0.82976252
12.978104 4.0294728 -0.83206058
13.079928 3.9732621 -0.83723128
13.12989 3.9006045 -0.83895487
13.143993 3.817184 -0.8383165
13.168128 3.7367346 -0.83838034
13.195617 3.6571989 -0.83869952
13.217809 3.5761633 -0.83869952
13.237573 3.4944837 -0.83857185
13.258765 3.4131937 -0.83857185
13.276555 3.3310466 -0.83838034
13.30353 3.251179 -0.83882719
13.330025 3.1711056 -0.83927405
13.352148 3.0899296 -0.83946556
13.365988 3.0068491 -0.83914638
13.381261 2.9241409 -0.83895487
13.395046 2.8411517 -0.83869952
13.409295 2.7583044 -0.83850801
13.421073 2.674999 -0.83818883
13.436255 2.5924096 -0.83812499
13.441117 2.5079036 -0.83742279
13.447412 2.4237897 -0.83684826
13.44925 2.339009 -0.83601838
13.429885 2.2508326 -0.833848
13.398123 2.1610746 -0.83091158
13.352946 2.0698037 -0.82714528
13.331834 1.9828402 -0.82497483
13.31411 1.8967768 -0.8230598
13.302754 1.8119488 -0.82159156
13.284923 1.7265598 -0.8197403
13.275458 1.6425611 -0.81846362
13.265465 1.5587436 -0.81718689
13.268828 1.4766564 -0.81680387
13.246872 1.3919787 -0.814825
13.246225 1.3097872 -0.81425047
13.256993 1.2287617 -0.81444198
13.236444 1.1449862 -0.81265455
13.234268 1.0630279 -0.81208003
13.229594 0.98099184 -0.81137788
13.220429 0.89878231 -0.81042033
13.216731 0.81709188 -0.80984581
13.254377 0.73781157 -0.81195235
13.262642 0.65666783 -0.8122077
13.278386 0.5757966 -0.81297374
13.287653 0.49453399 -0.81335676
13.280462 0.41268292 -0.81271839
13.265784 0.33076438 -0.81163323
13.253595 0.24909788 -0.81073952
13.250882 0.16772003 -0.81048417
13.251662 0.086410984 -0.81048417
13.256932 0.0051007583 -0.81080335
13.266694 -0.076299444 -0.81144172
13.279946 -0.15786657 -0.81233537
13.294693 -0.23963511 -0.81335676
13.306939 -0.32154238 -0.81425047
13.316686 -0.40354857 -0.81501651
13.303986 -0.48488742 -0.81437814
13.282813 -0.56574613 -0.81322908
13.26414 -0.64650899 -0.81227154
13.262913 -0.72804809 -0.81246305
13.270149 -0.81014347 -0.81322908
13.265924 -0.89161921 -0.81329292
13.257218 -0.9727816 -0.81310141
13.233092 -1.0526841 -0.81195235
13.207493 -1.1322421 -0.81073952
13.189365 -1.212256 -0.81003731
13.16678 -1.2917005 -0.80907977
13.149673 -1.3715346 -0.80850524
13.150929 -1.4532895 -0.8091436
13.14573 -1.5344174 -0.80939895
13.154887 -1.6173624 -0.81061184
13.143726 -1.697921 -0.81054801
13.12416 -1.7773324 -0.80997348
13.099174 -1.8558677 -0.80907977
13.059897 -1.9321193 -0.8072924
13.023139 -2.008415 -0.80569649
12.99579 -2.0859139 -0.80473894
12.972903 -2.1639736 -0.80410057
12.961348 -2.2438734 -0.80422825
12.954211 -2.3245943 -0.8046751
12.942648 -2.4045827 -0.80486661
12.926669 -2.4837637 -0.80480278
12.879863 -2.5568163 -0.80276006
12.83558 -2.6299891 -0.8009088
12.783073 -2.7010648 -0.79854691
12.745782 -2.7749918 -0.79720634
12.728515 -2.8531461 -0.79720634
12.708824 -2.9307446 -0.79707867
12.699342 -3.010741 -0.7976532
12.692265 -3.0914397 -0.79841924
12.689515 -3.1733751 -0.79950446
12.677538 -3.253161 -0.80001509
12.665059 -3.3329194 -0.80052578
12.645334 -3.4108279 -0.80058962
12.81559 -3.5412421 -0.81329292
12.681268 -3.5880253 -0.80582416
12.630256 -3.6574421 -0.80390906
12.576 -3.7255177 -0.80180252
12.07344 -3.6573856 -0.76975703
12.023125 -3.7228384 -0.76790583
11.980074 -3.79022 -0.76656526
11.973685 -3.86918 -0.76771432
11.961092 -3.9463279 -0.7684803
10.238023 -3.4476943 -0.65383154
10.230832 -3.5153127 -0.65478909
10.201536 -3.5753813 -0.6542784
10.217937 -3.6516778 -0.6568957
10.21034 -3.7197704 -0.65791702
10.192938 -3.7844336 -0.65830004
10.177926 -3.8500826 -0.65887457
10.205329 -3.9321933 -0.66238552
12.72002 -4.9908681 -0.83684826
12.725301 -5.0832596 -0.83933789
12.747491 -5.1830444 -0.84304035
12.743113 -5.2726097 -0.84495538
12.756511 -5.370059 -0.84814715
12.593966 -5.3928447 -0.83914638
12.775659 -5.5636492 -0.85414773
12.757706 -5.6492071 -0.85529679
12.717342 -5.7249227 -0.85491377
12.675623 -5.7999406 -0.85446692
12.659705 -5.8868647 -0.85587126
12.668462 -5.9857478 -0.85906309
12.723264 -6.1074147 -0.8655743
12.713358 -6.198926 -0.86755317
12.688498 -6.2834597 -0.86851072
12.663969 -6.3683696 -0.86953211
12.630877 -6.449131 -0.86997896
8.2159033 -4.2588229 -0.55475867
8.1807852 -4.3045077 -0.5541203
8.1550989 -4.355093 -0.55418414
8.1466494 -4.4150348 -0.55552471
11.870936 -6.5277328 -0.8293795
11.838503 -6.6048245 -0.82995403
11.815124 -6.6871705 -0.83123076
11.784256 -6.7655029 -0.83199674
8.9939919 -5.237318 -0.62855268
8.9565315 -5.289361 -0.62816966
8.9153461 -5.3390908 -0.62753129
8.9080095 -5.4092321 -0.62944633
9.0454683 -5.5689454 -0.6422773
8.9349327 -5.5767889 -0.63653213
8.9587374 -5.668323 -0.64093679
8.9237881 -5.723186 -0.64093679
8.8550339 -5.7560792 -0.63838333
8.7703781 -5.7779136 -0.63461703
9.9922161 -6.6710701 -0.73132801
9.9527483 -6.7333741 -0.73145568
12.590571 -8.6309071 -0.93924057
12.422623 -8.6282997 -0.93030363
12.281302 -8.6423378 -0.92340934
7.3547831 -5.2435141 -0.54058719
7.3168073 -5.2844534 -0.54014033
7.281023 -5.3268924 -0.53988498
7.3195624 -5.4243469 -0.54556638
7.3068933 -5.4847326 -0.54722607
7.3175921 -5.5632844 -0.55080086
7.3070412 -5.6263437 -0.55271596
7.3597374 -5.7391882 -0.5598017
7.3118525 -5.7743435 -0.55878031
7.272387 -5.8159828 -0.55846113
10.795629 -8.7425375 -0.85140282
10.668471 -8.7484999 -0.8453384
10.528597 -8.7423954 -0.83818883
10.435035 -8.7734385 -0.83486938
10.269298 -8.7422104 -0.82548553
10.154233 -8.752284 -0.82031482
10.046952 -8.7678375 -0.81578249
9.9099493 -8.7559757 -0.80869675
9.800251 -8.766717 -0.80390906
9.6663857 -8.7543373 -0.79701483
8.9048471 -8.1647034 -0.735605
8.8553133 -8.2198677 -0.73566884
8.9167089 -8.3792896 -0.74549949
8.9518929 -8.5163841 -0.75315976
8.9073763 -8.5787659 -0.75386196
8.7816849 -8.5622005 -0.74735075
8.8681965 -8.7533236 -0.75986254
8.7761984 -8.7694836 -0.75641537
8.6829338 -8.7834253 -0.75284058
8.5737944 -8.7801332 -0.74779761
8.4677944 -8.7787066 -0.74300992
8.3600721 -8.7741451 -0.73803073
8.260251 -8.7765875 -0.73375374
8.1749849 -8.7934866 -0.73081732
8.0675488 -8.7854137 -0.72577429
7.3919415 -8.1495466 -0.66659868
7.3424635 -8.1954927 -0.66666251
7.2655835 -8.2104979 -0.66410911
7.3050466 -8.3578625 -0.67285454
7.3455801 -8.5090389 -0.68185538
7.258266 -8.5129433 -0.67840827
3.0538244 -3.6269045 -0.26609403
3.0251312 -3.6379015 -0.26545566
2.9178743 -3.5530579 -0.25690171
2.8582978 -3.5243921 -0.25307155
2.821645 -3.5231707 -0.2515395
2.7634461 -3.4942384 -0.2477732
2.7296679 -3.495399 -0.2464965
2.6911039 -3.4899554 -0.24470909
2.6533151 -3.4849651 -0.24298553
2.6156893 -3.4796431 -0.24126197
2.5800138 -3.4763956 -0.23972991
2.5480163 -3.4776714 -0.23858088
2.4956281 -3.4503865 -0.23519759
2.4802096 -3.4737558 -0.23583594
2.4392993 -3.4611757 -0.23366553
2.391798 -3.438395 -0.23072909
2.3463638 -3.4176311 -0.22798416
2.3051946 -3.4022233 -0.22568609
2.2687416 -3.3930764 -0.22389868
2.2561247 -3.4194274 -0.22485621
2.235101 -3.4332063 -0.22485621
2.2183084 -3.4535728 -0.22536691
2.1842539 -3.4468894 -0.22383484
2.1535397 -3.4449956 -0.22268581
2.1260746 -3.4479518 -0.22191978
2.0981359 -3.4498484 -0.22108991
2.0687139 -3.4489653 -0.22006854
2.0424311 -3.4530046 -0.21943019
2.0141652 -3.4534037 -0.2185365
1.9849765 -3.4518564 -0.21751513
1.9627744 -3.4622347 -0.21738745
1.9249384 -3.4445951 -0.21521704
1.9028034 -3.4545932 -0.21508937
1.8763325 -3.4565563 -0.21438718
1.853205 -3.4644845 -0.21413183
0 -0 -0
0 -0 -0
1.7736673 -3.4678018 -0.21196142
1.7478653 -3.4697075 -0.21132307
1.722994 -3.4732153 -0.21081239
1.6972693 -3.4747553 -0.21017402
0 -0 -0
1.6476681 -3.4808903 -0.20915265
0 -0 -0
0 -0 -0
1.5923455 -3.5306416 -0.21055704
1.5734855 -3.5467308 -0.21100388
1.556883 -3.5682092 -0.21183375
1.5416502 -3.5932851 -0.21291895
1.5253923 -3.6164691 -0.21387649
1.5066139 -3.634057 -0.21445101
0 -0 -0
0 -0 -0
1.42851 -3.6333117 -0.21253595
1.4126613 -3.6587656 -0.21368499
1.3954923 -3.6813614 -0.21464252
1.3774029 -3.7020135 -0.21547239
1.3663018 -3.7422669 -0.2176428
1.3456701 -3.7571564 -0.21808964
1.3311926 -3.7898223 -0.21974938
1.3131143 -3.8130157 -0.22077073
1.3104441 -3.8824599 -0.22492005
1.3104181 -3.9624348 -0.22977155
0 -0 -0
1.2791978 -4.0333891 -0.23347403
0 -0 -0
0 -0 -0
1.2388464 -4.1710472 -0.2411343
1.226034 -4.2226543 -0.24407074
0 -0 -0
1.2860817 -4.6412959 -0.27088168
1.2521051 -4.62887 -0.26954114
1.261127 -4.7783055 -0.27892497
1.2623889 -4.9048266 -0.28677675
1.2444141 -4.9608774 -0.28996855
2.2380147 -9.1582718 -0.56586605
2.1857054 -9.1883364 -0.56695127
2.132211 -9.2142134 -0.56778115
2.1008251 -9.3390894 -0.57512224
1.2327133 -5.6421304 -0.33222774
1.2171233 -5.7394013 -0.33810061
1.2078259 -5.8728576 -0.34633538
1.2014229 -6.0289211 -0.35603842
1.1973091 -6.2066793 -0.36714581
1.1899594 -6.3787208 -0.3778702
1.1885096 -6.5950961 -0.39146718
1.1888945 -6.8372483 -0.40672389
1.1678725 -6.9694118 -0.41483101
1.1398687 -7.0680718 -0.42076772
1.4391147 -9.2849598 -0.56382334
1.3828503 -9.2985506 -0.56414253
1.323517 -9.2910528 -0.56312114
1.2641931 -9.2821884 -0.56203592
1.2072148 -9.2897711 -0.56203592
1.1505588 -9.2999744 -0.56222743
1.0933571 -9.3058681 -0.56216359
1.036568 -9.3153772 -0.5623551
0.97980773 -9.325532 -0.56261045
0.92139012 -9.3194513 -0.56184441
0.86363691 -9.3189669 -0.56146145
0.80721486 -9.3330393 -0.56203592
0.75057268 -9.3457747 -0.56254661
0.69210654 -9.3352757 -0.56158912
0.6338653 -9.325407 -0.56069541
0.57663369 -9.3291206 -0.56069541
0.52004641 -9.3444405 -0.56146145
0.46230516 -9.3394814 -0.56095076
0.40403867 -9.3202076 -0.55954635
0.18288293 -4.9205666 -0.27777594
0.1498331 -4.8298283 -0.27190307
0.11989614 -4.8186851 -0.27113703
0.089932553 -4.7983766 -0.26979649
0.060298678 -4.7838697 -0.26883897
0.030885438 -4.7751679 -0.26826444
0.0015791836 -4.7612963 -0.26737073
-0.027584223 -4.7522349 -0.26679623
-0.056612708 -4.7409992 -0.26609403
-0.085468441 -4.7275915 -0.26526415
-0.11423402 -4.7170014 -0.26462582
-0.14308424 -4.7132192 -0.26443431
-0.17167445 -4.7032766 -0.26385978
-0.20031779 -4.6971493 -0.2635406
-0.22937796 -4.7008157 -0.26385978
-0.25870934 -4.7082882 -0.26443431
-0.28741163 -4.7036238 -0.2642428
-0.31633401 -4.7027674 -0.26430663
-0.34416166 -4.6868038 -0.26341292
-0.37291285 -4.6846037 -0.26341292
-0.40369508 -4.7060909 -0.26494497
-0.43356791 -4.714457 -0.26564717
-0.46053901 -4.691844 -0.26437047
-0.48952594 -4.6909151 -0.26449814
-0.51972425 -4.7007179 -0.26532799
-0.54832619 -4.6954579 -0.26520032
-0.57615268 -4.6840811 -0.26468965
-0.60846192 -4.7081704 -0.26647705
-0.63707149 -4.7023706 -0.26634938
-0.66633254 -4.7013373 -0.26654088
-0.69604301 -4.7030835 -0.26692387
-0.727929 -4.7184505 -0.26820061
-0.76082033 -4.7385287 -0.26979649
-0.79086608 -4.7396774 -0.27017951
-0.82299703 -4.7524357 -0.27132854
-0.8553142 -4.7649775 -0.2724776
-0.88854516 -4.7812257 -0.27388197
-0.93160969 -4.8472261 -0.27854198
-0.96677417 -4.8688269 -0.28032938
-1.845256 -9.0051279 -0.55080086
-1.8903677 -8.9457922 -0.54767293
-1.9394912 -8.9076958 -0.54594934
-1.9925835 -8.8888111 -0.54550254
-2.0473111 -8.8773899 -0.54556638
-2.1056561 -8.8811684 -0.54665154
-2.1622357 -8.8768082 -0.54722607
-2.2193248 -8.8740234 -0.54792827
-2.2762134 -8.8699055 -0.54856664
-2.3374517 -8.8818293 -0.55029017
-2.3921654 -8.8682833 -0.550354
-2.4494586 -8.8640194 -0.55105621
-2.5065179 -8.8584261 -0.55169457
-2.5716496 -8.8802643 -0.55418414
-2.6351593 -8.8949375 -0.55622691
-2.6954739 -8.8977032 -0.55750364
-2.758873 -8.9095964 -0.55941868
-2.8249271 -8.9286566 -0.56184441
-2.890398 -8.9443922 -0.56407869
-2.951791 -8.9463911 -0.56541926
-3.0050373 -8.9233818 -0.56510007
-3.0568151 -8.8962803 -0.56452554
-3.1070538 -8.8651133 -0.56369567
-3.1677709 -8.8637381 -0.56490856
-3.1985297 -8.7794333 -0.5605039
-3.2367096 -8.7175417 -0.55763131
-3.2696614 -8.6433792 -0.55392879
-3.3107951 -8.5924234 -0.55182225
-3.3499689 -8.5375729 -0.54946035
-3.3841529 -8.471446 -0.54633236
-3.4191556 -8.4089203 -0.54345977
-3.439784 -8.3130875 -0.53828907
-3.4891789 -8.288146 -0.53803372
-3.5203278 -8.2207108 -0.53484195
-3.5563595 -8.1660166 -0.5325439
-3.5833681 -8.0920277 -0.52890527
-3.6083748 -8.0152874 -0.52507514
-3.6342363 -7.9421768 -0.52150035
-3.6652279 -7.8817215 -0.51881921
-3.6892207 -7.8076515 -0.51518059
-3.7059658 -7.7200899 -0.51058441
-3.7252753 -7.6397958 -0.50649893
-3.7406399 -7.5532975 -0.50196666
-3.7797425 -7.5159378 -0.50094527
-3.8117208 -7.4650507 -0.49896637
-3.8395438 -7.4069672 -0.49647677
-3.8496056 -7.3161464 -0.49162525
-3.8742111 -7.2545342 -0.48888034
-3.902961 -7.2016716 -0.48677376
-3.923996 -7.1356125 -0.48370963
-3.9443679 -7.0695682 -0.48064554
-3.9537561 -6.9853053 -0.47624087
-3.9831276 -6.9375458 -0.47451732
-4.0060368 -6.8793411 -0.47202772
-4.0385308 -6.838304 -0.47081485
-4.068109 -6.7928467 -0.46928281
-4.0900307 -6.735342 -0.46685705
-4.0998907 -6.6591291 -0.46302691
-4.1036873 -6.574585 -0.45855841
-4.1274109 -6.5231371 -0.45657951
-4.146348 -6.4649267 -0.45408991
-4.1592884 -6.3983631 -0.45096198
-4.1902351 -6.3602209 -0.45000443
-4.2042475 -6.2970405 -0.44713184
-4.2209988 -6.2388883 -0.44464225
-4.2388878 -6.183238 -0.44234416
-4.2568226 -6.1284242 -0.44010991
-4.28688 -6.0915794 -0.43928006
-4.3207011 -6.0602851 -0.43889704
-4.3478723 -6.019906 -0.43781182
-4.3340549 -5.9238462 -0.43232197
-4.3530908 -5.873889 -0.43047073
-4.3567014 -5.803968 -0.42702362
-4.3704896 -5.7485256 -0.42472553
-4.3971562 -5.7105303 -0.42383182
-4.4173851 -5.6645546 -0.42229977
-4.434742 -5.6154132 -0.42051238
-4.4603882 -5.5771847 -0.4196187
-4.4750562 -5.5256691 -0.41763979
