# .PCD v0.7 - Point Cloud Data file format
VERSION 0.7
FIELDS x y z
SIZE 4 4 4
TYPE F F F
COUNT 1 1 1
WIDTH 1593
HEIGHT 1
VIEWPOINT 0 0 0 1 0 0 0
POINTS 1593
DATA ascii
-1.5276631 9.1405716 -0.90356213
-1.4677603 9.1261988 -0.90113676
-1.4112799 9.1320829 -0.90083361
-1.3521584 9.1199036 -0.89871138
-1.2896063 9.0817327 -0.89396179
-1.2275738 9.0431395 -0.88921213
-1.1677231 9.0169554 -0.88577622
-1.1093343 8.9992647 -0.88324982
-1.0493582 8.9653883 -0.87910646
-0.99389005 8.9677029 -0.87870228
-0.93667531 8.9528532 -0.87658006
-0.87851238 8.9257584 -0.87324524
-0.82035238 8.8943253 -0.86950612
-0.7632075 8.8694544 -0.86647445
-0.70734775 8.8561192 -0.86465544
-0.65197241 8.8464022 -0.86324066
-0.59701061 8.8403091 -0.86223006
-0.54196566 8.8308973 -0.86091638
-0.48809841 8.8400164 -0.86152267
-0.43336171 8.8329077 -0.86051214
-0.37843293 8.8185034 -0.85879415
-0.32377014 8.8057461 -0.85727835
-0.26924783 8.7916565 -0.85566145
-0.21432938 8.7533598 -0.85161918
-0.15954682 8.6958218 -0.84565687
-0.10581484 8.6657982 -0.84252411
-0.052551877 8.6513605 -0.84100825
0.00053071673 8.6405773 -0.83989662
0.05347269 8.6284723 -0.83868396
0.10604288 8.5981379 -0.83565229
0.15796521 8.5525637 -0.83110476
0.21004601 8.5355206 -0.82948786
0.26269144 8.5430202 -0.83039737
0.31470051 8.5303116 -0.82928574
0.36587694 8.5013828 -0.82655722
0.41626915 8.4632063 -0.82291919
0.46642712 8.4287052 -0.8196854
0.51691186 8.4058247 -0.81766427
0.56672966 8.376687 -0.81503677
0.61591589 8.3432865 -0.8120051
0.66503155 8.3135662 -0.80937767
0.71551681 8.3033819 -0.80877131
0.7652607 8.2859573 -0.80745757
0.81198418 8.239522 -0.80321324
0.85878944 8.1987648 -0.79957521
0.90776175 8.1814756 -0.79836249
0.81258506 6.9366684 -0.67163789
0.857328 6.9493246 -0.67345691
0.95923185 7.4007325 -0.72024602
0.97257745 7.1591005 -0.69609356
0.96491814 6.7905321 -0.65890479
0.98142421 6.615221 -0.64152312
1.0203217 6.5982599 -0.6404115
1.0603139 6.5889282 -0.64010835
1.1012156 6.5852418 -0.6404115
1.1295114 6.5087667 -0.63323653
1.1570868 6.4331741 -0.62616259
1.1894288 6.3878098 -0.62222141
1.2150441 6.3100548 -0.61494535
1.238585 6.2263737 -0.60706294
1.2613455 6.1436191 -0.59928161
1.2957184 6.1201916 -0.59766471
1.3317614 6.1053224 -0.59695733
1.3626527 6.0679159 -0.5939256
1.3857393 5.998374 -0.58755904
1.4082546 5.9297476 -0.58129358
1.4344643 5.8794365 -0.57694817
1.4501911 5.7894626 -0.56845945
1.4814739 5.7640758 -0.56674147
1.5130075 5.7404475 -0.5652256
1.5437877 5.7147288 -0.56350768
1.5772303 5.6993961 -0.56290132
1.6029434 5.6570683 -0.55946541
1.6318015 5.6270614 -0.55734324
1.6640327 5.609313 -0.55653477
1.7001534 5.6047091 -0.55714113
1.7395232 5.6103249 -0.55885911
1.7691044 5.584372 -0.55724216
1.7898519 5.5317655 -0.55279571
1.8072107 5.4706149 -0.54743969
1.8191162 5.3953214 -0.54056787
1.8544538 5.3906431 -0.54127526
1.8944168 5.3988757 -0.54339749
1.928514 5.3899598 -0.54370064
1.9615499 5.3780255 -0.54370064
1.9934715 5.363091 -0.54339749
2.0305717 5.3619223 -0.54461014
2.0634336 5.3493619 -0.54461014
2.0965817 5.3375258 -0.54471117
2.1178353 5.295927 -0.54157847
2.1585462 5.3031034 -0.54380167
2.162096 5.2199092 -0.53612143
2.1971765 5.2138782 -0.53692985
2.2314796 5.2057843 -0.5375362
2.2685506 5.2038493 -0.53884995
2.3085051 5.2080207 -0.54087108
2.341644 5.1964788 -0.54117423
2.3763864 5.188344 -0.54188162
2.4056566 5.1682539 -0.54127526
2.4317911 5.141705 -0.53996158
2.4598458 5.119514 -0.5391531
2.4929585 5.1079001 -0.53955734
2.5286732 5.1014204 -0.54056787
2.5617173 5.0893631 -0.54097211
2.5987849 5.0850644 -0.54228586
2.642313 5.0928636 -0.54501438
2.6915991 5.1108818 -0.54895556
2.7247849 5.0977798 -0.5493598
2.7636056 5.0949554 -0.55097669
2.792896 5.0744162 -0.55057245
2.8273759 5.0632634 -0.55127984
2.8539755 5.0380301 -0.55037034
2.8793802 5.0109358 -0.54925871
2.9110749 4.9948931 -0.54946083
2.9345787 4.9649477 -0.54804605
2.9665227 4.9494081 -0.5483492
2.9963188 4.9302621 -0.54824817
3.0207713 4.9024687 -0.54713655
3.0613406 4.9007149 -0.54915768
3.0977421 4.8919234 -0.55037034
3.1325383 4.8803582 -0.55127984
3.1645954 4.8643808 -0.55168408
3.1949308 4.8457022 -0.55178517
3.2185216 4.8169093 -0.55067354
3.2563863 4.8094254 -0.55218935
3.2970951 4.805759 -0.55421048
3.3407211 4.8058577 -0.55673689
3.389056 4.8121076 -0.56007177
3.4347026 4.8138952 -0.56290132
3.4705882 4.8015976 -0.56401294
3.5017486 4.78262 -0.56431609
3.5333993 4.7642398 -0.56472033
3.567945 4.7496276 -0.56562984
3.601239 4.7331872 -0.56633723
3.626569 4.7062736 -0.56573093
3.6688471 4.7011847 -0.56795412
3.7118158 4.6965346 -0.57027847
3.7542431 4.6907563 -0.57250166
3.7967389 4.6846337 -0.57472491
3.8418255 4.6812415 -0.5773524
3.8749287 4.6629357 -0.57805979
3.9220469 4.6611443 -0.58099043
3.966707 4.655921 -0.58351684
4.0030003 4.6405325 -0.58472949
4.0405626 4.6263719 -0.58614427
4.0873303 4.6223574 -0.58897388
4.1262355 4.6090484 -0.59059078
4.1624575 4.5924878 -0.59180343
4.1932492 4.5697927 -0.59220767
4.2320461 4.5556378 -0.59382457
4.2715087 4.541903 -0.59554249
4.3205676 4.5379405 -0.59867525
4.3669758 4.5306816 -0.60140377
4.4113717 4.5208874 -0.60382915
4.4621053 4.517087 -0.60716397
4.499588 4.4994698 -0.6085788
4.5271115 4.4717765 -0.6085788
4.5566015 4.4459982 -0.60888195
4.5931096 4.4269295 -0.6101957
4.6468511 4.4240403 -0.61393476
4.6942053 4.4145246 -0.61676437
4.7620301 4.4235492 -0.62242347
4.7927489 4.3976088 -0.6229288
4.8616672 4.4061933 -0.62868899
4.8871288 4.3749528 -0.62848687
4.950407 4.3771687 -0.63343865
4.9891629 4.3571796 -0.63505554
5.0579982 4.3628669 -0.6407147
5.1210299 4.3627114 -0.64556539
5.1720662 4.3516998 -0.64879918
5.2063236 4.3262396 -0.64980978
5.2458467 4.3049397 -0.6515277
5.2907157 4.2877011 -0.65395308
5.3386769 4.2725592 -0.65678263
5.381186 4.2526727 -0.65890479
5.4801307 4.2764835 -0.66830307
5.5212431 4.2543125 -0.67022312
5.5694156 4.2372179 -0.67305273
5.6080389 4.212523 -0.67466962
5.6529622 4.1922536 -0.67709494
5.6833959 4.1610141 -0.67770129
5.7096267 4.1266456 -0.67780232
5.8117881 4.1464143 -0.68740267
5.8818636 4.1421742 -0.6929608
5.9186072 4.1139536 -0.69437557
5.9535842 4.0843124 -0.69558823
6.0905857 4.1235423 -0.70933193
6.1132903 4.0844359 -0.70902872
6.2022009 4.0890045 -0.71681005
6.2121611 4.0411091 -0.71499103
6.2577734 4.0163469 -0.7175175
6.3318968 4.0092678 -0.72347981
6.3099647 3.9413595 -0.71792167
6.3374181 3.904655 -0.71832591
6.3842149 3.8796422 -0.72105443
6.469347 3.8772101 -0.72833049
6.5452657 3.8683114 -0.73449492
6.6264744 3.8616307 -0.74126571
6.7337265 3.868963 -0.75106817
6.8369865 3.8726716 -0.76036537
6.941411 3.875742 -0.76976359
7.0435123 3.8762362 -0.77885866
7.158123 3.8822606 -0.78936851
7.2177868 3.8574874 -0.79351181
7.2492433 3.8172979 -0.79442132
7.2910762 3.7823637 -0.79654348
7.3540163 3.7579215 -0.80109102
7.379602 3.7140687 -0.80139422
7.380857 3.6581182 -0.79896885
7.397799 3.6101441 -0.79836249
7.409946 3.5599465 -0.79725087
7.4127617 3.5054839 -0.7951287
7.4296212 3.4578357 -0.79462343
7.4579349 3.4154963 -0.79543185
7.4642377 3.3631339 -0.79381496
7.4738178 3.3124352 -0.7926023
7.4885297 3.2641299 -0.79199594
7.5047588 3.2165525 -0.79159176
7.5170188 3.1673541 -0.79078329
7.5335546 3.1200294 -0.79048014
7.5580859 3.075995 -0.79108644
7.5851321 3.0328846 -0.79199594
7.6063771 2.9873767 -0.79229915
7.6199226 2.9388592 -0.79179382
7.6312981 2.8895838 -0.79108644
7.6479521 2.8423581 -0.79098541
7.6577706 2.7926519 -0.79017693
7.6728883 2.7449422 -0.78997481
7.6886477 2.6974814 -0.78987378
7.708818 2.6515477 -0.79027802
7.7268281 2.6048329 -0.79048014
7.7369971 2.5555015 -0.78987378
7.7459054 2.5058374 -0.78916639
7.7592382 2.4576619 -0.78896427
7.7741718 2.4100058 -0.78896427
7.7916694 2.3631248 -0.78926742
7.8069763 2.3155541 -0.78936851
7.8277264 2.2695463 -0.7900759
7.8453336 2.2225578 -0.79048014
7.8530703 2.172787 -0.78987378
7.8556886 2.1217084 -0.78876215
7.8579764 2.0706799 -0.78765053
7.865716 2.0211878 -0.78714526
7.8760395 1.9724036 -0.78694314
7.8725286 1.9202701 -0.78532624
7.8870668 1.8726181 -0.78562939
7.9071331 1.8262023 -0.7865389
7.9220724 1.7785219 -0.78694314
7.9289479 1.7290322 -0.7865389
7.9394078 1.6803485 -0.7865389
7.9554162 1.6328008 -0.78714526
7.9643097 1.5837626 -0.78704423
7.9650846 1.5331737 -0.78613472
7.9714079 1.4837261 -0.78583151
7.986237 1.435842 -0.78643787
7.9841137 1.3849436 -0.78532624
7.9865737 1.3349446 -0.78471988
7.9946141 1.2859148 -0.78471988
7.9905553 1.2350147 -0.78350723
8.0078239 1.1874202 -0.78451777
8.0041237 1.1367255 -0.7834062
7.9991179 1.0859874 -0.78219348
8.0006971 1.036247 -0.78168821
8.019742 0.9887169 -0.78300196
8.0315866 0.94018322 -0.78360832
8.0322599 0.89033735 -0.78310299
8.0563717 0.84300005 -0.78502309
8.0574322 0.79316193 -0.78461885
8.0492687 0.74252135 -0.78330511
8.0497084 0.69277734 -0.78290087
8.0280228 0.64131612 -0.78027344
8.0278378 0.59175307 -0.7798692
8.0124569 0.54121286 -0.77794915
8.0136414 0.49191755 -0.77774704
8.0234623 0.44312051 -0.77845442
8.0131121 0.39324906 -0.77714068
8.0362482 0.34496713 -0.77926284
8.0769873 0.29707167 -0.78320408
8.0687141 0.24720336 -0.78219348
8.0452147 0.19708452 -0.77966708
8.0333405 0.14748077 -0.77835333
8.0241461 0.098066203 -0.7773428
8.0345459 0.048888214 -0.77835333
8.0436487 -0.00041351013 -0.77926284
8.0554333 -0.049844 -0.78047556
8.0529861 -0.099245459 -0.78027344
8.0452623 -0.14852622 -0.77956605
8.0412159 -0.1978144 -0.77926284
8.0368671 -0.24705851 -0.77895969
8.0381832 -0.29647759 -0.77926284
8.050128 -0.34639415 -0.78067768
8.0508318 -0.39592934 -0.78098083
8.041297 -0.44493511 -0.78027344
8.0334511 -0.49396119 -0.77976817
8.0441656 -0.54418635 -0.78118294
8.0307531 -0.59280032 -0.78017235
8.005147 -0.64031661 -0.77794915
7.9961114 -0.68899548 -0.77744383
7.9966865 -0.73850387 -0.77794915
7.9939847 -0.78775215 -0.77815127
7.9959269 -0.83751392 -0.77885866
7.9817386 -0.8855716 -0.77794915
7.9781303 -0.93476176 -0.77815127
7.9752069 -0.98406303 -0.77845442
7.9749384 -1.0337477 -0.77906078
7.9674592 -1.0825274 -0.77895969
8.0030203 -1.1374201 -0.78330511
7.9919543 -1.1859196 -0.78290087
8.0120564 -1.2391968 -0.78573048
7.9934974 -1.2865939 -0.78461885
7.9697528 -1.3329887 -0.78300196
7.9535823 -1.3805028 -0.78219348
7.9400659 -1.4283977 -0.78168821
7.9243059 -1.4758141 -0.78098083
7.9131474 -1.5240324 -0.78077871
7.9036474 -1.5725578 -0.78077871
7.9055438 -1.6234273 -0.78199136
7.8895941 -1.6706667 -0.78138506
7.8558669 -1.7139518 -0.77895969
7.8393784 -1.7608132 -0.77835333
7.8400583 -1.8115711 -0.77956605
7.8404102 -1.8624035 -0.78077871
7.8269019 -1.9100043 -0.78057659
7.8131051 -1.9575094 -0.78037447
7.8067279 -2.0069001 -0.78098083
7.8038869 -2.0573008 -0.78199136
7.7997603 -2.1074827 -0.78290087
7.7828469 -2.1542394 -0.78249669
7.7608681 -2.1995108 -0.78158718
7.738627 -2.2445936 -0.78067768
7.6980038 -2.2841067 -0.77784806
7.6952677 -2.3347657 -0.77906078
7.6845975 -2.3831182 -0.77946496
7.65276 -2.4248135 -0.77764595
7.6282725 -2.4686599 -0.77663541
7.6177044 -2.5169809 -0.77714068
7.608716 -2.565901 -0.77784806
7.5947099 -2.6131866 -0.77805018
7.5729008 -2.6577601 -0.77744383
7.5489569 -2.7014937 -0.77663541
7.5285006 -2.7463982 -0.77623117
7.5143046 -2.793581 -0.77653432
7.5007434 -2.8410454 -0.77693856
7.4803853 -2.8859408 -0.77663541
7.4588332 -2.9303296 -0.77623117
7.4407125 -2.9760411 -0.77623117
7.4278402 -3.0238919 -0.77683753
7.4137416 -3.0713158 -0.7773428
7.4011736 -3.1194537 -0.77805018
7.3764076 -3.1624548 -0.77744383
7.3559527 -3.2072582 -0.7773428
7.3279495 -3.248703 -0.77643329
7.3242035 -3.3009658 -0.7782523
7.3200908 -3.3533049 -0.78007132
7.3165131 -3.4061372 -0.78199136
7.2999721 -3.453094 -0.78249669
7.2867169 -3.5017004 -0.7834062
7.2793975 -3.5533297 -0.78502309
7.2948918 -3.6164932 -0.78926742
7.2459073 -3.6477613 -0.78623575
7.2047868 -3.682641 -0.78411359
7.1758738 -3.7235711 -0.7834062
7.1300068 -3.7554734 -0.78077871
7.1498179 -3.8221402 -0.78573048
7.1332264 -3.869735 -0.7865389
7.1232915 -3.921109 -0.78815579
7.1060462 -3.9686246 -0.78896427
7.0789652 -4.0106802 -0.78866112
7.0593977 -4.0570154 -0.78926742
7.0429659 -4.1052661 -0.79027802
7.0193567 -4.1494164 -0.79048014
7.0014434 -4.1970129 -0.79138964
6.9891605 -4.2481637 -0.79300654
6.9765129 -4.2993217 -0.79462343
6.9559073 -4.3457389 -0.79533082
6.9366751 -4.3931293 -0.79624033
6.9121003 -4.437222 -0.79654348
6.8847437 -4.4795504 -0.79654348
6.8521452 -4.5184231 -0.79593718
6.825119 -4.560935 -0.79603821
6.8126554 -4.6133285 -0.79795825
6.7948837 -4.6623621 -0.799272
6.7465448 -4.6903343 -0.79684669
6.7029996 -4.7213278 -0.79502767
6.656899 -4.7502298 -0.79290545
6.6639056 -4.8172193 -0.79745299
6.6294065 -4.8544903 -0.79684669
6.6266603 -4.9152317 -0.8002826
6.6067157 -4.9635696 -0.80159628
6.6014681 -5.0232964 -0.80483013
6.5910077 -5.0795007 -0.80745757
6.5691266 -5.1271935 -0.80867022
6.5656381 -5.1896176 -0.81230825
6.5391078 -5.2341585 -0.8130157
6.5084143 -5.2754364 -0.81321776
6.4982214 -5.3335795 -0.8161484
6.4615474 -5.3701715 -0.81564313
6.4261918 -5.4077954 -0.81533998
6.3898602 -5.4445429 -0.81493574
6.3563328 -5.4836478 -0.81493574
6.3285599 -5.5277829 -0.81574416
6.3034649 -5.57442 -0.81695688
6.2728481 -5.6163111 -0.81746215
6.2412171 -5.6573682 -0.81786638
6.2100511 -5.6989207 -0.81837165
6.1735086 -5.7355633 -0.81816953
6.1403737 -5.7753801 -0.81847268
6.1041002 -5.8122621 -0.81837165
6.0647411 -5.8461537 -0.81786638
6.0323153 -5.8867311 -0.81837165
5.9989123 -5.9264312 -0.81877589
5.9617319 -5.9624248 -0.8186748
5.925734 -5.9996009 -0.81877589
5.8943667 -6.0415449 -0.81958431
5.8633981 -6.0840464 -0.82049382
5.8252711 -6.1191883 -0.82039279
5.7760305 -6.1424937 -0.8186748
5.7280774 -6.1668835 -0.817159
5.6800427 -6.1909165 -0.81564313
5.6319294 -6.2145929 -0.81412727
5.591701 -6.2468085 -0.81382412
5.554584 -6.2824917 -0.81402624
5.518548 -6.3194537 -0.81443048
5.4790192 -6.3524427 -0.81432939
5.4418731 -6.3882136 -0.81463259
2.9665446 -3.5252104 -0.43021441
2.9264231 -3.521153 -0.42728379
2.8915117 -3.5228901 -0.4251616
2.8491745 -3.5150557 -0.42182675
2.8026927 -3.5013971 -0.41778448
2.764504 -3.4974504 -0.41505596
2.7215745 -3.4868922 -0.41151899
2.6855576 -3.4846096 -0.40909365
2.6490695 -3.4812253 -0.40656725
2.6031666 -3.4647963 -0.40242395
2.571193 -3.4663179 -0.40060493
2.5392992 -3.4675782 -0.39878592
2.5144789 -3.4782553 -0.39817956
2.4861572 -3.4838984 -0.3969669
2.4464073 -3.4730554 -0.39373308
2.4142647 -3.4724777 -0.39181301
2.3405838 -3.4109213 -0.38241479
2.2883835 -3.3790796 -0.37675563
2.2703695 -3.3971937 -0.37726092
2.2500296 -3.4118912 -0.37736198
2.2285099 -3.424799 -0.37726092
2.2122889 -3.4459443 -0.37817043
2.1996167 -3.472904 -0.37978733
2.1682544 -3.4703014 -0.37786725
2.1343985 -3.4632099 -0.37544191
2.1079433 -3.4677384 -0.37443134
2.0799789 -3.4695125 -0.3731176
2.0530846 -3.4727874 -0.372006
2.0262287 -3.4758635 -0.37089437
1.9870248 -3.4571733 -0.36725634
1.9628333 -3.4641061 -0.36665002
1.9362073 -3.4665287 -0.36553839
1.9072279 -3.464397 -0.36392149
1.8821414 -3.4690373 -0.36311305
1.8547257 -3.4691131 -0.3617993
1.8264534 -3.4672229 -0.36028346
1.7996485 -3.4677663 -0.35907078
1.7760739 -3.4743135 -0.35856551
1.7448856 -3.4655936 -0.35634226
1.7182882 -3.4655373 -0.3551296
1.6956831 -3.4733326 -0.35482642
1.6739085 -3.482775 -0.35472536
1.6516566 -3.4911816 -0.35452324
1.6255878 -3.4913278 -0.35341164
1.6037207 -3.5003319 -0.35331059
1.5871156 -3.5209916 -0.35452324
1.5622574 -3.523387 -0.35371479
1.5362376 -3.5228736 -0.35260317
1.5169435 -3.5377204 -0.35320953
1.5002282 -3.558881 -0.35452324
1.4810269 -3.5744538 -0.35523063
0 -0 -0
0 -0 -0
1.4273429 -3.6325955 -0.35866657
1.4103949 -3.6552095 -0.3601824
1.3946316 -3.6814735 -0.36210248
1.385528 -3.7263331 -0.36604366
0 -0 -0
1.3484052 -3.7674117 -0.36867112
0 -0 -0
0 -0 -0
0 -0 -0
1.2848599 -3.8881731 -0.37817043
1.2802619 -3.955621 -0.38453698
1.275184 -4.0241051 -0.39100456
1.2855079 -4.1449404 -0.40303028
1.2741928 -4.1994028 -0.40798202
1.2574502 -4.2376657 -0.41121584
1.2812679 -4.4173036 -0.42940596
1.2641681 -4.4605002 -0.43314505
1.2386314 -4.4748855 -0.43385243
1.2601527 -4.6639366 -0.45295209
1.245447 -4.7244949 -0.45851019
1.2446456 -4.8418999 -0.47003061
1.2504202 -4.9913173 -0.48488587
1.2786757 -5.24054 -0.51014996
1.2425916 -5.2318311 -0.50843197
1.2386577 -5.3615007 -0.52116507
1.2216353 -5.4398646 -0.52854222
1.2460632 -5.7126327 -0.55613059
1.2196338 -5.7610517 -0.56037492
1.6657817 -8.1162243 -0.80381954
1.6275841 -8.1848412 -0.80988294
1.3151993 -6.8317947 -0.66890937
1.2718002 -6.8319116 -0.66810095
1.2321432 -6.8523159 -0.6694147
1.191434 -6.8675895 -0.67022312
1.1520588 -6.8914528 -0.6719411
1.1196966 -6.9602752 -0.67830765
1.2813205 -8.2904396 -0.81432939
1.229115 -8.2892885 -0.81341988
1.1785092 -8.2986441 -0.813622
1.1256958 -8.2919168 -0.81220722
1.0747963 -8.2986679 -0.81220722
1.0238564 -8.3051071 -0.81220722
0.97172266 -8.3013515 -0.81119668
0.91901684 -8.2913361 -0.80957973
0.86688411 -8.2849445 -0.80836707
0.8154484 -8.2841673 -0.80776072
0.76368994 -8.279108 -0.80675018
0.71321654 -8.2876034 -0.80715442
0.66227227 -8.2908316 -0.80705333
0.61058527 -8.2838249 -0.8059417
0.56094944 -8.3052826 -0.80776072
0.50991786 -8.3075752 -0.80765969
0.45898864 -8.3115416 -0.80776072
0.40749511 -8.3042641 -0.80675018
0.35564047 -8.2857342 -0.80462801
0.20178756 -5.4761243 -0.51884079
0.15044422 -4.8955245 -0.45972285
0.11979751 -4.871491 -0.45719644
0.089777522 -4.8651714 -0.45648906
0.058938608 -4.7840562 -0.44820243
0.029311258 -4.738564 -0.44355384
0.0002430423 -4.6998544 -0.43961266
-0.028361633 -4.6629577 -0.43587357
-0.05697247 -4.6626959 -0.43587357
-0.085562654 -4.6612639 -0.43577251
-0.11423586 -4.6636348 -0.43607569
-0.14346349 -4.682734 -0.43809682
-0.17223032 -4.6827598 -0.43819785
-0.20053081 -4.6716752 -0.43718731
-0.22992708 -4.6852622 -0.43870315
-0.25701773 -4.6539626 -0.43567145
-0.28434506 -4.6324382 -0.43365034
-0.31256193 -4.6276283 -0.43334717
-0.34161106 -4.634553 -0.43425667
-0.37004173 -4.6323695 -0.43425667
-0.39965618 -4.6438885 -0.43567145
-0.42777649 -4.6373863 -0.43526724
-0.45622289 -4.6346741 -0.43526724
-0.48496348 -4.6347561 -0.43557039
-0.51130551 -4.612906 -0.43365034
-0 -0 -0
-0.57116783 -4.6329432 -0.43637884
-0.59920019 -4.6263914 -0.43607569
-0.63012356 -4.6413579 -0.43799576
-0.66041225 -4.650209 -0.43930948
-0 -0 -0
-0.72123295 -4.6663337 -0.44183588
-0.75364912 -4.6853933 -0.44426125
-0.78632629 -4.7042303 -0.4466866
-0.81824112 -4.7169609 -0.44850561
-0.8570407 -4.7666831 -0.45416477
-0.88791299 -4.7701368 -0.45507425
-0.9256385 -4.8085594 -0.45962179
-0.95920575 -4.8232794 -0.46174398
-1.6436541 -8.0039701 -0.79219806
-1.6962408 -8.0102797 -0.79391605
-1.7508764 -8.024992 -0.79654348
-1.8013929 -8.0199223 -0.79714984
-1.84631 -7.9903011 -0.79522973
-1.8881708 -7.9488163 -0.79209703
-1.9333683 -7.9225841 -0.79058117
-1.9824278 -7.9125018 -0.79078329
-2.0299494 -7.8963351 -0.79037905
-2.0768397 -7.8779588 -0.78977275
-2.1191669 -7.842978 -0.78744841
-1.7609811 -6.3628788 -0.63283229
-1.7299651 -6.105011 -0.60675979
-1.7740469 -6.1172123 -0.6091851
-1.8132468 -6.1119342 -0.60979146
-1.8536047 -6.1102128 -0.61080199
-2.3666081 -7.6313868 -0.7738058
-2.3944483 -7.5569749 -0.76743931
-2.4272878 -7.5004945 -0.7629928
-2.4526548 -7.4231157 -0.7563231
-2.4816175 -7.3589077 -0.75106817
-2.5069706 -7.2861595 -0.74490374
-2.5381169 -7.2321529 -0.74076045
-2.5844569 -7.2220635 -0.74136674
-2.5929077 -7.1079383 -0.73075587
-2.6250272 -7.0611229 -0.72742099
-2.6482098 -6.9918547 -0.72166079
-2.6806722 -6.9485579 -0.71873015
-2.6814063 -6.8254967 -0.70710868
-2.7265625 -6.8172283 -0.70801818
-2.7462008 -6.7460079 -0.70205587
-2.7734482 -6.695025 -0.69831675
-2.8071318 -6.6604633 -0.69639671
-2.8518684 -6.652257 -0.69740725
-2.8679712 -6.578095 -0.69114178
-2.8631048 -6.4585152 -0.67982346
-2.8965459 -6.4272213 -0.67830765
-2.9239082 -6.3830991 -0.67537701
-2.9525187 -6.3424911 -0.67285061
-2.9645708 -6.267601 -0.66648406
-2.9947822 -6.2322564 -0.66456395
-3.0093927 -6.1654882 -0.65910691
-3.0343482 -6.1210594 -0.65617627
-3.0530548 -6.0650058 -0.65193194
-3.0734532 -6.0133839 -0.64819282
-3.093792 -5.9626241 -0.64455479
-3.0997114 -5.885437 -0.63788509
-3.1155918 -5.8285823 -0.63353968
-3.140857 -5.7901187 -0.63131642
-3.1748855 -5.7681231 -0.63101327
-3.2053661 -5.7398486 -0.63000274
-3.2287517 -5.6992998 -0.62757736
-3.2101097 -5.5862303 -0.61666328
-3.2423213 -5.5629902 -0.61625904
-3.2733557 -5.5378528 -0.61565274
-3.302669 -5.5099845 -0.61474323
-3.3033361 -5.4352107 -0.60827559
-3.330359 -5.4046769 -0.60706294
-3.34975 -5.362205 -0.60443544
-3.3623569 -5.3096142 -0.60059536
-3.389497 -5.2805119 -0.59958476
-3.4082663 -5.2387691 -0.59705836
-3.4507549 -5.2335372 -0.59897846
-3.4595811 -5.1775265 -0.59473407
-3.4940743 -5.1603203 -0.59523934
-3.49527 -5.0944896 -0.5897823
-3.5253272 -5.0713139 -0.58958018
-3.533457 -5.017056 -0.58553797
-3.5572386 -4.9855633 -0.58432525
-3.5568657 -4.9209146 -0.5789693
-3.553483 -4.8532491 -0.57320905
-3.5885305 -4.8385448 -0.57411855
-3.6223354 -4.8220019 -0.574826
-3.6446238 -4.7901855 -0.57361329
-3.6715176 -4.7645807 -0.57320905
-3.7037446 -4.7458839 -0.57371438
-3.7013261 -4.6832671 -0.56856048
-3.7107162 -4.6363931 -0.56542772
-3.7209244 -4.5911264 -0.56249714
-3.7313488 -4.5466785 -0.55966753
-3.721652 -4.4785604 -0.55370522
-3.7368889 -4.4411793 -0.55178517
-3.7679412 -4.4227095 -0.55239147
-3.7852578 -4.3882089 -0.55087566
-3.7892017 -4.3386779 -0.54733866
-3.815752 -4.3153462 -0.54733866
-3.8242378 -4.271842 -0.54461014
-3.844363 -4.2416635 -0.54370064
-3.8521521 -4.1982064 -0.54097211
-3.8805482 -4.1774058 -0.54137635
-3.8822472 -4.1281557 -0.53783935
-3.8731964 -4.0682368 -0.53278655
-3.8780594 -4.0236254 -0.52985591
-3.8839116 -3.9805322 -0.52712739
-3.8928781 -3.9410577 -0.52490419
-3.9134686 -3.9135804 -0.52439886
-3.918294 -3.8706207 -0.52167034
-3.9234526 -3.8284445 -0.51904291
-3.9268091 -3.7849708 -0.5162133
-3.9427526 -3.7539463 -0.51520276
-3.960638 -3.7249134 -0.51449537
-3.9688385 -3.6870017 -0.51247424
-3.9767232 -3.6491303 -0.5104531
-3.9710219 -3.5992777 -0.50661296
-3.9693079 -3.5536141 -0.50337917
-4.0029645 -3.5397341 -0.50499606
-4.0073714 -3.500057 -0.50267178
-4.0144558 -3.4630585 -0.50075173
-4.0083618 -3.4151394 -0.49711367
-4.0353322 -3.3956034 -0.49792212
-4.0599179 -3.3739576 -0.49842742
-4.060545 -3.332577 -0.49579996
-4.0716405 -3.3000841 -0.49458727
-4.0824904 -3.2675807 -0.49337462
-4.1079278 -3.2467866 -0.494082
-4.1034546 -3.2025499 -0.49094924
-4.1033239 -3.1621337 -0.48842284
-4.1131463 -3.1296697 -0.48721015
-4.1203389 -3.0954123 -0.48569432
-4.1200733 -3.0558522 -0.48326898
-4.1226892 -3.0187628 -0.48124784
-4.0959749 -2.9607818 -0.47558868
-4.1181149 -2.938482 -0.47609398
-4.1214242 -2.9028497 -0.47427496
-4.1375241 -2.8763711 -0.47407284
-4.1329427 -2.8357375 -0.47134432
-4.1387296 -2.8025179 -0.46992955
-4.1417832 -2.7676768 -0.46821159
-4.1304436 -2.723597 -0.46477568
-4.1287289 -2.6862698 -0.46255243
-4.1350856 -2.6544387 -0.46133974
-4.1395259 -2.6215672 -0.45992497
-4.1420317 -2.5876873 -0.45830807
-4.1459718 -2.5549192 -0.45689327
-4.1513672 -2.5232337 -0.45568061
-4.168478 -2.4987364 -0.45588273
-4.1854448 -2.4741242 -0.45608482
-4.203126 -2.4498985 -0.456388
-4.2077265 -2.4181163 -0.45517531
-4.2120957 -2.3863704 -0.45396265
-4.2092848 -2.3507829 -0.45194152
-4.187891 -2.3052495 -0.44779822
-4.1958346 -2.2761905 -0.4470908
-4.220252 -2.2560282 -0.44830349
-4.2234507 -2.2245297 -0.4470908
-4.2228899 -2.1912451 -0.44547391
-4.2362556 -2.1652927 -0.44547391
-4.2307982 -2.129869 -0.44335175
-4.2197175 -2.091944 -0.44062322
-4.2673464 -2.0830245 -0.4445644
-4.2558331 -2.0451725 -0.44183588
-4.2790952 -2.024123 -0.44304857
-4.2724919 -1.9890158 -0.44092637
-4.2819018 -1.9615206 -0.44062322
-4.3038354 -1.9397045 -0.44173482
-4.2783623 -1.8967376 -0.43759152
-4.2999525 -1.8748218 -0.43870315
-4.3068027 -1.8464435 -0.43819785
-4.3125501 -1.8176656 -0.43759152
-4.328218 -1.7930728 -0.43809682
-4.3474326 -1.7698557 -0.43900633
-0.26843563 -0.10854401 0.0083699133
-0.26631838 -0.10580419 0.0086730821
-0.25953627 -0.10130514 0.0094815325
-0.26201391 -0.10041508 0.0092794197
-0.26169249 -0.098459058 0.0093804765
-0.26416114 -0.097532935 0.0091783637
-0.2656914 -0.096245214 0.0090773078
-0.26815462 -0.095271602 0.0088751949
-0.27061579 -0.094271369 0.0086730821
-0.27307475 -0.093244486 0.0084709693
-0.27175227 -0.090943396 0.0086730821
-0.27230519 -0.089274243 0.0086730821
-0.27000237 -0.086700909 0.0089762509
-0.27052927 -0.085042574 0.0089762509
-0.27199811 -0.083669648 0.0088751949
-0.27441406 -0.082564652 0.0086730821
-0.27491552 -0.080879323 0.0086730821
-0.2773211 -0.079733029 0.0084709693
-0.27780512 -0.078029916 0.0084709693
-0.28116018 -0.077101678 0.0081678005
-0.28259003 -0.07562843 0.0080667445
-0 -0 -0
-0.2873573 -0.073121108 0.0076625193
-0 -0 -0
-0.29016897 -0.07004866 0.0074604065
-0 -0 -0
-0.27644548 -0.063215733 0.0089762509
-0 -0 -0
-0.27136031 -0.058583397 0.0095825894
-0.27074006 -0.056717377 0.0096836453
-0.26913139 -0.054667279 0.0098857582
-0 -0 -0
-0 -0 -0
-0 -0 -0
-0.27039194 -0.048046 0.0098857582
-0 -0 -0
-0.27783713 -0.045829222 0.0091783637
-0 -0 -0
-0.29018828 -0.044165716 0.0079656886
-0 -0 -0
-0 -0 -0
-0.29785869 -0.039710339 0.0072582942
-0 -0 -0
-0 -0 -0
-0.28568423 -0.032797981 0.0085720262
-0.27994314 -0.030424071 0.0091783637
-0 -0 -0
-0 -0 -0
-0.28243816 -0.025436405 0.0089762509
-0 -0 -0
-0.28272906 -0.02196854 0.0089762509
-0.28285852 -0.020233333 0.0089762509
-0.28099132 -0.018375741 0.0091783637
-0 -0 -0
-0 -0 -0
-0 -0 -0
-0.278375 -0.011365064 0.0094815325
-0.28042832 -0.0097174188 0.0092794197
-0 -0 -0
-0.27953175 -0.0062572826 0.0093804765
-0.28055969 -0.0045540039 0.0092794197
-0 -0 -0
-0.27462515 -0.0011119341 0.0098857582
-0 0 -0
-0.27461812 0.0022582228 0.0098857582
-0.27559382 0.0039617131 0.0097847013
-0 0 -0
-0.27651885 0.0073740878 0.0096836453
-0 0 -0
-0.28038335 0.010938499 0.0092794197
-0 0 -0
-0.27824131 0.014268194 0.0094815325
-0 0 -0
-0 0 -0
-0 -0 -0
-0 -0 -0
-0 -0 -0
-0 -0 -0
-0 -0 -0
-0 0 -0
-0 0 -0
-0 0 -0
-0 0 -0
-0 0 -0
-0 0 -0
-0 0 -0
-0 0 -0
-0 0 -0
-0 0 -0
-0 0 -0
-0 0 -0
-0 0 -0
-0 0 -0
-0 0 -0
-0 0 -0
-0 0 -0
-0 0 -0
-0 0 -0
-0 0 -0
-0 0 -0
-0 0 -0
-0 0 -0
-0 0 -0
-0 0 -0
-0 0 -0
-0 0 -0
-0 0 -0
-0 0 -0
-0 0 -0
-0 0 -0
-0 0 -0
-0 0 -0
-0 0 -0
-0 0 -0
-0 0 -0
-0 0 -0
-0 0 -0
-0 0 -0
-0 0 -0
-0 0 -0
-0 0 -0
-0 0 -0
-0 0 -0
-0 0 -0
-0 0 -0
-0 0 -0
-0 0 -0
-0 0 -0
-0 0 -0
-0 0 -0
-0 0 -0
-0 0 -0
-0 0 -0
-0 0 -0
-0 0 -0
-0 0 -0
-0 0 -0
-0 0 -0
-0 0 -0
-0 0 -0
-0 0 -0
-0 0 -0
-0 0 -0
-0 0 -0
-0 0 -0
-0 0 -0
-0 0 -0
-0 0 -0
-0 0 -0
-0 0 -0
-0 0 -0
-0 0 -0
-0 0 -0
-0 0 -0
-0 0 -0
-0 0 -0
-0 0 -0
-0 0 -0
-0 0 -0
-0 0 -0
-0 0 -0
-0 0 -0
-0 0 -0
-0 0 -0
-0 0 -0
-0 0 -0
-0 0 -0
-0 0 -0
-0 0 -0
-0 0 -0
-0 0 -0
-0 0 -0
-0 0 -0
-0 0 -0
-0 0 -0
-0 0 -0
-0 0 -0
-0 0 -0
-0 0 -0
-0 0 -0
-0 0 -0
-0 0 -0
-0 0 -0
-0 0 -0
-0 0 -0
-0 0 -0
-0 0 -0
-0 0 -0
-0 0 -0
-0 0 -0
-0 0 -0
-0 0 -0
-0 0 -0
-0 0 -0
-0 0 -0
-0 0 -0
-0 0 -0
-0 0 -0
-0.24060826 0.21849798 0.0011137374
-0.26928672 0.24750626 -0.0035062642
-0.23718068 0.22075807 0.0012264203
-0.26622918 0.25079218 -0.0035062642
-0.22581621 0.2154323 0.0025786159
-0.26885617 0.25955537 -0.0044077281
-0.24876371 0.24316247 -0.0014779709
-0.26565078 0.26283512 -0.0044077281
-0.26684415 0.26726991 -0.0048584598
-0.27218369 0.27596954 -0.0059852893
-0.26285014 0.26981336 -0.0047457768
-0.26946634 0.28000411 -0.0060979724
-0.25061014 0.26366553 -0.0032808983
-0.24762583 0.26375094 -0.0030555325
-0.26561961 0.28637233 -0.0063233385
-0.26587334 0.29019263 -0.0066613872
-0.26475522 0.29255462 -0.0067740702
-0 0 -0
-0.26838732 0.3039678 -0.0080135828
-0.26259437 0.30111951 -0.007337485
-0.23152809 0.2688747 -0.0022667516
-0.26274678 0.30885646 -0.0080135828
-0.24548881 0.29221946 -0.0053091915
-0.22082262 0.26621434 -0.001252605
-0 0 -0
-0 0 -0
-0 0 -0
-0 0 -0
-0 0 -0
-0 0 -0
-4.102519 5.3899961 -0.73019868
-4.0532508 5.393621 -0.72715628
-4.0556054 5.4662666 -0.73391724
-4.0284481 5.4998655 -0.73515677
-4.0254855 5.5671535 -0.74112898
-4.0154972 5.6257148 -0.74586165
-4.0089474 5.6900473 -0.75138313
-3.9887092 5.7357478 -0.75431287
-3.9809942 5.8002548 -0.75983435
-4.0122042 5.9232888 -0.77335626
-3.9901421 5.9692731 -0.77628607
-3.9780619 6.0309672 -0.78135675
-3.9626639 6.088573 -0.78586411
-3.9322104 6.1236415 -0.78732896
-3.9051983 6.1644411 -0.78958261
-3.8730936 6.1975551 -0.79082215
-3.840729 6.2305074 -0.79206163
-3.8173983 6.2785769 -0.79532945
-3.7941329 6.3274465 -0.79870993
-3.7688935 6.3736997 -0.80175239
-3.746232 6.4250307 -0.80547094
-3.7290249 6.4866595 -0.81054169
-3.7097318 6.5457239 -0.81527436
-3.6927617 6.6099997 -0.82068312
-3.6660342 6.6577744 -0.82395095
-3.6421769 6.7115822 -0.82800752
-3.6140478 6.758337 -0.83116263
-3.5780699 6.7909341 -0.83251482
-3.5551047 6.8489175 -0.83713484
-3.5238712 6.8918343 -0.83983922
-3.4989488 6.9479365 -0.84423387
-3.4686134 6.9941993 -0.84738898
-3.4435101 7.0519571 -0.852009
-3.402328 7.0774307 -0.85257238
-3.3558624 7.091887 -0.85178363
-3.3110256 7.1096425 -0.85144556
-3.2685812 7.1325345 -0.85178363
-3.2321074 7.1687603 -0.85381192
-3.194103 7.2020817 -0.85550219
-3.1534274 7.2297416 -0.8565163
-3.1140993 7.2608256 -0.8579812
-3.0760527 7.295361 -0.85989678
-3.0346553 7.3223591 -0.86091095
-2.9941671 7.3518844 -0.86226314
-2.9549072 7.3848777 -0.86406606
-2.9120834 7.4093432 -0.86485487
-2.8694282 7.4344873 -0.86575633
-2.8251655 7.4556704 -0.86620706
-2.7817903 7.4793839 -0.86699581
-2.7358453 7.4963121 -0.86699581
-2.692812 7.5213771 -0.86800998
-2.6436479 7.5293207 -0.86699581
-2.5954583 7.539763 -0.86631972
-2.5513701 7.5621367 -0.86710852
-2.5046098 7.5767059 -0.86699581
-2.4562361 7.5862594 -0.86631972
-2.4105425 7.6040292 -0.86665779
-2.3667846 7.6281667 -0.86778462
-2.3239758 7.6558566 -0.86936218
-2.2797849 7.6794972 -0.870489
-2.2381608 7.7124262 -0.87274265
-2.1945918 7.739397 -0.87432021
-2.1489191 7.7594204 -0.87510902
-2.0950432 7.7494392 -0.87240463
-2.0459332 7.7563839 -0.87172854
-2.0000353 7.7755275 -0.87251729
-1.948663 7.7731962 -0.87082702
-1.9018739 7.7888675 -0.87127781
-1.8542763 7.8013573 -0.87139046
-1.8065971 7.8135562 -0.87150317
-1.7581841 7.8225551 -0.87127781
-1.7090927 7.8283424 -0.87071437
-1.6573184 7.8211851 -0.86868608
-1.6108977 7.8389931 -0.86958754
-1.564515 7.8575001 -0.87060165
-1.5170252 7.8708549 -0.87105238
-1.4665167 7.8682933 -0.86970019
-1.4169774 7.8702984 -0.86891145
-1.3713812 7.8945079 -0.87071437
-1.3263617 7.9233537 -0.87308073
-1.2785103 7.9362478 -0.87364411
-1.231463 7.9547443 -0.87488365
-1.1848209 7.9768934 -0.87657386
-1.1345932 7.9751596 -0.87555975
-1.0805467 7.9445581 -0.87127781
-1.0269188 7.9135947 -0.86699581
-0.9756614 7.8980517 -0.86451679
-0.92486525 7.8841529 -0.86226314
-0.87394714 7.8669653 -0.85967141
-0.82296383 7.8464866 -0.85674167
-0.77255768 7.8286452 -0.85415
-0.72231001 7.8094926 -0.85144556
-0.67138618 7.7791295 -0.8475017
-0.62094164 7.7494273 -0.84367043
-0.57279372 7.7451639 -0.84276897
-0.5234437 7.7217665 -0.83972657
-0.47354606 7.6841712 -0.83510655
-0.4253965 7.6690741 -0.83307827
-0.37720507 7.6487145 -0.83048654
-0.32863605 7.613162 -0.8262046
-0.28118014 7.5951762 -0.82395095
-0.2340188 7.5788817 -0.82192266
-0.18679719 7.5513687 -0.81865484
-0.13979234 7.5166082 -0.81459826
-0.093469754 7.5014277 -0.81279534
-0.047389422 7.4939108 -0.81189388
-0.0014067548 7.4940605 -0.81189388
0.044534955 7.4869728 -0.81110507
0.090090759 7.4547648 -0.80749923
0.135957 7.4610262 -0.80828798
0.1816137 7.4550848 -0.8077246
0.22714214 7.4468775 -0.80693579
0.27254036 7.4373999 -0.80603433
0.31795812 7.430624 -0.80547094
0.36194453 7.3957825 -0.80175239
0.40578842 7.365643 -0.79859728
0.45097554 7.3630142 -0.79859728
0.49681342 7.3700223 -0.7997241
0.53758132 7.3063869 -0.79285043
0.57877123 7.2573886 -0.78766704
0.62643635 7.2903299 -0.79183626
0.66851568 7.2576551 -0.7885685
0.71041203 7.226717 -0.78552604
0.75164431 7.1925745 -0.78214556
0.79204732 7.1542482 -0.77831435
0.83270049 7.1216202 -0.77515924
0.873833 7.0956669 -0.77279288
0.9187566 7.1010113 -0.77403235
0.94629186 6.9770856 -0.76051044
0.96955091 6.8334179 -0.74473482
0.96561033 6.5177231 -0.70923966
0.99133486 6.4193673 -0.6986475
0.9976064 6.2071428 -0.67498404
1.0309287 6.172483 -0.67171627
1.058944 6.1092567 -0.66518062
1.0890328 6.0615687 -0.66044796
1.1174866 6.0078821 -0.65503919
1.1288115 5.8682094 -0.6397143
1.1558907 5.8163419 -0.63453084
1.1837733 5.7711782 -0.63013625
1.2175179 5.7560291 -0.62923479
1.2451985 5.7134991 -0.62517816
1.2613122 5.6214013 -0.61537474
1.2888548 5.5835423 -0.61188161
1.3164393 5.547492 -0.60861379
1.3372774 5.485249 -0.60230356
1.3571607 5.4219975 -0.59588063
1.3753301 5.3548608 -0.58900696
1.4117032 5.3597732 -0.59058452
1.4435279 5.3471732 -0.59013379
1.4681021 5.3085265 -0.5866406
1.4884675 5.2563958 -0.58156985
1.5159913 5.2309394 -0.57965428
1.5319643 5.1672368 -0.57323134
1.5610471 5.1491814 -0.57221717
1.5926125 5.1395063 -0.57221717
1.6088253 5.0813246 -0.56647038
1.6298866 5.0401578 -0.56275183
1.6564213 5.0168524 -0.56117427
1.6827316 4.9934115 -0.55959672
1.713339 4.9829922 -0.55959672
1.7415804 4.9658222 -0.55880791
1.7706792 4.9513001 -0.55835718
1.8139561 4.9758172 -0.56263912
1.8333818 4.9347868 -0.55903327
1.852021 4.8927774 -0.55531472
1.8648534 4.8368187 -0.54990596
1.9130126 4.8724566 -0.5556528
1.9484044 4.8744669 -0.55734307
1.9808975 4.8688626 -0.55813181
2.0095949 4.8538623 -0.5577938
2.0366404 4.8350301 -0.55700499
2.0733118 4.8388829 -0.55903327
2.1057417 4.8324471 -0.55982208
2.1409876 4.8321543 -0.56139964
2.1722288 4.8225503 -0.56185037
2.1930938 4.7901578 -0.559484
2.2224445 4.7766113 -0.559484
2.2610528 4.7826481 -0.56196302
2.2869151 4.7615185 -0.56106156
2.3130391 4.7411451 -0.56027281
2.3491437 4.7411094 -0.56207573
2.3647945 4.6999769 -0.55869526
2.3935885 4.6853781 -0.55869526
2.4387586 4.7023587 -0.56275183
2.4689541 4.6899443 -0.56308985
2.5042391 4.6869764 -0.5646674
2.5419483 4.6881194 -0.5668084
2.5706663 4.6724339 -0.5668084
2.5910554 4.6418228 -0.56489277
2.6214464 4.6292958 -0.56534356
2.658709 4.628633 -0.56737185
2.6870599 4.6122327 -0.56737185
2.7168255 4.5982246 -0.56770986
2.7592862 4.6053348 -0.57086498
2.7880077 4.5891666 -0.57097769
2.8171561 4.5736656 -0.57120305
2.869899 4.5959077 -0.57649916
2.9161122 4.6067581 -0.58033037
2.9507623 4.598814 -0.58168256
2.9550917 4.5439696 -0.57672453
2.9818239 4.5240922 -0.57649916
2.9984903 4.4891849 -0.57424551
3.0410151 4.4929204 -0.57728791
3.0915654 4.5077748 -0.58190793
3.1248357 4.4968805 -0.58303475
3.1506534 4.4751849 -0.58269668
3.1895916 4.4719486 -0.58495039
3.2280266 4.4675965 -0.58709133
3.2671146 4.4637427 -0.58934498
3.3039095 4.4563837 -0.5911479
3.3240321 4.4264922 -0.58979571
3.3878193 4.4542589 -0.59666938
3.4011412 4.4152818 -0.59407771
3.4513917 4.4241018 -0.59835964
3.4760087 4.3997221 -0.59790891
3.5122499 4.3899498 -0.59959912
3.562887 4.397656 -0.60388112
3.6074481 4.397222 -0.60703623
3.6356306 4.3765335 -0.6072616
3.666893 4.3594661 -0.60805035
3.709034 4.3550406 -0.61075479
3.7583954 4.3585396 -0.61469865
3.7876818 4.3383904 -0.61514938
3.8556855 4.3619733 -0.62224841
3.8843653 4.3404546 -0.62258649
3.9189298 4.3253756 -0.62393868
3.9769619 4.3356652 -0.62923479
4.0264773 4.3359385 -0.633066
4.0530062 4.311151 -0.633066
4.070478 4.2768435 -0.6316011
4.1028481 4.2582273 -0.63261527
4.1601176 4.2649827 -0.63768601
4.2162275 4.2697806 -0.64253134
4.2416449 4.2431269 -0.64241868
4.2831483 4.2323866 -0.6448977
4.3182802 4.2150493 -0.6463626
4.3390551 4.1836457 -0.64557379
4.3704 4.1624255 -0.64647526
4.4248042 4.1627665 -0.65098256
4.4779205 4.161243 -0.65526456
4.5260596 4.1545196 -0.65875769
4.5941586 4.1653824 -0.66529334
4.6203704 4.1377778 -0.66540599
4.6419516 4.1060576 -0.66484261
4.6992321 4.1056113 -0.66968793
4.7529202 4.1013694 -0.67396992
4.8044634 4.0946889 -0.67791378
4.8583827 4.0894485 -0.68219578
4.9147096 4.0856061 -0.68681574
4.9535089 4.0667224 -0.68884408
4.9968915 4.0512714 -0.69154847
5.0425973 4.0373034 -0.69459087
5.0813041 4.0173802 -0.69661921
5.1324868 4.006917 -0.70045042
5.1703534 3.9856632 -0.70236599
5.2018275 3.95928 -0.70338017
5.2021942 3.9093781 -0.69999969
5.2476282 3.8933711 -0.70304209
5.2762284 3.8646221 -0.70371819
5.3376842 3.8595412 -0.7090143
5.3976574 3.8526962 -0.71408504
5.4699302 3.8538444 -0.720846
5.5464969 3.8570862 -0.72817039
5.6134768 3.8527842 -0.7341426
5.6863694 3.8517051 -0.74090362
5.7644148 3.853189 -0.74834067
5.8078551 3.8308783 -0.75104505
5.9228544 3.8547955 -0.76344019
6.0233135 3.8677788 -0.77380699
6.0687556 3.8445742 -0.7767368
6.1082406 3.8172705 -0.77887774
6.1459265 3.788584 -0.78079337
6.1699061 3.7513182 -0.78090602
6.243084 3.7435405 -0.78755432
6.2436996 3.6920125 -0.78462458
6.2628026 3.6516304 -0.78417385
6.2833676 3.6121433 -0.78394848
6.2993622 3.5700915 -0.78315967
6.3116078 3.526041 -0.78192019
6.3331242 3.4872472 -0.78192019
6.3561492 3.4492702 -0.78214556
6.3877077 3.415828 -0.78349775
6.4067888 3.375643 -0.78327239
6.410625 3.3275697 -0.78113139
6.4220753 3.2836483 -0.78000456
6.4403276 3.2432873 -0.7797792
6.4663377 3.2067997 -0.780568
6.4876785 3.1679347 -0.78079337
6.4944572 3.1220398 -0.77921581
6.5027137 3.0770311 -0.77786362
6.517869 3.0353951 -0.77741289
6.5553398 3.004039 -0.7797792
6.5781779 2.965802 -0.78034264
6.5898938 2.9225631 -0.77955383
6.6040592 2.8804839 -0.7791031
6.6243486 2.841083 -0.77944118
6.64715 2.8026998 -0.78011727
6.6449461 2.7538712 -0.77775091
6.6644788 2.7141712 -0.77808899
6.6782398 2.6721201 -0.77775091
6.6797137 2.6252768 -0.77594799
6.6808653 2.5785162 -0.77414507
6.7318683 2.5508556 -0.778427
6.7567062 2.5129659 -0.77955383
6.7486634 2.4629426 -0.7767368
6.7458749 2.415123 -0.7745958
6.7643166 2.3750024 -0.77504653
6.7994313 2.3405688 -0.77752554
6.8193135 2.3007104 -0.77820164
6.830472 2.2578888 -0.77786362
6.8073306 2.2039969 -0.77346897
6.8387222 2.1678922 -0.77560997
6.8623343 2.1291292 -0.77684945
6.8828754 2.089292 -0.77775091
6.8898501 2.0453231 -0.77707481
6.8908195 1.9996856 -0.77572262
6.8962679 1.9554689 -0.77493382
6.9205852 1.9165655 -0.77639872
6.8996024 1.8652472 -0.77256751
6.8753695 1.8134984 -0.76839823
6.9027267 1.7754866 -0.77031386
6.917346 1.7340654 -0.77076459
6.9346128 1.693239 -0.77155334
6.9284377 1.6467502 -0.76963776
6.9500289 1.6068938 -0.77098995
6.9229188 1.5559373 -0.76670802
6.9857273 1.5250889 -0.77290553
6.9551001 1.4737495 -0.76828557
6.9756913 1.4334469 -0.76963776
6.9229622 1.3783907 -0.76253873
7.0025134 1.3496174 -0.77076459
6.9940567 1.3035295 -0.76884896
6.9852991 1.2575964 -0.76693338
6.9850526 1.2133509 -0.76603186
6.9972658 1.1712891 -0.7665953
6.9650822 1.1220093 -0.762088
6.955143 1.0766662 -0.76017237
6.9704638 1.0352843 -0.76118654
6.969799 0.99151486 -0.76039773
7.0151339 0.95408869 -0.76490504
7.0041046 0.9088521 -0.76298946
7.0184245 0.8669554 -0.76400357
6.9969668 0.82074785 -0.76096117
6.9840951 0.77582419 -0.75893289
6.9284439 0.72663057 -0.75205922
6.9871569 0.6894744 -0.75825679
7.0090652 0.64823717 -0.76028508
6.9911323 0.60333735 -0.75780606
7.037292 0.56384397 -0.76265138
7.0584559 0.52197337 -0.76467967
7.0932488 0.48080575 -0.76828557
7.0811892 0.4363558 -0.7665953
7.0549626 0.39130086 -0.76332748
7.0205112 0.3461923 -0.75915825
7.0284591 0.30336615 -0.75983435
7.0669274 0.26159665 -0.76400357
7.0495296 0.21764624 -0.76186264
6.9851727 0.1727619 -0.75442553
7.0546498 0.13117686 -0.76220065
7.069232 0.088061914 -0.76377821
7.0835495 0.04477296 -0.76535577
7.0976019 0.0013116115 -0.76693338
7.0766106 -0.042115454 -0.76456702
7.0136247 -0.084782764 -0.75746799
7.1431165 -0.13018066 -0.77222943
7.0885429 -0.17270362 -0.76614457
7.0903296 -0.21628559 -0.76648265
7.0978055 -0.26011395 -0.76749676
7.1199012 -0.30467862 -0.77020115
7.0762153 -0.34632206 -0.76546848
7.083878 -0.39028046 -0.7665953
7.1160622 -0.43586317 -0.77053922
7.0676503 -0.4764466 -0.76535577
7.0725212 -0.52038676 -0.76625723
7.0622616 -0.56322062 -0.76546848
7.0923324 -0.60943365 -0.76929969
7.064713 -0.65075386 -0.7665953
7.0348763 -0.69156384 -0.76366556
7.009747 -0.73254836 -0.76129919
6.9912939 -0.77401561 -0.75972164
7.0031905 -0.81885958 -0.76163727
7.0147996 -0.86387867 -0.76355284
7.0064106 -0.9065221 -0.76321483
6.993824 -0.94856113 -0.76242602
7.0055804 -0.99396801 -0.76445431
6.9649477 -1.0318402 -0.76051044
7.0085673 -1.0822879 -0.76625723
6.975306 -1.1210158 -0.76321483
6.9937782 -1.1680486 -0.76614457
6.9923534 -1.2119575 -0.76682067
7.0033674 -1.2581761 -0.76896167
6.9242024 -1.2878646 -0.76073581
6.9630065 -1.3393327 -0.76614457
6.9527082 -1.3816445 -0.76591921
6.8652558 -1.4081126 -0.75679189
6.9002328 -1.4594607 -0.76186264
6.9008565 -1.5038875 -0.76298946
6.8788948 -1.5433749 -0.76152456
6.857677 -1.582873 -0.76017237
6.8671718 -1.6295081 -0.76242602
6.8512516 -1.670202 -0.76174992
6.8331633 -1.7102795 -0.76084846
6.8600745 -1.7618121 -0.76524311
6.8539395 -1.8051366 -0.7658065
6.8225889 -1.8417206 -0.76344019
6.8264832 -1.8877851 -0.76524311
6.8252878 -1.9326133 -0.76648265
6.8085294 -1.9730735 -0.76591921
6.7905788 -2.0131185 -0.76524311
6.7505221 -2.0463889 -0.76197529
6.7701087 -2.0977681 -0.7658065
6.7552152 -2.1386693 -0.76558113
6.7504745 -2.1828294 -0.7665953
6.7416716 -2.2257657 -0.76715875
6.7486033 -2.2740691 -0.76963776
6.7439194 -2.318665 -0.77076459
6.7145629 -2.3547411 -0.76896167
6.7224431 -2.4039249 -0.77166605
6.7187691 -2.4492109 -0.77301824
6.6952314 -2.4872766 -0.77200407
6.665904 -2.5230358 -0.77031386
6.6521521 -2.564604 -0.77053922
6.642765 -2.6079142 -0.77132797
6.6211019 -2.6464119 -0.77065188
6.6001372 -2.6851165 -0.77008849
6.5624213 -2.7168231 -0.76749676
6.5547853 -2.7608945 -0.76862359
6.536808 -2.8006709 -0.76851094
6.520411 -2.8411241 -0.76862359
6.5083065 -2.8834937 -0.76929969
6.4968333 -2.9262297 -0.77008849
6.4742384 -2.9639707 -0.76952505
6.4289026 -2.9910672 -0.76614457
6.4239035 -3.0368271 -0.76783484
6.4194803 -3.0830681 -0.76963776
6.4138379 -3.1289334 -0.77132797
6.4132161 -3.1774919 -0.77369434
6.3953738 -3.2176759 -0.7739197
6.3560429 -3.2469132 -0.77144068
6.3554068 -3.2959146 -0.7739197
6.3438563 -3.3394766 -0.77504653
6.3328867 -3.3834889 -0.77628607
6.3102598 -3.4213359 -0.7760607
6.3065605 -3.4695687 -0.77831435
6.2860203 -3.5086839 -0.778427
6.2591853 -3.544251 -0.77775091
6.2390437 -3.5835795 -0.77797627
6.2469883 -3.6392984 -0.78192019
6.2048635 -3.6659369 -0.77932847
6.1779914 -3.7013872 -0.77876508
6.1577115 -3.7407725 -0.7791031
6.1117988 -3.7644167 -0.7760607
6.1315708 -3.8286848 -0.78180748
6.1054444 -3.8646412 -0.78146946
6.0824528 -3.9025671 -0.78158212
6.0550604 -3.9376483 -0.78113139
6.0307856 -3.9747274 -0.78113139
5.9963679 -4.0050349 -0.7797792
5.9774408 -4.0456505 -0.780568
5.9639773 -4.0901184 -0.78214556
5.9387684 -4.1266356 -0.78214556
5.9401493 -4.1818719 -0.78586411
5.9265127 -4.2268949 -0.78755432
5.9020762 -4.2643437 -0.78777969
5.8701868 -4.29637 -0.78699094
5.8580823 -4.3429589 -0.78901923
5.852778 -4.3949299 -0.79206163
5.8209558 -4.4271502 -0.79138553
5.7795119 -4.45187 -0.78935724
5.7450356 -4.4817486 -0.78834313
5.7338018 -4.5298495 -0.79070944
5.7058992 -4.5649462 -0.79070944
5.686275 -4.606751 -0.79194897
5.6602063 -4.643445 -0.79228699
5.6331367 -4.6793575 -0.79251242
5.6035581 -4.7131944 -0.7923997
5.579072 -4.7513537 -0.7930758
5.5618539 -4.7958779 -0.79487872
5.5510359 -4.8462505 -0.79769582
5.5249181 -4.8835101 -0.7982592
5.4800401 -4.9040666 -0.79600555
5.4535279 -4.9409351 -0.79656899
5.4289665 -4.9796772 -0.79747045
5.3983097 -5.0128946 -0.79747045
5.3667254 -5.0452433 -0.79735774
5.3435855 -5.0856128 -0.79859728
5.3194356 -5.1251984 -0.7997241
5.2857542 -5.1556602 -0.79938602
5.2568483 -5.1907883 -0.79983675
5.2410631 -5.2391019 -0.80242848
5.2109132 -5.2732821 -0.80276656
5.1715178 -5.2980461 -0.80163974
5.1375327 -5.328248 -0.80141437
5.1047425 -5.3596706 -0.80141437
5.0669937 -5.3858266 -0.80062556
5.0473804 -5.4313722 -0.80287921
5.0153031 -5.4637041 -0.80310458
4.9736748 -5.4855413 -0.80175239
4.9538441 -5.5314994 -0.80411875
4.9158597 -5.5573263 -0.80344266
4.8927827 -5.6001048 -0.80535823
4.8745589 -5.6488266 -0.80817533
4.8507638 -5.6914854 -0.81009096
4.7799153 -5.6785741 -0.80378067
2.9351914 -3.5310106 -0.48274693
2.8813128 -3.5097895 -0.47700009
2.8353162 -3.497303 -0.47260544
2.7914455 -3.4867122 -0.46854886
2.7465796 -3.4741569 -0.4642669
2.7093117 -3.4705815 -0.46133715
2.6703718 -3.4643197 -0.45806935
2.6358244 -3.4632456 -0.45559031
2.6037791 -3.4650562 -0.45356202
2.571219 -3.4658065 -0.45142105
2.5340507 -3.4598756 -0.44837862
2.4976349 -3.4544251 -0.44544885
2.4665775 -3.4559371 -0.44353324
2.4361684 -3.4580109 -0.44173032
2.3944805 -3.4435272 -0.43767372
2.324384 -3.386884 -0.4278703
2.296314 -3.3903883 -0.42640543
2.2716022 -3.398632 -0.42561665
2.2518001 -3.414165 -0.42584202
2.2297246 -3.4262521 -0.42561665
2.2091963 -3.4407051 -0.42572933
2.1795344 -3.4407661 -0.42392641
2.1562748 -3.4507043 -0.42347568
2.1272392 -3.4511828 -0.42178544
2.0972469 -3.4497375 -0.41986981
2.0647974 -3.443794 -0.41739079
2.0365467 -3.4444249 -0.41581324
2.0103683 -3.4482725 -0.41468641
1.9802576 -3.4450376 -0.41265813
1.9487927 -3.4389706 -0.41029176
1.9218391 -3.4404542 -0.40893957
1.8935028 -3.439126 -0.40724933
1.8680995 -3.4428198 -0.40623519
1.8483453 -3.4568462 -0.40657324
0 -0 -0
0 -0 -0
1.7658546 -3.454011 -0.40195322
1.744181 -3.4638937 -0.40184054
1.7198036 -3.4682994 -0.40105176
1.6989262 -3.4796796 -0.40116444
0 -0 -0
1.5910649 -3.3628521 -0.38392395
1.6056414 -3.4482119 -0.39338931
1.5832113 -3.4552894 -0.39305127
1.5779096 -3.5002649 -0.39744592
1.562043 -3.5225968 -0.39902347
1.5411938 -3.5339365 -0.39924884
1.5151722 -3.5332818 -0.39800933
1.4992553 -3.5562456 -0.39969957
1.4804502 -3.572721 -0.40060103
0 -0 -0
0 -0 -0
1.4304315 -3.6400552 -0.40555909
1.421667 -3.6839883 -0.40984103
1.402909 -3.7028627 -0.41108054
1.3912479 -3.7412021 -0.41468641
1.3774651 -3.7748699 -0.41772884
1.3629862 -3.8075728 -0.42065859
1.3478283 -3.8393021 -0.42347568
1.3417124 -3.8982332 -0.42956054
1.3234866 -3.9233389 -0.43158886
1.3028195 -3.9417634 -0.43282837
0 -0 -0
0 -0 -0
0 -0 -0
1.2761254 -4.2045383 -0.46032301
1.2689692 -4.2751565 -0.46776009
1.2643175 -4.3572936 -0.47654936
0 -0 -0
1.2282577 -4.4356804 -0.48398644
1.2336975 -4.5639906 -0.49818447
1.2738545 -4.8299179 -0.52849621
1.2568209 -4.8867202 -0.53424305
1.2611291 -5.031199 -0.55024403
1.2453222 -5.1006188 -0.55745572
1.7094907 -7.1923437 -0.8004002
1.6700287 -7.2230272 -0.80276656
1.627857 -7.2428327 -0.80389339
1.5831732 -7.2517142 -0.80378067
1.5392658 -7.2642078 -0.80411875
1.4928639 -7.2647562 -0.80310458
1.4395264 -7.2299275 -0.79803383
1.3319361 -6.9108009 -0.76017237
1.2856829 -6.8983302 -0.75780606
1.2433313 -6.9060893 -0.75780606
1.202464 -6.922399 -0.75882018
1.1624278 -6.9443464 -0.76051044
1.1416115 -7.0867229 -0.7760607
1.1231965 -7.2556124 -0.79465336
1.0859573 -7.3115096 -0.80028749
1.0391144 -7.3042631 -0.79870993
0.9946785 -7.3134551 -0.79904801
0.94735485 -7.3006992 -0.79690701
0.90071279 -7.2915826 -0.7952168
0.85676622 -7.3038797 -0.79600555
0.81445873 -7.3317132 -0.79859728
0.76862729 -7.3286667 -0.79769582
0.72344971 -7.3312674 -0.79747045
0.67891008 -7.3405156 -0.79803383
0.63342929 -7.3395934 -0.79747045
0.58877957 -7.3482938 -0.79803383
0.54368019 -7.3517685 -0.79803383
0.49795508 -7.3460436 -0.79701972
0.45091385 -7.317225 -0.79341388
0.4057323 -7.3148932 -0.79285043
0.36000842 -7.300374 -0.7909348
0.31525031 -7.3034382 -0.79104751
0.26892206 -7.2645245 -0.7864275
0 -0 -0
0.12196402 -4.9359417 -0.52196062
0.091656826 -4.9356036 -0.5218479
0.06114703 -4.918189 -0.51981962
0 -0 -0
0.0013283034 -7.1671562 -0.77482116
-0.042748157 -7.1839209 -0.7767368
-0.086994432 -7.197433 -0.77831435
-0 -0 -0
-0 -0 -0
-0 -0 -0
-0.17287482 -4.7136931 -0.49694496
-0 -0 -0
-0 -0 -0
-0 -0 -0
-0 -0 -0
-0 -0 -0
-0.34552705 -4.6942263 -0.49581814
-0.37519208 -4.7029133 -0.49705765
