# .PCD v0.7 - Point Cloud Data file format
VERSION 0.7
FIELDS x y z
SIZE 4 4 4
TYPE F F F
COUNT 1 1 1
WIDTH 1623
HEIGHT 1
VIEWPOINT 0 0 0 1 0 0 0
POINTS 1623
DATA ascii
0.66394782 2.4015927 -0.73497075
0.67867124 2.3974736 -0.73497075
0.69602448 2.4024353 -0.73794448
0.70993894 2.3953729 -0.73705238
0.72711432 2.3991957 -0.73972875
0.74238652 2.396513 -0.74032348
0.76053292 2.4028363 -0.74389201
0.77320725 2.3917649 -0.74181038
0.79056036 2.3951359 -0.74448675
0.80463243 2.3884304 -0.74389201
0.81772131 2.3789334 -0.74240512
0.82946098 2.3657618 -0.73972875
0.84588903 2.3660223 -0.74151301
0.85646933 2.3500223 -0.73794448
0.87087268 2.344723 -0.73794448
0.88118994 2.328619 -0.73437601
0.8951183 2.3222773 -0.73407859
0.90795583 2.3131862 -0.73288912
0.92319465 2.3102314 -0.73378122
0.93627381 2.3018699 -0.73288912
0.95549029 2.3084331 -0.73705238
0.9744519 2.3139665 -0.74091822
0.99389309 2.3202314 -0.74508148
1.01421 2.3280952 -0.74983948
1.030022 2.3253205 -0.75102895
1.0470138 2.3250508 -0.75311059
1.0600686 2.3159783 -0.75221848
1.0734541 2.3076987 -0.75162375
1.0798445 2.2846665 -0.74597359
1.0843402 2.2582006 -0.73913401
1.100268 2.2557957 -0.74062085
1.1128175 2.2464354 -0.73972875
1.1270094 2.240418 -0.74002612
1.1407351 2.2334607 -0.74002612
1.158372 2.2340481 -0.74270248
1.1747254 2.2319682 -0.74448675
0 0 -0
1.2061206 2.2249393 -0.74716312
1.2188298 2.2158237 -0.74656838
1.2244954 2.1941288 -0.74151301
1.2416973 2.1932216 -0.74389201
1.2527546 2.1814213 -0.74240512
1.2656355 2.1728683 -0.74210775
1.2881681 2.1806819 -0.74775785
1.2985812 2.1678221 -0.74597359
1.3118583 2.1598134 -0.74597359
1.3355968 2.1687973 -0.75221848
1.3503957 2.1629913 -0.75311059
1.359048 2.147403 -0.75043422
1.3778681 2.1478643 -0.75370538
1.3899806 2.1377685 -0.75311059
1.3999201 2.1244156 -0.75132638
1.4134591 2.1165798 -0.75162375
1.4226747 2.1023316 -0.74954212
1.4290699 2.0841124 -0.74597359
1.4429201 2.0768731 -0.74656838
1.4594824 2.073446 -0.74864995
1.4721774 2.0644519 -0.74864995
1.4864938 2.0577021 -0.74954212
1.4990916 2.0485423 -0.74954212
1.5048119 2.0301001 -0.74597359
1.5155206 2.0185378 -0.74508148
1.529611 2.011481 -0.74597359
1.5337701 1.9914664 -0.74181038
1.548309 1.9850296 -0.74299985
1.5592763 1.9739933 -0.74240512
1.5749369 1.9688627 -0.74418938
1.590593 1.9636139 -0.74597359
1.6026115 1.9538172 -0.74597359
1.61274 1.9417434 -0.74508148
1.6154079 1.9208491 -0.74062085
1.6333524 1.9181712 -0.74359459
1.6388581 1.9008809 -0.74062085
1.6599071 1.9015799 -0.74508148
1.6664865 1.885635 -0.74270248
1.6812079 1.8789322 -0.74418938
1.6939869 1.8699965 -0.74478412
1.6983317 1.851826 -0.74151301
1.7064147 1.8378714 -0.74002612
1.7209285 1.8308454 -0.74151301
1.7294978 1.8174845 -0.74032348
1.7472401 1.8137153 -0.74329722
1.7563363 1.8009094 -0.74240512
1.7653414 1.7880603 -0.74151301
1.7803286 1.781247 -0.74329722
1.7993722 1.7783446 -0.74686575
1.8075178 1.7646021 -0.74567622
1.8066295 1.7422096 -0.74062085
1.8159031 1.7297742 -0.74002612
1.8237016 1.715982 -0.73883659
1.8432865 1.7132109 -0.74270248
1.8678281 1.7147845 -0.74864995
1.8719503 1.6975181 -0.74597359
1.8787754 1.6828145 -0.74448675
1.8904955 1.6725204 -0.74508148
1.90216 1.6621457 -0.74567622
1.9087094 1.6473234 -0.74418938
1.9151487 1.6324834 -0.74270248
1.9163659 1.6133214 -0.73913401
1.9254949 1.6009219 -0.73883659
1.9197881 1.5763512 -0.73259175
1.9398053 1.5729624 -0.73675501
1.9531461 1.5640148 -0.73824185
1.9731894 1.5602936 -0.74240512
1.989498 1.5534463 -0.74508148
2.0141129 1.5528713 -0.75102895
2.022084 1.5393269 -0.75043422
2.0406487 1.5337758 -0.75400275
2.0415883 1.514966 -0.75073159
2.0562363 1.506361 -0.75281322
2.0615728 1.4909178 -0.75132638
2.0551424 1.4671429 -0.74537885
2.0680077 1.4572556 -0.74686575
2.0886664 1.4527184 -0.75132638
2.0999019 1.4414966 -0.75221848
0 0 -0
2.1190205 1.4166806 -0.75281322
2.1212981 1.3994447 -0.75043422
2.1298451 1.3864024 -0.75043422
2.1262627 1.3655667 -0.74597359
2.1354082 1.3530056 -0.74627101
2.1444793 1.3403838 -0.74656838
2.1437244 1.3216871 -0.74329722
2.1591351 1.3129743 -0.74597359
2.1769753 1.3055956 -0.74954212
2.1841235 1.2917273 -0.74924475
2.195307 1.2802258 -0.75043422
2.2014658 1.2657795 -0.74983948
2.205869 1.2503639 -0.74864995
2.2159996 1.2382029 -0.74954212
2.2235556 1.2245826 -0.74954212
2.2318666 1.2113715 -0.74983948
2.2518849 1.2044107 -0.75430012
2.260922 1.1914611 -0.75489485
2.2631061 1.1749256 -0.75311059
2.2753727 1.1636264 -0.75489485
2.2765012 1.1466358 -0.75281322
2.2792177 1.1305239 -0.75132638
2.2783909 1.1127454 -0.74864995
2.2834549 1.0979168 -0.74805522
2.2910116 1.0842937 -0.74835259
2.2967563 1.0698127 -0.74805522
2.3093522 1.0584855 -0.75013685
2.3288581 1.050185 -0.75459749
2.3308945 1.0339392 -0.75311059
2.3424451 1.0219091 -0.75489485
2.3363881 1.0022454 -0.75073159
2.3424938 0.98789078 -0.75073159
2.3555667 0.97642475 -0.75311059
2.3526719 0.9583497 -0.75013685
2.3602808 0.94460571 -0.75073159
2.3695862 0.9315033 -0.75192112
2.376148 0.91729027 -0.75221848
2.3817315 0.90269321 -0.75221848
2.3738036 0.88306677 -0.74775785
2.3845582 0.87044996 -0.74954212
2.3925507 0.85676825 -0.75043422
2.3986635 0.84238821 -0.75073159
2.407398 0.82889831 -0.75192112
2.4124386 0.81411117 -0.75192112
2.4164822 0.79899353 -0.75162375
2.4258807 0.78562272 -0.75311059
2.4242849 0.76870197 -0.75102895
2.4426332 0.75805938 -0.75548959
2.4481521 0.74333489 -0.75578696
2.4499214 0.72748357 -0.75489485
2.4680922 0.71643192 -0.75935549
2.469686 0.7004925 -0.75846338
2.4656572 0.68303037 -0.75578696
2.4799395 0.67063165 -0.75905812
2.472007 0.65223408 -0.75519222
2.4648674 0.63419724 -0.75162375
2.46223 0.61743456 -0.74954212
2.4539151 0.5993681 -0.74567622
2.4575465 0.58429986 -0.74567622
2.4555044 0.56791794 -0.74389201
2.4710519 0.555565 -0.74775785
2.4734817 0.54018861 -0.74746048
0 0 -0
2.4976926 0.51345003 -0.75311059
2.4933054 0.49662158 -0.75073159
2.5019305 0.48239902 -0.75251585
0 0 -0
2.4916885 0.4487806 -0.74746048
2.4878106 0.43233809 -0.74537885
2.4866502 0.41643366 -0.74418938
2.4882159 0.40101597 -0.74389201
2.4972341 0.38676494 -0.74597359
2.4853947 0.36932766 -0.74151301
2.4989567 0.35568687 -0.74508148
2.5200126 0.34292454 -0.75102895
2.5173352 0.32684019 -0.74954212
2.5278211 0.31244335 -0.75221848
2.5382247 0.29793009 -0.75489485
2.5456984 0.28298402 -0.75667912
2.565428 0.26925486 -0.76232922
2.55373 0.25219294 -0.75816596
2.5599828 0.23695953 -0.75965285
0 0 -0
2.5531809 0.20476204 -0.75667912
2.5429635 0.1882446 -0.75311059
2.5183516 0.17088845 -0.74508148
2.5212586 0.15555081 -0.74567622
2.5316985 0.14060865 -0.74864995
2.5210705 0.12450489 -0.74508148
2.5675724 0.11102032 -0.75935549
2.5491233 0.09455315 -0.75340796
2.5506098 0.078939922 -0.75370538
2.5539095 0.06335967 -0.75459749
2.5408859 0.047436409 -0.75043422
2.5315824 0.031723812 -0.74746048
2.5260007 0.016152194 -0.74567622
2.5231881 0.00065145263 -0.74478412
2.5155067 -0.014786851 -0.74240512
2.5115497 -0.030176148 -0.74121559
2.5265911 -0.045861013 -0.74597359
2.5338979 -0.061547305 -0.74835259
2.5391986 -0.0772672 -0.75013685
2.5472639 -0.093158692 -0.75281322
2.5475981 -0.10882726 -0.75311059
2.5526042 -0.12473569 -0.75489485
2.5441642 -0.13997741 -0.75251585
2.5403984 -0.15541102 -0.75162375
2.5327287 -0.17054769 -0.74954212
2.5354433 -0.18636438 -0.75073159
2.5361557 -0.20206943 -0.75132638
2.5358193 -0.21770871 -0.75162375
2.5391896 -0.23370089 -0.75311059
2.5462596 -0.25011536 -0.75578696
2.5361304 -0.26484305 -0.75311059
2.5505905 -0.2821818 -0.75816596
2.5450177 -0.29738396 -0.75697649
2.5403023 -0.31264484 -0.75608438
2.5336015 -0.32761452 -0.75459749
2.5239747 -0.34212941 -0.75221848
2.5189919 -0.3572081 -0.75132638
2.5139191 -0.37223852 -0.75043422
2.5257421 -0.38983902 -0.75489485
2.5195317 -0.40472421 -0.75370538
2.5254767 -0.42158973 -0.75638175
2.5331907 -0.43886903 -0.75965285
2.5238719 -0.45322388 -0.75757122
2.5238597 -0.46922466 -0.75846338
2.5124946 -0.4830808 -0.75578696
2.4963722 -0.49588579 -0.75162375
2.4988945 -0.51234365 -0.75340796
2.4835598 -0.5251013 -0.74954212
2.4774926 -0.53972101 -0.74864995
2.4759974 -0.55533004 -0.74924475
2.468822 -0.56965399 -0.74805522
2.4652803 -0.58479166 -0.74805522
2.470922 -0.60216647 -0.75102895
2.464402 -0.61662167 -0.75013685
2.4587226 -0.63125676 -0.74954212
2.4695761 -0.65021855 -0.75430012
2.4572437 -0.66312182 -0.75162375
2.4485271 -0.67691541 -0.75013685
2.4553521 -0.69504541 -0.75370538
2.4492068 -0.70956701 -0.75311059
2.4502995 -0.72620869 -0.75489485
2.4457974 -0.74122977 -0.75489485
2.4357312 -0.7545287 -0.75311059
2.4392483 -0.77205151 -0.75578696
2.4399161 -0.78876525 -0.75757122
2.433217 -0.80312318 -0.75697649
2.4273386 -0.81773335 -0.75667912
2.4267902 -0.83416289 -0.75816596
2.4216261 -0.84903771 -0.75816596
2.4118755 -0.86227417 -0.75667912
2.4047451 -0.87640333 -0.75608438
2.4011126 -0.89180666 -0.75667912
2.3911302 -0.90483397 -0.75519222
2.3828604 -0.91845888 -0.75430012
2.3771801 -0.93306255 -0.75430012
2.3696368 -0.94692278 -0.75370538
2.3628976 -0.9610852 -0.75340796
2.3604848 -0.97702563 -0.75459749
2.3474057 -0.9885276 -0.75221848
2.3307638 -0.99840271 -0.74864995
2.3350983 -1.0172595 -0.75221848
2.3253205 -1.030022 -0.75102895
2.3285334 -1.0485814 -0.75430012
2.3263967 -1.0648354 -0.75578696
2.3128932 -1.0758694 -0.75340796
2.2984788 -1.0863701 -0.75073159
2.2977948 -1.1033449 -0.75281322
2.2798252 -1.1119837 -0.74894738
2.2763817 -1.1276462 -0.75013685
2.2591839 -1.1364455 -0.74656838
2.2547193 -1.1515887 -0.74746048
2.2535443 -1.1684772 -0.74954212
2.2505572 -1.1845055 -0.75102895
2.2373512 -1.1951442 -0.74894738
0 -0 -0
2.2016008 -1.2110094 -0.74151301
2.1907938 -1.2226348 -0.74032348
2.1691248 -1.2280599 -0.73526812
2.1574087 -1.2389696 -0.73378122
2.1613171 -1.2589096 -0.73794448
2.1658838 -1.2794296 -0.74240512
2.154716 -1.2907331 -0.74121559
2.156549 -1.3098762 -0.74478412
2.1533494 -1.326087 -0.74656838
2.1476021 -1.3407912 -0.74746048
2.1328797 -1.3498597 -0.74508148
2.1309867 -1.3670446 -0.74746048
2.1241596 -1.381135 -0.74805522
2.1172397 -1.3951931 -0.74864995
2.1046689 -1.4055074 -0.74716312
2.092051 -1.4157201 -0.74567622
2.0825374 -1.4279902 -0.74537885
2.0745206 -1.4412862 -0.74567622
2.0578296 -1.4484937 -0.74270248
2.0527902 -1.4638641 -0.74418938
2.0499618 -1.4809041 -0.74656838
2.04546 -1.4968368 -0.74835259
2.0462093 -1.5167489 -0.75221848
2.0292282 -1.5235444 -0.74924475
2.0206017 -1.5365447 -0.74954212
0 -0 -0
2.0038526 -1.5629861 -0.75043422
2.0099602 -1.5876777 -0.75667912
1.9964522 -1.5969993 -0.75519222
1.9806798 -1.6044124 -0.75281322
1.9671065 -1.6135086 -0.75132638
1.9645147 -1.6316472 -0.75430012
1.9603126 -1.6485857 -0.75667912
1.9545224 -1.6642962 -0.75846338
1.9442736 -1.6762576 -0.75846338
1.9253192 -1.6806228 -0.75489485
1.9128243 -1.6905082 -0.75400275
1.9045504 -1.7041229 -0.75489485
1.8919351 -1.7138543 -0.75400275
1.8806797 -1.7247856 -0.75370538
1.8602644 -1.7271994 -0.74954212
1.8378032 -1.7274666 -0.74448675
1.8347784 -1.7459493 -0.74775785
1.8130276 -1.7465777 -0.74299985
1.7988585 -1.754337 -0.74151301
1.7914579 -1.7686949 -0.74299985
1.7670637 -1.766157 -0.73705238
1.787742 -1.8088778 -0.75102895
1.7892835 -1.8327916 -0.75667912
1.7740269 -1.839613 -0.75489485
1.7633644 -1.8511548 -0.75519222
1.7473922 -1.8570731 -0.75311059
1.7320639 -1.8635645 -0.75132638
1.7167219 -1.8699378 -0.74954212
1.710989 -1.8868008 -0.75221848
1.6891857 -1.8858862 -0.74746048
1.6839098 -1.9033653 -0.75043422
1.6784828 -1.9208502 -0.75340796
1.6610497 -1.9246087 -0.75073159
1.6572624 -1.9442091 -0.75459749
1.6477618 -1.9572625 -0.75578696
1.6369424 -1.9688042 -0.75638175
1.6333152 -1.9891403 -0.76054496
1.6204778 -1.9983832 -0.76024759
1.6093793 -2.009779 -0.76084238
1.6017557 -2.0256066 -0.76322132
1.5851827 -2.0301297 -0.76113975
1.5738624 -2.0413301 -0.76173449
1.5601505 -2.0494294 -0.76113975
1.540661 -2.0498061 -0.75757122
1.5291927 -2.0607543 -0.75816596
1.5136976 -2.0662477 -0.75667912
1.496514 -2.0693083 -0.75430012
1.4799047 -2.0730128 -0.75221848
1.4633064 -2.0765917 -0.75013685
1.4478108 -2.0816128 -0.74864995
1.4387943 -2.0959666 -0.75073159
1.415194 -2.0889482 -0.74478412
1.4071268 -2.1047351 -0.74746048
1.3968153 -2.1173139 -0.74894738
1.3801504 -2.120244 -0.74686575
1.3702114 -2.1334922 -0.74864995
1.3555613 -2.1394401 -0.74775785
1.3424084 -2.1477175 -0.74775785
1.336723 -2.1681035 -0.75221848
1.321906 -2.1738174 -0.75132638
1.3070692 -2.1794314 -0.75043422
1.2970749 -2.1931624 -0.75251585
1.2792636 -2.1936576 -0.74983948
1.2714919 -2.2113974 -0.75340796
1.2517768 -2.2083604 -0.74954212
1.2405322 -2.2201667 -0.75102895
1.2333362 -2.2394443 -0.75519222
1.22595 -2.2587163 -0.75935549
1.2152207 -2.272089 -0.76143712
1.2008113 -2.2786582 -0.76113975
1.1841668 -2.2808995 -0.75935549
1.1740627 -2.2957723 -0.76203185
1.1565171 -2.2961118 -0.75965285
1.1411334 -2.3005991 -0.75876075
1.1282532 -2.3101313 -0.75965285
1.1140573 -2.3170106 -0.75965285
1.0990022 -2.3220768 -0.75905812
1.0855401 -2.3305073 -0.75965285
1.0720158 -2.33886 -0.76024759
1.0541111 -2.3375609 -0.75757122
1.0358756 -2.335258 -0.75459749
1.0207634 -2.3398199 -0.75400275
1.0033751 -2.3390203 -0.75162375
0.99457127 -2.3583279 -0.75608438
0.97935069 -2.362622 -0.75548959
0.96195292 -2.3615136 -0.75311059
0 -0 -0
0.93394941 -2.3758059 -0.75400275
0.91935414 -2.3814919 -0.75400275
0.90337026 -2.383517 -0.75281322
0.88806218 -2.3872256 -0.75221848
0.87503541 -2.3971138 -0.75370538
0.8635307 -2.4114261 -0.75667912
0.85156673 -2.4247861 -0.75935549
0.83542866 -2.4263546 -0.75816596
0.82388473 -2.4413857 -0.76143712
0.80858928 -2.4454885 -0.76113975
0.79003721 -2.4395046 -0.75757122
0.76985687 -2.4279251 -0.75221848
0.75409549 -2.4298677 -0.75132638
0.7413922 -2.4417574 -0.75370538
0.72911507 -2.4554126 -0.75667912
0.71243745 -2.454339 -0.75489485
0.69840717 -2.4623382 -0.75608438
0.68813092 -2.4840586 -0.76173449
0.66913539 -2.4744098 -0.75727385
0.65857077 -2.4960084 -0.76292396
0.64086264 -2.4907563 -0.75995022
0.62161726 -2.4788988 -0.75489485
0.6116091 -2.5039978 -0.76173449
0.59402347 -2.4984152 -0.75876075
0.5797587 -2.5066638 -0.76024759
0.57107359 -2.5399811 -0.76976359
0.54997373 -2.5182533 -0.76173449
0.53530413 -2.5253165 -0.76292396
0.52172297 -2.5379052 -0.76589775
0.50371438 -2.5288863 -0.76203185
0.48891154 -2.5356793 -0.76322132
0.47211766 -2.5320616 -0.76113975
0.45504788 -2.5264542 -0.75846338
0.43953729 -2.5291986 -0.75846338
0.4235366 -2.5290232 -0.75757122
0.40542579 -2.5155506 -0.75251585
0.39027557 -2.5198779 -0.75311059
0.3734017 -2.5127814 -0.75013685
0.35609093 -2.5017924 -0.74597359
0.34202236 -2.5133903 -0.74894738
0.32745558 -2.5220692 -0.75102895
0.31033257 -2.5107656 -0.74686575
0.29748431 -2.5344317 -0.75370538
0.28034329 -2.521976 -0.74924475
0.26456404 -2.5208001 -0.74835259
0.2491857 -2.5233259 -0.74864995
0.23431519 -2.5314622 -0.75073159
0.21886033 -2.5338035 -0.75102895
0.20476204 -2.5531809 -0.75667912
0.18888028 -2.5515327 -0.75578696
0.17438699 -2.5697899 -0.76113975
0.15873365 -2.5727174 -0.76173449
0.14262621 -2.5679233 -0.75995022
0.12696153 -2.5706573 -0.76054496
0.11114449 -2.5704339 -0.76024759
0.095157288 -2.5653429 -0.75846338
0.079414845 -2.5658786 -0.75846338
0.063264363 -2.5500915 -0.75340796
0.0473825 -2.538022 -0.74954212
0.031941831 -2.5487666 -0.75281322
0.016283529 -2.5460503 -0.75192112
0.00065738906 -2.5375094 -0.74924475
-0.014879714 -2.5317373 -0.74746048
-0.030459164 -2.5354171 -0.74864995
-0.046170224 -2.5437739 -0.75132638
-0.061731588 -2.5415337 -0.75073159
-0.077440552 -2.5449245 -0.75192112
-0.093401924 -2.5539427 -0.75489485
-0.10907086 -2.5533216 -0.75489485
-0.12510732 -2.5602334 -0.75727385
-0.14065735 -2.5565574 -0.75638175
-0.15587622 -2.5480223 -0.75400275
-0.17150766 -2.5470178 -0.75400275
-0.18629454 -2.5344913 -0.75043422
-0.20078282 -2.5199759 -0.74627101
-0.2173011 -2.5310631 -0.75013685
-0.2332641 -2.5344357 -0.75162375
-0.24871753 -2.5320065 -0.75132638
-0.26504108 -2.5380297 -0.75370538
-0.28039947 -2.5344577 -0.75311059
-0.29815859 -2.551656 -0.75905812
-0.31462502 -2.556412 -0.76113975
-0.3293266 -2.5468581 -0.75876075
-0.34405091 -2.5381665 -0.75667912
-0.35881492 -2.5303357 -0.75489485
-0.37433401 -2.5280864 -0.75489485
-0.38838407 -2.5163059 -0.75192112
-0.40321141 -2.5101047 -0.75073159
-0 -0 -0
-0.43202984 -2.4936783 -0.74716312
-0.44867149 -2.4984987 -0.74954212
-0.46469101 -2.4994533 -0.75073159
-0.47821736 -2.4871788 -0.74775785
-0.49477056 -2.4907532 -0.74983948
-0.51042742 -2.4895411 -0.75043422
-0.52628541 -2.4891648 -0.75132638
-0 -0 -0
-0.55700052 -2.4834507 -0.75162375
-0.57544589 -2.4939415 -0.75608438
-0.59183872 -2.4950087 -0.75757122
-0.60510343 -2.4829814 -0.75489485
-0 -0 -0
-0.63196862 -2.4614968 -0.75043422
-0.64487362 -2.4492629 -0.74775785
-0.66138154 -2.4507909 -0.74954212
-0.67411846 -2.4384041 -0.74686575
-0.6916666 -2.4434087 -0.74983948
-0 -0 -0
-0 -0 -0
-0 -0 -0
-0 -0 -0
-0 -0 -0
-0 -0 -0
-0 -0 -0
-0 -0 -0
-0.83664465 -2.4340138 -0.76054496
-0.8540898 -2.4360428 -0.76292396
-0.87384009 -2.4442425 -0.76738459
-0 -0 -0
-0 -0 -0
-0 -0 -0
-0.90472913 -2.3472233 -0.74240512
-0.92016047 -2.3442943 -0.74329722
-0.93417335 -2.3377175 -0.74299985
-0 -0 -0
-0.96972549 -2.3428402 -0.74864995
-0.9866755 -2.3430059 -0.75073159
-0.99953014 -2.3333969 -0.74954212
-1.0218337 -2.3456025 -0.75578696
-1.0396856 -2.3471458 -0.75846338
-0 -0 -0
-1.0680132 -2.3333423 -0.75816596
-1.0823102 -2.326745 -0.75816596
-1.0912644 -2.3088379 -0.75430012
-1.103758 -2.2986557 -0.75311059
-1.1128205 -2.2815416 -0.74954212
-1.1255279 -2.2721035 -0.74864995
-1.139448 -2.2651548 -0.74864995
-1.1550618 -2.2615221 -0.74983948
-1.1693559 -2.2552397 -0.75013685
-1.1889509 -2.2590067 -0.75400275
-1.2032392 -2.252511 -0.75430012
-1.2184024 -2.2476041 -0.75519222
-1.2340106 -2.2434323 -0.75638175
-1.2458922 -2.2324831 -0.75519222
-1.2605075 -2.2264583 -0.75578696
-1.2731943 -2.217026 -0.75519222
-1.2853326 -2.2066967 -0.75430012
-1.2998194 -2.200413 -0.75489485
-1.3201635 -2.2038636 -0.75905812
-1.3277149 -2.1859286 -0.75548959
-1.3426042 -2.1801798 -0.75638175
-1.3534287 -2.167851 -0.75489485
-1.3697677 -2.1643467 -0.75667912
-1.390753 -2.1679568 -0.76113975
-1.4055902 -2.1617839 -0.76203185
-1.4167273 -2.1499295 -0.76084238
-1.4357235 -2.149931 -0.76411349
-1.4467484 -2.1379178 -0.76292396
-1.4598391 -2.1290004 -0.76292396
-1.4750535 -2.1231399 -0.76411349
-1.4820093 -2.1054599 -0.76084238
-1.4954544 -2.0971043 -0.76113975
-1.506617 -2.0855668 -0.76024759
-1.5216403 -2.0793655 -0.76143712
-1.5372125 -2.0738254 -0.76292396
-1.5458964 -2.0590088 -0.76084238
-1.5642792 -2.0570853 -0.76381612
-1.5792016 -2.0504744 -0.76500559
-1.5982113 -2.0490282 -0.76827675
-1.6125289 -2.0414312 -0.76916885
-1.619658 -2.0247874 -0.76649249
-1.6356565 -2.0192633 -0.76827675
-1.6589127 -2.0224783 -0.77362949
-1.6548237 -1.9924282 -0.76560032
-1.6670178 -1.9822369 -0.76560032
-1.6692472 -1.9603385 -0.76084238
-1.6968273 -1.9681396 -0.76827675
-1.6925501 -1.9389873 -0.76054496
-1.7075764 -1.9321431 -0.76203185
-1.7174901 -1.9194944 -0.76113975
-1.7311581 -1.9110429 -0.76203185
-1.7428515 -1.9003848 -0.76203185
-1.7557783 -1.8910546 -0.76262659
-1.7581953 -1.8705049 -0.75846338
-1.7847748 -1.875592 -0.76530296
-1.7922759 -1.8604792 -0.76351875
-1.8063238 -1.8521816 -0.76470822
-1.8156426 -1.8390247 -0.76381612
-1.8248678 -1.8258233 -0.76292396
-1.8421474 -1.8206329 -0.76560032
-1.8491853 -1.8052931 -0.76381612
-1.8622891 -1.7959013 -0.76470822
-1.8753471 -1.7864166 -0.76560032
-1.8890541 -1.7774936 -0.76678985
-1.9076166 -1.7730203 -0.77006096
-1.9184598 -1.761282 -0.77006096
-1.9341807 -1.7539676 -0.77214259
-1.9463286 -1.743341 -0.77273732
-1.9612789 -1.7351621 -0.77452159
-1.9618248 -1.7142985 -0.77035832
-1.9672477 -1.6978612 -0.76827675
-1.9660044 -1.6758468 -0.76351875
-1.9791714 -1.6662121 -0.76470822
-1.9878898 -1.6528157 -0.76411349
-1.9928293 -1.6363451 -0.76203185
-1.9939343 -1.6168691 -0.75846338
-2.0105243 -1.6099762 -0.76113975
-2.0121279 -1.591094 -0.75786859
-2.025615 -1.5816565 -0.75935549
-2.0284774 -1.5639499 -0.75667912
-2.0403142 -1.5532093 -0.75757122
-2.0452275 -1.5372185 -0.75578696
-2.0707204 -1.5365906 -0.76203185
-2.0824201 -1.5255491 -0.76292396
-2.0785911 -1.5032294 -0.75786859
-2.0885525 -1.4910018 -0.75816596
-2.1007833 -1.4803591 -0.75935549
-2.104341 -1.463624 -0.75727385
-2.1046243 -1.4447393 -0.75400275
-2.1142397 -1.4323341 -0.75430012
-2.1317186 -1.4251728 -0.75757122
-2.1276731 -1.4036518 -0.75281322
-2.1370459 -1.3910912 -0.75311059
-2.1479509 -1.3795005 -0.75400275
-2.1563749 -1.366295 -0.75400275
-2.1679561 -1.3550627 -0.75519222
-2.1737919 -1.3402313 -0.75430012
-2.1713703 -1.3204173 -0.75043422
-2.1786127 -1.306578 -0.75013685
-2.1808367 -1.2897826 -0.74805522
-2.1920083 -1.2783014 -0.74924475
-2.1923618 -1.2605431 -0.74656838
-2.1992247 -1.2465965 -0.74627101
-2.2043321 -1.2316812 -0.74537885
-2.2135205 -1.219054 -0.74597359
-2.2209587 -1.2054491 -0.74597359
-2.2182114 -1.1863939 -0.74240512
-2.2127805 -1.1660821 -0.73794448
-2.220741 -1.1529229 -0.73824185
-2.2320235 -1.1414492 -0.73972875
-2.2372799 -1.126873 -0.73913401
-2.2424417 -1.1122754 -0.73853922
-2.2646654 -1.1060393 -0.74389201
-2.2739906 -1.0933644 -0.74478412
-2.2866969 -1.0822508 -0.74686575
-2.2976215 -1.0702159 -0.74835259
-2.3006735 -1.0545059 -0.74716312
-2.3018787 -1.0380138 -0.74537885
-2.3090773 -1.0242574 -0.74567622
-2.3048179 -1.0054871 -0.74210775
-0 -0 -0
-0.27526519 -0.1157087 -0.051900655
-0.27067837 -0.11182311 -0.050116405
-0.29434758 -0.11952844 -0.057848152
-0.28000742 -0.11168703 -0.052792776
-0.26025161 -0.10192969 -0.045953155
-0 -0 -0
-0 -0 -0
-0 -0 -0
-0 -0 -0
-0 -0 -0
-0 -0 -0
-0 -0 -0
-0 -0 -0
-0 -0 -0
-0 -0 -0
-0 -0 -0
-0 -0 -0
-0.25292954 -0.076427594 -0.041195158
-0 -0 -0
-0 -0 -0
-0.26898929 -0.075929746 -0.045953155
-0.254729 -0.070197374 -0.041195158
-0.26621434 -0.071625605 -0.044763658
-0.26572567 -0.069747075 -0.044466283
-0.26614863 -0.068115301 -0.044466283
-0.26748762 -0.066713333 -0.044763658
-0.26789194 -0.0650708 -0.044763658
-0.26271316 -0.062099885 -0.042979408
-0.2677401 -0.061563171 -0.044466283
-0.26997578 -0.060338341 -0.045061029
-0.26847544 -0.058272954 -0.044466283
-0.26789394 -0.056426391 -0.044168908
-0.26542962 -0.054204382 -0.043276783
-0.26388454 -0.052201409 -0.042682033
-0.26232493 -0.050219454 -0.042087283
-0 -0 -0
-0.26198184 -0.046827156 -0.041789908
-0 -0 -0
-0 -0 -0
-0 -0 -0
-0 -0 -0
-0 -0 -0
-0 -0 -0
-0 -0 -0
-0 -0 -0
-0 -0 -0
-0 -0 -0
-0 -0 -0
-0 -0 -0
-0 -0 -0
-0 -0 -0
-0 -0 -0
-0 -0 -0
-0 -0 -0
-0 -0 -0
-0 -0 -0
-0 -0 -0
-0.25533763 -0.012255101 -0.038518783
-0 -0 -0
-0.2602393 -0.0092984801 -0.040005658
-0.26410866 -0.0078202374 -0.041195158
-0 0 -0
-0 0 -0
-0.28798112 0.023638368 -0.0524248
-0 0 -0
-0.28482944 0.02689079 -0.051499244
-0.29033536 0.029232344 -0.053350355
-0.2939322 0.031432722 -0.054584432
-0 0 -0
-0.29258028 0.034920894 -0.054275915
-0.28953052 0.036348727 -0.053350355
-0.28553179 0.037612423 -0.052116282
-0 0 -0
-0.27752137 0.039996758 -0.049648128
-0.2744506 0.041262753 -0.048722573
-0.27419224 0.042945974 -0.048722573
-0.27673814 0.045098245 -0.049648128
-0.27833062 0.047120713 -0.050265167
-0.28178105 0.049501192 -0.051499244
-0.28240716 0.051403366 -0.051807761
-0.28208643 0.053135216 -0.051807761
-0.28641978 0.055793036 -0.053350355
-0.29073095 0.058505997 -0.054892953
-0.29129708 0.060485814 -0.055201471
-0.29092047 0.062272042 -0.055201471
-0.2868205 0.063222192 -0.053967394
-0 0 -0
-0.28602305 0.06673716 -0.053967394
-0.28375995 0.068039946 -0.053350355
-0.2787236 0.068624049 -0.051807761
-0.27921855 0.070569776 -0.052116282
-0.2797001 0.072524153 -0.0524248
-0.28016812 0.074487083 -0.052733321
-0.2760388 0.075189874 -0.051499244
-0 0 -0
-0.26687315 0.076187059 -0.048722573
-0.26366487 0.077011466 -0.047797017
-0.26045659 0.077799402 -0.046871457
-0.25997433 0.079396069 -0.046871457
-0.26220265 0.081851624 -0.047797017
-0.26622057 0.084923193 -0.049339611
-0.27111369 0.08834549 -0.051190723
-0.27327058 0.090919152 -0.052116282
-0.27630544 0.093832038 -0.053350355
-0.27482694 0.095210679 -0.053041838
-0.27602878 0.097536147 -0.053658877
-0.27453148 0.098902024 -0.053350355
-0.27926913 0.10257331 -0.055201471
-0.28130314 0.10529566 -0.056127027
-0.28242671 0.10770444 -0.056744065
-0.28353125 0.11013094 -0.057361104
-0.28373337 0.11222181 -0.057669621
-0.28127739 0.11324338 -0.057052586
-0.27969846 0.11460309 -0.056744065
-0.27460724 0.11447003 -0.055201471
-0.2738997 0.11615284 -0.055201471
-0.27405378 0.11821142 -0.055509988
-0.2724537 0.11950526 -0.055201471
-0.27431697 0.12234722 -0.056127027
-0.27269629 0.12363196 -0.055818509
-0.26762074 0.1232957 -0.054275915
-0.26685917 0.12493547 -0.054275915
-0.26351544 0.12533458 -0.053350355
-0.26274145 0.12694912 -0.053350355
-0.26195756 0.12855887 -0.053350355
-0.2586149 0.12888071 -0.0524248
-0.26036024 0.13176382 -0.053350355
-0.26207983 0.13467315 -0.054275915
-0.25956529 0.13539219 -0.053658877
-0 0 -0
-0 0 -0
-0.25369591 0.13831228 -0.0524248
-0 0 -0
-0 0 -0
-0 0 -0
-0.25433421 0.14689159 -0.053967394
-0.26325446 0.1542577 -0.057669621
-0 0 -0
-0.25727737 0.15500644 -0.056127027
-0.26522937 0.16207133 -0.059520736
-0 0 -0
-0.24955884 0.1566623 -0.054275915
-0 0 -0
-0.24363095 0.15711927 -0.052733321
-0.24822117 0.16227658 -0.054892953
-0.245639 0.1627396 -0.054275915
-0.2422729 0.16264376 -0.053350355
-0.24205473 0.16466542 -0.053658877
-0.24260187 0.16723344 -0.054275915
-0.23612735 0.16488472 -0.052116282
-0.23743413 0.16798796 -0.053041838
-0 0 -0
-0.2414946 0.17538466 -0.055509988
-0.24499799 0.18026307 -0.057361104
-0.23628208 0.17604962 -0.054275915
-0 0 -0
-0.24314533 0.1859034 -0.057978142
-0.2442497 0.18914752 -0.058903698
-0.24159198 0.18946299 -0.058286659
-0.23893963 0.18975303 -0.057669621
-0.23629287 0.19001767 -0.057052586
-0.23806365 0.19387782 -0.058286659
-0.23613799 0.19472693 -0.057978142
-0.23275524 0.19433486 -0.057052586
-0.23011033 0.19452557 -0.056435548
-0 0 -0
-0 0 -0
-0.22007756 0.19305713 -0.053658877
-0 0 -0
-0 0 -0
-0 0 -0
-0 0 -0
-0 0 -0
-0 0 -0
-0 0 -0
-0 0 -0
-0 0 -0
-0 0 -0
-0 0 -0
-0 0 -0
-0 0 -0
-0 0 -0
-0 0 -0
-0 0 -0
-0 0 -0
-0 0 -0
-1.7188003 1.9182891 -0.79410446
-0 0 -0
-0 0 -0
-0 0 -0
-0 0 -0
-0 0 -0
-0 0 -0
-0 0 -0
-0 0 -0
-0 0 -0
-0 0 -0
-0 0 -0
-0 0 -0
-1.5552975 2.0423343 -0.79132777
-0 0 -0
-1.5261514 2.0559182 -0.78916812
-0 0 -0
-0 0 -0
-0 0 -0
-0 0 -0
-1.4770272 2.1228538 -0.79749811
-0 0 -0
-0 0 -0
-0 0 -0
-0 0 -0
-1.4055083 2.1583915 -0.79410446
-0 0 -0
-0 0 -0
-0 0 -0
-0 0 -0
-1.3169025 2.1647227 -0.78052962
-0 0 -0
-0 0 -0
-0 0 -0
-1.2411073 2.1576254 -0.76602918
-0 0 -0
-1.2159277 2.1751847 -0.76695478
-1.2025582 2.1826046 -0.76695478
-1.1891433 2.1899424 -0.76695478
-1.1788224 2.2030699 -0.76911438
-0 0 -0
-1.1490703 2.2123039 -0.76726329
-1.1346084 2.2176187 -0.76664627
-1.1162758 2.2151926 -0.76325256
-0 0 -0
-1.0869219 2.2244499 -0.76170993
-1.0691329 2.2225034 -0.75862473
-0 0 -0
-1.0441873 2.2406301 -0.76047587
-1.032796 2.2521839 -0.76232696
-1.0189574 2.2584786 -0.76232696
-1.0050805 2.2646885 -0.76232696
-0.99382645 2.2769167 -0.76448661
-0 0 -0
-0.96802664 2.2942004 -0.76633769
-0.95720744 2.3080063 -0.76911438
-0.94087619 2.3085499 -0.76726329
-0.92916578 2.320462 -0.76942289
-0.91630119 2.3296611 -0.770657
-0.89993548 2.3299148 -0.76880586
-0.88427502 2.3318346 -0.76757181
-0.86928767 2.3354332 -0.76695478
-0.8536377 2.3371484 -0.76572067
-0.84248549 2.3512986 -0.76880586
-0 0 -0
-0.81294918 2.3596611 -0.76818883
-0 0 -0
-0 0 -0
-0 0 -0
-0.087217584 0.27147865 -0.051190723
-0 0 -0
-0.084707871 0.27525929 -0.052116282
-0 0 -0
-0 0 -0
-0 0 -0
-0 0 -0
-0 0 -0
-0 0 -0
-0 0 -0
-0 0 -0
-0 0 -0
-0 0 -0
-0 0 -0
-0 0 -0
-0 0 -0
-0.055657327 0.25731647 -0.044094786
-0 0 -0
-0 0 -0
-0 0 -0
-0 0 -0
-0 0 -0
-0 0 -0
-0 0 -0
-0 0 -0
-0 0 -0
-0 0 -0
-0 0 -0
-0 0 -0
-0 0 -0
-0 0 -0
-0 0 -0
-0 0 -0
-0 0 -0
-0 0 -0
-0 0 -0
-0 0 -0
-0 0 -0
-0 0 -0
-0 0 -0
-0 0 -0
-0 0 -0
-0 0 -0
-0 0 -0
-0 0 -0
-0.076061822 2.4422727 -0.75122029
-0.060538452 2.4208219 -0.74412435
-0 0 -0
-0.030815031 2.4204314 -0.74381584
-0.01611999 2.4462574 -0.75214583
-0.0011096729 2.4491639 -0.75307143
0.013988422 2.4605389 -0.75677365
0.029085742 2.4604068 -0.75677365
0.044269614 2.4649372 -0.75831622
0.059346624 2.4627173 -0.75769919
0.074135266 2.4518485 -0.75430548
0.088722706 2.4389899 -0.75029474
0.10360467 2.4364989 -0.74967772
0.11813254 2.4272668 -0.74690104
0.13438936 2.4511902 -0.75492251
0 0 -0
0.16407406 2.4436622 -0.75307143
0.179205 2.4445066 -0.75368845
0.19336686 2.4329309 -0.75029474
0.20812814 2.4298031 -0.74967772
0.22277087 2.4256389 -0.74875212
0.23727709 2.4204397 -0.74751806
0.25113353 2.4094779 -0.74443287
0.26601794 2.4088371 -0.74474138
0.28134662 2.4118831 -0.74628401
0.29555807 2.4053912 -0.74474138
0 0 -0
0.32466954 2.3987553 -0.74381584
0.33978337 2.3995433 -0.74474138
0 0 -0
0.37022141 2.4017735 -0.74690104
0.38661388 2.4097869 -0.75029474
0.40045145 2.4017403 -0.7484436
0.41615656 2.4048612 -0.75029474
0.43225178 2.4097519 -0.75276291
0.44511417 2.3967679 -0.7493692
0.46089128 2.3995957 -0.75122029
0.47504947 2.393924 -0.75029474
0.48858148 2.3853734 -0.7484436
0.5008443 2.3711634 -0.74474138
0.51578951 2.3699045 -0.74535841
0.52698636 2.3518453 -0.74042213
0.54012233 2.3430066 -0.73857099
0.55360937 2.3359466 -0.73733693
0.5674811 2.3306575 -0.73671991
0.58223331 2.3289771 -0.73733693
0.59627593 2.3244395 -0.73702842
0.61489135 2.3372934 -0.74258178
0 0 -0
0.65012401 2.3534074 -0.75060326
0.66455197 2.3493741 -0.75060326
0.6771003 2.3388572 -0.7484436
0.69306183 2.3401301 -0.75029474
0.70078009 2.3139875 -0.7428903
0.7132749 2.3041928 -0.74103916
0.72653788 2.2970524 -0.74011362
0.73622584 2.278976 -0.73548579
0.75168753 2.2789316 -0.73702842
0.7650488 2.2724738 -0.73641139
0.78114426 2.2740331 -0.73857099
0 0 -0
0.81219608 2.273232 -0.74165618
0.82482517 2.2646313 -0.74042213
0.83539075 2.2506115 -0.73733693
0.84918451 2.2454433 -0.73733693
0.86294633 2.2401905 -0.73733693
0.87528443 2.231312 -0.73610288
0.88825262 2.224133 -0.73548579
0.89757925 2.2080686 -0.73178357
0.91475117 2.2113075 -0.73486876
0.93310475 2.2170484 -0.7388795
0.94556636 2.2086585 -0.73795396
0.96062124 2.2063026 -0.73918808
0.97799569 2.2090631 -0.74227321
0.99348593 2.2073567 -0.74381584
1.0109726 2.2098672 -0.74690104
1.0229074 2.2001729 -0.74566692
1.0347613 2.1904156 -0.74443287
1.0465339 2.1805956 -0.74319881
0 0 -0
1.0732144 2.1675889 -0.74319881
1.091199 2.1703091 -0.74659252
1.1066598 2.1678078 -0.74813509
1.1155593 2.1525333 -0.74504989
1.1398277 2.1666884 -0.75276291
1.1441324 2.1428761 -0.74659252
1.1599807 2.1408322 -0.7484436
1.1763054 2.1395078 -0.75060326
1.1861646 2.1264362 -0.7484436
1.1996588 2.1199458 -0.74875212
1.2135917 2.1141944 -0.7493692
1.2255833 2.1050644 -0.74875212
1.2476733 2.1130631 -0.754614
1.2523016 2.0914979 -0.7493692
1.2616529 2.0780845 -0.74720955
1.2708869 2.0646353 -0.74504989
1.2860513 2.060832 -0.74659252
1.2976543 2.051295 -0.74597549
1.3132993 2.0480971 -0.74782658
1.3196166 2.0304325 -0.74412435
1.3341447 2.0254736 -0.74535841
1.3454907 2.0156677 -0.74474138
1.3546333 2.0026481 -0.7428903
1.3577473 1.9809644 -0.73764545
1.3693337 1.9718151 -0.73733693
1.3841455 1.9672644 -0.7388795
1.3984003 1.9618317 -0.74011362
1.4098543 1.9524434 -0.7398051
1.4240556 1.9468259 -0.74103916
1.4399409 1.9433994 -0.74319881
1.4529809 1.9360486 -0.74381584
1.4677129 1.9308819 -0.74535841
1.4731461 1.9135518 -0.7419647
1.4848597 1.9044766 -0.7419647
1.5018258 1.9020463 -0.74474138
1.5152514 1.8950235 -0.74566692
1.5268506 1.8856903 -0.74566692
1.5383922 1.8762863 -0.74566692
1.5431883 1.8587643 -0.74227321
1.5515022 1.8456213 -0.74073064
0 0 -0
0 0 -0
1.5745738 1.8045713 -0.73548579
1.5893974 1.7991513 -0.73733693
1.5966001 1.7851129 -0.73548579
1.6151891 1.7837403 -0.73918808
1.6280328 1.7758987 -0.74011362
1.6291877 1.7554222 -0.73548579
1.650355 1.7564794 -0.74042213
1.6611015 1.7463199 -0.74042213
1.6678246 1.7319856 -0.73857099
1.6770918 1.7203578 -0.73795396
1.6815997 1.7039444 -0.73517728
1.690678 1.6922492 -0.73456025
1.7044134 1.6851858 -0.73610288
1.7167639 1.6766888 -0.73702842
1.7283894 1.6674436 -0.73764545
1.7482331 1.6659894 -0.7419647
1.7646589 1.661096 -0.74474138
1.7810904 1.6560634 -0.74751806
1.7870129 1.6412451 -0.74566692
1.7970498 1.6302493 -0.74566692
1.8126888 1.6242677 -0.74813509
1.8233336 1.6137447 -0.7484436
1.8303353 1.6000239 -0.74720955
0 0 -0
1.848384 1.5762086 -0.74659252
1.860932 1.5672871 -0.74782658
1.8778297 1.5619184 -0.75091177
1.8873781 1.5503669 -0.75091177
1.8975945 1.5393559 -0.75122029
1.9055187 1.5264947 -0.75060326
1.9230585 1.5212617 -0.75399697
1.9353561 1.5117742 -0.75523102
0 0 -0
1.9325655 1.4717838 -0.74659252
1.9544891 1.4696102 -0.75183731
1.9565933 1.4524903 -0.74906063
1.9700738 1.4438292 -0.75091177
1.9796668 1.432271 -0.75122029
1.9760283 1.4112576 -0.74628401
1.9854282 1.3996542 -0.74659252
0 0 -0
2.0024545 1.3751844 -0.74659252
2.0053413 1.3591387 -0.74443287
2.0239251 1.3536785 -0.7484436
2.0321929 1.3412343 -0.7484436
2.0387895 1.3277024 -0.74782658
2.0500998 1.3172228 -0.74906063
2.0589473 1.3051277 -0.7493692
2.0717573 1.2954934 -0.75122029
2.0772376 1.28126 -0.75029474
2.0777442 1.2640442 -0.74751806
2.0895407 1.2537166 -0.74906063
2.097194 1.2408718 -0.74906063
2.0981936 1.2241486 -0.74659252
2.1081398 1.2126731 -0.74751806
2.1056089 1.1940888 -0.74381584
2.1095741 1.1792916 -0.74258178
2.1292706 1.173205 -0.74720955
2.1364291 1.160118 -0.74720955
2.1418295 1.1460904 -0.74659252
2.1639709 1.1409049 -0.75214583
2.1726193 1.1284817 -0.75276291
2.1701856 1.110368 -0.7493692
2.1769578 1.0970311 -0.7493692
0 0 -0
2.1774335 1.0639758 -0.74474138
0 0 -0
2.200645 1.0420554 -0.7484436
2.2087221 1.0293357 -0.74906063
2.2236447 1.0197248 -0.75214583
2.2324615 1.007234 -0.75307143
2.2525136 0.9996841 -0.75800771
2.2551174 0.98432368 -0.75677365
2.2532461 0.96709526 -0.75399697
2.2565079 0.95214319 -0.75307143
2.2526407 0.93427569 -0.74967772
2.2548068 0.91900176 -0.7484436
2.2586367 0.90444285 -0.74782658
2.2650292 0.89091486 -0.74813509
2.2527034 0.87015373 -0.7419647
2.2660062 0.85934681 -0.74474138
2.2792611 0.8484093 -0.74751806
2.2897856 0.83636361 -0.7493692
2.3002481 0.82422066 -0.75122029
2.324111 0.81670469 -0.75769919
2.3218827 0.79995346 -0.75523102
2.3582952 0.79632801 -0.76602918
2.3522985 0.77826244 -0.76232696
2.3434541 0.75942218 -0.75769919
2.347163 0.74474144 -0.75739068
2.3426027 0.72750866 -0.75430548
2.3424714 0.71174049 -0.75276291
2.3431466 0.69627196 -0.7515288
0 0 -0
2.339617 0.66409457 -0.74751806
2.3436477 0.64972645 -0.74751806
2.3512635 0.63632607 -0.74875212
0 0 -0
0 0 -0
2.3754959 0.59617466 -0.75307143
2.3772609 0.58113682 -0.75245434
2.37708 0.56566018 -0.75122029
2.3869939 0.55256265 -0.75337994
2.3875551 0.53728074 -0.75245434
2.3870893 0.52181011 -0.75122029
2.3874543 0.50656241 -0.75029474
2.3877223 0.49132991 -0.7493692
2.3944237 0.47741207 -0.75060326
2.4010444 0.46343049 -0.75183731
2.3991668 0.44781879 -0.75029474
2.4037418 0.43342605 -0.75091177
2.3960466 0.41688019 -0.74751806
2.3994977 0.40232733 -0.74782658
2.4028604 0.38774779 -0.74813509
2.3929737 0.37110761 -0.74412435
0 0 -0
2.3747451 0.33850357 -0.73671991
2.3777201 0.32405403 -0.73702842
0 0 -0
0 0 -0
2.3880057 0.28078622 -0.73857099
2.3868475 0.26581392 -0.73764545
2.4045165 0.25284687 -0.7428903
2.4117024 0.23864757 -0.74474138
2.3960719 0.22227184 -0.73918808
2.4172926 0.20927906 -0.74566692
2.4242203 0.19489755 -0.74751806
2.4291651 0.18029895 -0.74875212
2.4349709 0.16571115 -0.75029474
2.4235992 0.15000932 -0.74628401
2.4292231 0.13539799 -0.74782658
2.428108 0.1203967 -0.74720955
2.4211981 0.10516926 -0.74474138
2.4113417 0.089926183 -0.74134767
2.4023402 0.0748372 -0.73826247
0 0 -0
2.4040289 0.045368642 -0.73857099
2.4080665 0.030663554 -0.7398051
2.406307 0.015875727 -0.73918808
2.4092126 0.0011105445 -0.74011362
2.4120278 -0.0136897 -0.74103916
2.4147518 -0.028524447 -0.7419647
2.4183354 -0.043410666 -0.74319881
0 -0 -0
2.4442422 -0.073901668 -0.75183731
2.4465945 -0.089002967 -0.75276291
2.4498036 -0.10417677 -0.75399697
2.4519687 -0.1193466 -0.75492251
2.4502404 -0.13433683 -0.754614
2.4484205 -0.14931035 -0.75430548
2.4465091 -0.16426659 -0.75399697
2.4264824 -0.17787506 -0.74782658
2.4386201 -0.19382176 -0.75214583
2.4392803 -0.20894445 -0.75276291
2.461632 -0.22609383 -0.76047587
2.4601984 -0.24119386 -0.76047587
2.4539421 -0.25578949 -0.75893325
2.4778526 -0.27367318 -0.76726329
0 -0 -0
0 -0 -0
2.4384356 -0.31483495 -0.75615656
2.4119513 -0.32646206 -0.74813509
2.4193203 -0.34259352 -0.75122029
2.4209363 -0.35799012 -0.75245434
2.4233944 -0.37356478 -0.75399697
2.4154217 -0.38752064 -0.75214583
2.4158132 -0.40280476 -0.75307143
2.4189193 -0.41859621 -0.75492251
2.4078796 -0.43191501 -0.75214583
2.410795 -0.44772613 -0.75399697
2.4136066 -0.46358928 -0.75584805
2.3995216 -0.47616303 -0.75214583
2.3937593 -0.49030331 -0.75122029
2.3981504 -0.50655812 -0.75368845
2.3791981 -0.5178169 -0.7484436
2.3713355 -0.53136343 -0.74690104
2.3532016 -0.54247773 -0.7419647
2.3452013 -0.55580741 -0.74042213
2.3472915 -0.57153976 -0.74227321
2.3446631 -0.58616287 -0.74258178
2.3557627 -0.60432726 -0.74751806
2.3575289 -0.62022531 -0.7493692
2.3564339 -0.63542342 -0.75029474
2.3579912 -0.65139258 -0.75214583
2.3429677 -0.66273659 -0.7484436
2.3361166 -0.67630541 -0.74751806
2.3310108 -0.69035631 -0.74720955
2.3139875 -0.70078009 -0.7428903
2.3250892 -0.71975458 -0.74813509
2.3179088 -0.73314559 -0.74720955
2.3197017 -0.74940419 -0.7493692
2.3240917 -0.76660752 -0.75245434
2.3112321 -0.77811801 -0.74967772
2.3109114 -0.79383212 -0.75122029
2.3042018 -0.80736673 -0.75060326
2.3001003 -0.82181031 -0.75091177
0 -0 -0
2.2987583 -0.85328859 -0.75399697
0 -0 -0
2.2987638 -0.88554198 -0.75769919
2.298599 -0.90171701 -0.75955027
2.2886069 -0.91403788 -0.75800771
2.2829554 -0.92806327 -0.75800771
2.2737026 -0.94059765 -0.75677365
2.2678883 -0.95453107 -0.75677365
2.2549946 -0.96543032 -0.75430548
2.2472847 -0.97848821 -0.75368845
2.2525432 -0.99727029 -0.75769919
2.2316389 -1.0044289 -0.75245434
2.2237041 -1.0173109 -0.75183731
2.2191451 -1.0317389 -0.75245434
0 -0 -0
2.2028873 -1.0572456 -0.75122029
2.2006328 -1.0728285 -0.75276291
2.1905997 -1.0846213 -0.7515288
2.1957984 -1.1040299 -0.75584805
2.1966059 -1.1213784 -0.75862473
2.1922169 -1.1361496 -0.75955027
2.1961453 -1.1553419 -0.76356107
2.1856594 -1.1670017 -0.76232696
2.1684241 -1.1749481 -0.75862473
2.1511743 -1.182727 -0.75492251
2.1339107 -1.1903386 -0.75122029
2.11498 -1.1968455 -0.74690104
2.1141944 -1.2135917 -0.7493692
2.106708 -1.2265414 -0.7493692
2.1040556 -1.2423489 -0.75122029
2.1045518 -1.2601262 -0.75430548
0 -0 -0
2.1043162 -1.2953387 -0.76016736
2.0987487 -1.3097382 -0.7610929
2.0770111 -1.3139396 -0.75584805
2.0729122 -1.3292283 -0.75739068
2.0583386 -1.3377725 -0.75492251
2.0500915 -1.3503771 -0.75492251
2.0314856 -1.3560605 -0.75091177
2.0168254 -1.3642333 -0.7484436
2.0013576 -1.3717393 -0.74566692
1.9866548 -1.3796499 -0.74319881
1.9695975 -1.3857887 -0.7398051
1.9641546 -1.4000578 -0.74103916
1.9670907 -1.4204419 -0.74566692
1.9529656 -1.4285512 -0.74350733
1.9449275 -1.4410741 -0.74381584
1.9543011 -1.4666929 -0.75122029
1.9316388 -1.4682889 -0.74566692
1.9361554 -1.4905648 -0.75122029
1.9284728 -1.5035872 -0.75183731
1.9095091 -1.507724 -0.74782658
1.8987366 -1.5182234 -0.74720955
1.8856903 -1.5268506 -0.74566692
1.8762863 -1.5383922 -0.74566692
1.8741273 -1.5559555 -0.74875212
1.8609058 -1.5643635 -0.74720955
1.8563403 -1.5800706 -0.7493692
1.848771 -1.5932951 -0.75029474
1.8439749 -1.6089891 -0.75245434
1.8383431 -1.624054 -0.75430548
1.8297609 -1.6365721 -0.75492251
1.8281422 -1.6554344 -0.75862473
1.8088391 -1.6582597 -0.754614
1.7867827 -1.6583214 -0.7493692
1.7641014 -1.6575234 -0.74381584
1.7525201 -1.6670047 -0.74319881
0 -0 -0
1.7258041 -1.6824064 -0.74042213
1.7188321 -1.6963065 -0.7419647
1.7211708 -1.719601 -0.74782658
1.7239563 -1.7436644 -0.75399697
1.7185394 -1.7596562 -0.75646514
1.7057296 -1.7681131 -0.75553954
1.7027192 -1.7868133 -0.75924176
1.6858586 -1.7909908 -0.75646514
1.6767797 -1.8033921 -0.75739068
1.6553932 -1.8024324 -0.75245434
1.6379147 -1.8055077 -0.7493692
1.6344188 -1.8240284 -0.75307143
1.6206757 -1.8311722 -0.75183731
1.6100351 -1.8417985 -0.75214583
1.6018101 -1.8552443 -0.75368845
1.5891627 -1.8635898 -0.75307143
1.5795352 -1.8754891 -0.75399697
1.573469 -1.8917301 -0.75677365
1.5624355 -1.9020844 -0.75708216
1.5483395 -1.9086795 -0.75584805
1.531844 -1.9122026 -0.75337994
1.5248004 -1.9275362 -0.75584805
1.5182114 -1.9436051 -0.75862473
1.5155466 -1.9649397 -0.76356107
0 -0 -0
1.4878918 -1.9788266 -0.76170993
1.4734554 -1.9848627 -0.76047587
1.460125 -1.9923313 -0.75985885
1.4450867 -1.9973983 -0.75831622
1.4212019 -1.9899665 -0.75183731
1.4029403 -1.9900945 -0.7484436
1.3923317 -2.0010085 -0.7493692
1.3886374 -2.022064 -0.75430548
1.3756708 -2.0297589 -0.75399697
1.3616052 -2.0357888 -0.75307143
1.3506589 -2.0464876 -0.75399697
1.3380765 -2.0547366 -0.75399697
1.3285265 -2.0677111 -0.75584805
1.3158143 -2.075824 -0.75584805
1.2980131 -2.0757911 -0.75276291
1.2872478 -2.0869558 -0.75399697
1.2749122 -2.0956278 -0.75430548
1.2586067 -2.0976996 -0.75214583
0 -0 -0
1.2337278 -2.1146305 -0.75276291
1.2169381 -2.1155627 -0.75029474
0 -0 -0
1.1876391 -2.1245234 -0.74813509
1.1805433 -2.1426041 -0.75214583
1.1768982 -2.1673665 -0.75862473
1.1613355 -2.1703525 -0.75708216
1.1510992 -2.1833289 -0.75924176
1.138557 -2.1920395 -0.75985885
1.1259512 -2.2006783 -0.76047587
1.1098609 -2.2024477 -0.75862473
1.0971709 -2.2109206 -0.75924176
1.0777434 -2.2056434 -0.75492251
1.0678971 -2.2199311 -0.75769919
1.0554758 -2.2290215 -0.75862473
1.0381664 -2.2276945 -0.75584805
1.0224975 -2.2296987 -0.75430548
1.0111418 -2.2411339 -0.75615656
1.000455 -2.2542529 -0.75862473
0.98166293 -2.2490137 -0.754614
0.96971852 -2.259366 -0.75615656
0.96100837 -2.2775457 -0.76047587
0.94555956 -2.2798841 -0.75924176
0.92940104 -2.2803569 -0.75739068
0.91468519 -2.28425 -0.75677365
0.90308636 -2.2960172 -0.75893325
0.88898128 -2.3015151 -0.75893325
0.87416899 -2.3051474 -0.75831622
0.85901421 -2.3077929 -0.75739068
0.84548956 -2.3148074 -0.75800771
0.83062935 -2.3181605 -0.75739068
0 -0 -0
0.79871577 -2.3182847 -0.75399697
0.78204483 -2.3159311 -0.7515288
0.77199686 -2.3333309 -0.75584805
0.75298029 -2.3235433 -0.75091177
0.73698562 -2.322679 -0.74906063
0.72074825 -2.3207974 -0.74690104
0.70318127 -2.3142531 -0.74319881
0.68842703 -2.3167002 -0.74258178
0.67446399 -2.3217943 -0.7428903
0.65994573 -2.3249738 -0.74258178
0 -0 -0
0.63657409 -2.3521817 -0.74906063
0 -0 -0
0.61192304 -2.3763995 -0.754614
0.59848577 -2.3847229 -0.75615656
0.58519477 -2.3938951 -0.75800771
0.57159388 -2.4020681 -0.75955027
0.55770069 -2.4092374 -0.76078439
0.54561645 -2.4246795 -0.76479512
0.53194481 -2.4335577 -0.76664627
0.51522988 -2.4284005 -0.76386958
0 -0 -0
0.4816798 -2.4158816 -0.75769919
0.46612787 -2.4150553 -0.75646514
0.45060423 -2.4141293 -0.75523102
0.43123749 -2.3915713 -0.74690104
0.4176932 -2.4007328 -0.74906063
0.40373895 -2.4079416 -0.75060326
0.38835216 -2.4066169 -0.7493692
0.37648457 -2.4277556 -0.75553954
0.36130196 -2.428138 -0.75492251
0.34773412 -2.4397268 -0.75800771
0.33390966 -2.4502978 -0.76078439
0.31947967 -2.4570172 -0.76232696
0.30288425 -2.4466584 -0.75831622
0.28731301 -2.4437468 -0.75677365
0 -0 -0
0.25670871 -2.4414124 -0.75492251
0.24116437 -2.4372616 -0.75307143
0 -0 -0
0.21148203 -2.4428806 -0.75399697
0.19664036 -2.4460287 -0.754614
0.18225771 -2.4557271 -0.75739068
0.16590355 -2.4378181 -0.75122029
0.15140873 -2.4463856 -0.75368845
0.13597529 -2.4396703 -0.75122029
0.12086323 -2.4376085 -0.75029474
0.10574078 -2.4345028 -0.74906063
0 -0 -0
0.075536981 -2.4251587 -0.74566692
0.060795009 -2.4312823 -0.74751806
0.045875795 -2.4316094 -0.74751806
0.031164598 -2.4489658 -0.75307143
0.01617815 -2.4557693 -0.75523102
0.0011096522 -2.450115 -0.75337994
-0.013935707 -2.4519782 -0.75399697
-0.028945418 -2.448993 -0.75307143
-0.043883964 -2.4440141 -0.7515288
-0.058972787 -2.4475024 -0.75276291
-0.074018471 -2.4480453 -0.75307143
-0.08917813 -2.4513474 -0.75430548
-0.1042585 -2.4517043 -0.754614
-0.11929991 -2.4510186 -0.754614
-0.1347045 -2.4568887 -0.75677365
-0.14954375 -2.4522183 -0.75553954
-0.16420241 -2.4455602 -0.75368845
-0.17836504 -2.4331229 -0.74998623
-0.19359431 -2.4357755 -0.75122029
-0.20845467 -2.433594 -0.75091177
-0.22364533 -2.4351108 -0.75183731
-0.23783663 -2.4261196 -0.7493692
-0.2520251 -2.4179924 -0.74720955
-0.26643741 -2.4126186 -0.74597549
-0.28123593 -2.4109385 -0.74597549
-0.29625681 -2.4110556 -0.74659252
-0 -0 -0
-0.32838258 -2.4260898 -0.75276291
-0.34299499 -2.4221456 -0.75214583
-0.35868809 -2.4256408 -0.75399697
-0.37385553 -2.4252744 -0.754614
-0.38827631 -2.4201174 -0.75368845
-0.40139276 -2.4073694 -0.75029474
-0.41696978 -2.4095473 -0.75183731
-0 -0 -0
-0.44511417 -2.3967679 -0.7493692
-0.45999196 -2.3949256 -0.74967772
-0.47300795 -2.3836615 -0.74690104
-0.48858148 -2.3853734 -0.7484436
-0 -0 -0
-0 -0 -0
-0 -0 -0
-0 -0 -0
-0 -0 -0
-0 -0 -0
-0 -0 -0
-0 -0 -0
-0 -0 -0
-0 -0 -0
-0 -0 -0
-0 -0 -0
-0 -0 -0
-0 -0 -0
-0 -0 -0
-0 -0 -0
-0 -0 -0
-0 -0 -0
-0 -0 -0
-0 -0 -0
-0 -0 -0
-0 -0 -0
-0 -0 -0
-0 -0 -0
-0 -0 -0
-0 -0 -0
-0 -0 -0
-0 -0 -0
-0 -0 -0
-0 -0 -0
-0 -0 -0
-0 -0 -0
-0 -0 -0
-0 -0 -0
-0.98300707 -2.2203679 -0.74628401
-1.0024748 -2.2273028 -0.75091177
-1.017707 -2.2245691 -0.75214583
-0 -0 -0
-1.0424889 -2.2067535 -0.75029474
-1.0572456 -2.2028873 -0.75122029
-1.0657355 -2.186101 -0.74751806
-1.0833539 -2.1880429 -0.75060326
-1.0946206 -2.1771061 -0.74906063
-1.1083913 -2.1711957 -0.7493692
-1.1243212 -2.16942 -0.75122029
-1.1433738 -2.1734216 -0.75523102
-1.1508586 -2.1554594 -0.75122029
-1.170866 -2.1608992 -0.75584805
-1.1845617 -2.1545074 -0.75615656
-0 -0 -0
-1.2160692 -2.1489129 -0.75955027
-1.2297057 -2.1422355 -0.75985885
-1.2351632 -2.1215007 -0.75492251
-1.2520294 -2.1204329 -0.75739068
-1.2601262 -2.1045518 -0.75430548
-1.2680753 -2.0886517 -0.75122029
-1.2768751 -2.074353 -0.74875212
-1.2951229 -2.0753534 -0.75214583
-1.3037612 -2.0609386 -0.74967772
-0 -0 -0
-1.3331039 -2.0511627 -0.75214583
-1.3330975 -2.0238855 -0.74474138
-1.3613453 -2.0393944 -0.75399697
-1.3711666 -2.0270648 -0.75245434
-1.381426 -2.015476 -0.75122029
-1.3921378 -2.0046186 -0.75029474
-1.4000298 -1.9898174 -0.74782658
-1.4221578 -1.9951272 -0.75337994
-1.4360446 -1.9886762 -0.75430548
-1.4482198 -1.9798273 -0.75430548
-1.4665737 -1.979308 -0.75769919
-1.4815476 -1.9740747 -0.75924176
-1.4976643 -1.970246 -0.76140141
-1.514951 -1.9678004 -0.7641781
-1.5287523 -1.9607174 -0.76510364
-1.5466526 -1.958763 -0.76818883
-1.5586421 -1.949236 -0.76818883
-1.562188 -1.9292901 -0.76386958
-1.5770139 -1.9233447 -0.76541215
-1.5851377 -1.9092427 -0.76356107
-1.5980477 -1.9009362 -0.7641781
-1.6084478 -1.8896469 -0.76356107
-1.6231188 -1.8833433 -0.76510364
-1.6409014 -1.880513 -0.76818883
-1.6549296 -1.8732594 -0.76942289
-1.6663927 -1.8630698 -0.76942289
-1.6803482 -1.8556291 -0.770657
-1.6917024 -1.8452837 -0.770657
-1.6978136 -1.8292937 -0.76818883
-1.7103094 -1.8202275 -0.76880586
-1.7148868 -1.80281 -0.76572067
-1.7285569 -1.7949932 -0.76695478
-1.7322307 -1.7768643 -0.76356107
-1.7324048 -1.7553747 -0.75862473
-1.7417977 -1.7433666 -0.75800771
-1.7578759 -1.737994 -0.76047587
-1.7664645 -1.7251823 -0.75955027
-1.781811 -1.7189317 -0.76170993
-1.7978361 -1.7132134 -0.7641781
-1.8103932 -1.7041048 -0.76510364
-1.8242999 -1.6962013 -0.76664627
-1.8360751 -1.6862619 -0.76726329
-1.8555499 -1.6832683 -0.77127403
-1.866552 -1.6724857 -0.77158254
-1.8789169 -1.6628915 -0.77250808
-1.8919506 -1.6538342 -0.7737422
-1.8991816 -1.6397091 -0.77250808
-1.9113792 -1.6298757 -0.77343369
-1.9191604 -1.6162797 -0.77250808
-1.9275783 -1.6032577 -0.77189106
-1.9307617 -1.5859692 -0.76911438
-1.9419346 -1.5752903 -0.7697314
-1.9493359 -1.5615621 -0.76880586
