# .PCD v0.7 - Point Cloud Data file format
VERSION 0.7
FIELDS x y z
SIZE 4 4 4
TYPE F F F
COUNT 1 1 1
WIDTH 1603
HEIGHT 1
VIEWPOINT 0 0 0 1 0 0 0
POINTS 1603
DATA ascii
-0 0 -0
-0 0 -0
-0 0 -0
-0 0 -0
-0 0 -0
-0 0 -0
-0 0 -0
-0 0 -0
-0 0 -0
-0 0 -0
-0 0 -0
-0 0 -0
-0 0 -0
-0 0 -0
-0 0 -0
-0 0 -0
-0 0 -0
-0 0 -0
-0 0 -0
-0 0 -0
-0 0 -0
-0 0 -0
-0 0 -0
-0 0 -0
-0 0 -0
-0 0 -0
-0 0 -0
-0 0 -0
-0 0 -0
-3.6850235 4.9055471 -0.73583162
-3.6595812 4.934442 -0.73683292
-3.6520875 4.988028 -0.74171412
-3.6283853 5.0199933 -0.7432161
-3.611341 5.0615478 -0.74621993
-3.5836425 5.088479 -0.74697089
-3.5761304 5.1445918 -0.7522276
-3.5551577 5.1819839 -0.75460565
-3.5338604 5.2193117 -0.7569837
-3.5243616 5.2747235 -0.76211524
-3.5143147 5.3302135 -0.76724678
-3.4934423 5.3699751 -0.77000034
-3.4631057 5.3954844 -0.77062613
-3.4569964 5.4593863 -0.77700931
-3.4334171 5.4964848 -0.77938735
-3.4110732 5.5360332 -0.78214085
-3.3899183 5.5780573 -0.78526986
-3.3739843 5.6293917 -0.78977561
-3.3545194 5.6756139 -0.7935304
-3.3316171 5.7166643 -0.79653424
-3.3157489 5.7705522 -0.8014155
-3.2949448 5.8166885 -0.8051703
-3.2635441 5.8445935 -0.80629677
-3.2304902 5.8697238 -0.80704772
-3.2024524 5.9042625 -0.80917543
-3.1680343 5.9273014 -0.80967605
-3.1362269 5.9554081 -0.81092769
-3.1060205 5.9868698 -0.81267989
-3.0719354 6.0111165 -0.81343085
-3.0470333 6.0537825 -0.81681019
-3.0098307 6.0723648 -0.81681019
-2.9842594 6.1147938 -0.82018954
-2.9647231 6.1705523 -0.82544625
-2.9340138 6.203876 -0.82757396
-2.9050994 6.2415519 -0.83032745
-2.8754199 6.278204 -0.83295584
-2.8425474 6.3083935 -0.83470809
-2.8017771 6.3211808 -0.83408231
-2.758579 6.328248 -0.8327055
-2.7200882 6.3459673 -0.83283067
-2.681484 6.3634524 -0.83295584
-2.646183 6.3889527 -0.83420742
-2.6151564 6.4252872 -0.83696097
-2.5808375 6.4541106 -0.83871323
-2.5426373 6.4735188 -0.83921385
-2.5071514 6.5001068 -0.84071577
-2.4763513 6.5394936 -0.84396994
-2.4406705 6.5666556 -0.84559703
-2.3976142 6.5740504 -0.84459573
-2.3542249 6.5802302 -0.84346926
-2.3134768 6.5936155 -0.84334415
-2.2768464 6.6189456 -0.84484607
-2.2365072 6.6337314 -0.84497118
-2.1985605 6.6558084 -0.84609765
-2.1558485 6.6635094 -0.84534669
-2.1131246 6.6709366 -0.84459573
-2.0712719 6.680934 -0.84422022
-2.0328298 6.7020626 -0.84534669
-1.9939243 6.7220192 -0.84634799
-1.9529173 6.7350802 -0.84647316
-1.9091222 6.7383447 -0.84534669
-1.868005 6.7508883 -0.84547186
-1.8260301 6.7603073 -0.84522152
-1.7829993 6.7656279 -0.84447056
-1.7387379 6.7658706 -0.84309381
-1.6969497 6.7754493 -0.84296864
-1.6548744 6.7838063 -0.8427183
-1.6090958 6.7764568 -0.84046543
-1.5668166 6.7833023 -0.84008998
-1.5277717 6.8044052 -0.84159189
-1.4872594 6.8194675 -0.84234285
-1.4416927 6.8109927 -0.84008998
-1.3938941 6.7905536 -0.83633518
-1.3514284 6.7950859 -0.8358345
-1.3080225 6.7944818 -0.83470809
-1.2655821 6.7984781 -0.83420742
-1.2236682 6.8051391 -0.83408231
-1.1803647 6.8037214 -0.83295584
-1.1376152 6.8049641 -0.83220488
-1.0961541 6.8137755 -0.83245522
-1.0540221 6.8184123 -0.83220488
-1.0108569 6.8159184 -0.83107847
-0.96845865 6.8180633 -0.83057779
-0.92593896 6.8189616 -0.829952
-0.88446307 6.8274665 -0.83032745
-0.84328139 6.8386731 -0.83107847
-0.79969126 6.8299227 -0.82932621
-0.75645864 6.8228674 -0.82782429
-0.71365207 6.8185 -0.82669783
-0.67131585 6.8178134 -0.82607204
-0.628196 6.8079729 -0.82431978
-0.58437294 6.7879753 -0.82131594
-0.54365808 6.8033013 -0.82281786
-0.50234032 6.8124456 -0.82356882
-0.45932952 6.7975817 -0.82131594
-0.41542852 6.7646222 -0.81681019
-0.37353179 6.7601094 -0.81593406
-0.33296677 6.7811022 -0.81831211
-0.2917341 6.7919383 -0.81943858
-0.24954553 6.7797203 -0.81768632
-0.2073667 6.7622819 -0.81530827
-0.16562869 6.7535086 -0.81405669
-0.12433136 6.7623334 -0.81505793
-0.082692355 6.7510643 -0.81355602
-0.041302409 6.7573972 -0.81430697
0.00016468136 6.7763739 -0.81668502
0.041718598 6.7722769 -0.8161844
0.083110914 6.758997 -0.81455731
0.12402807 6.7286005 -0.81080252
0.16506623 6.7177944 -0.80955088
0.20622148 6.7146721 -0.8093006
0.24705093 6.7033658 -0.80804896
0.28779218 6.6928029 -0.80692255
0.32831541 6.6800108 -0.80554581
0.3688024 6.6689548 -0.80441934
0.40757924 6.6319075 -0.80003875
0.44363374 6.5609808 -0.7914027
0.48132148 6.5235052 -0.78702211
0.51864541 6.486804 -0.78276664
0.55604905 6.4558229 -0.77926219
0.59290934 6.4226518 -0.77550739
0.63201451 6.4159307 -0.77513188
0.6657812 6.3586493 -0.76837325
0.70018357 6.3130293 -0.76311654
0.73543847 6.2790527 -0.75936174
0.77139771 6.2537446 -0.75673336
0.80656344 6.2242961 -0.75360435
0.84313524 6.2074332 -0.75210243
0.87869203 6.1844625 -0.74984956
0.91399878 6.1612897 -0.74759668
0.94070601 6.0839925 -0.73846
0.9718647 6.0399051 -0.73357874
0.98712009 5.9036846 -0.71693248
0.99989212 5.7626224 -0.69966036
1.005697 5.5923371 -0.67863345
1.0334475 5.5509491 -0.6741277
1.0629815 5.5211225 -0.67112386
1.0875385 5.4677906 -0.66511619
1.1174729 5.4435215 -0.66286331
1.1350158 5.3618274 -0.65322596
1.1571012 5.3053279 -0.64684284
1.1802769 5.2565045 -0.64146096
1.2049088 5.2162981 -0.63720548
1.2304686 5.1817799 -0.63370103
1.2594161 5.1625667 -0.63219911
1.2763525 5.0960379 -0.62456429
1.2989466 5.0544806 -0.62018371
1.3296828 5.0454559 -0.62005854
1.35 4.9979343 -0.61492699
1.3692548 4.9484425 -0.60954511
1.3949908 4.9237213 -0.6074174
1.409138 4.8598051 -0.6001581
1.427354 4.8120718 -0.59502655
1.453107 4.7908816 -0.59339947
1.4742436 4.7553434 -0.58989495
1.4973978 4.727293 -0.58739179
1.5291263 4.726511 -0.5885182
1.5602787 4.7236338 -0.58939433
1.5939906 4.7280722 -0.59127176
1.6281384 4.733212 -0.5932743
1.6564928 4.721261 -0.59302396
1.6680408 4.662436 -0.58651567
1.7061416 4.6782093 -0.59002012
1.7348145 4.6676526 -0.59002012
1.757797 4.642076 -0.58801758
1.7855327 4.6293521 -0.58776724
1.8102751 4.6090751 -0.58651567
1.8399961 4.6015654 -0.58701628
1.8637054 4.5791626 -0.58551437
1.8940467 4.5731401 -0.58626533
1.9274678 4.5742307 -0.58801758
1.9492414 4.547729 -0.58601499
1.9648125 4.5074921 -0.58213502
2.0205894 4.5588374 -0.59089625
2.0587184 4.568965 -0.59402525
2.0858877 4.5544429 -0.59377491
2.1137941 4.5415583 -0.59377491
2.1445913 4.5347805 -0.59465104
2.177964 4.5331602 -0.59627813
2.1944191 4.4965315 -0.59302396
2.2166784 4.4723163 -0.59152204
2.2431858 4.4568586 -0.59127176
2.2741036 4.4500775 -0.592273
2.3054798 4.4439654 -0.59339947
2.3410287 4.4455352 -0.59565234
2.378087 4.44946 -0.59828073
2.3996651 4.4243202 -0.59677875
2.4210243 4.3990841 -0.59527683
2.4339383 4.3590283 -0.59164721
2.4645524 4.3509169 -0.59264851
2.49862 4.3486147 -0.59452587
2.5297532 4.3409152 -0.59565234
2.5896709 4.3816752 -0.60391289
2.6185484 4.3691063 -0.60441357
2.6478846 4.3571959 -0.60503936
2.6776938 4.3459339 -0.60579032
2.703258 4.3277392 -0.60553998
2.7324164 4.3152614 -0.60616577
2.7642038 4.3067627 -0.6074174
2.8024838 4.3080144 -0.6101709
2.8359663 4.3015041 -0.61179799
2.8733339 4.3005185 -0.6143012
2.914134 4.3041644 -0.61755538
2.9449806 4.2927465 -0.61855662
2.9746637 4.2794828 -0.61930758
3.0048661 4.2668271 -0.62018371
3.0338724 4.252347 -0.6208095
3.0703714 4.2481227 -0.62306237
3.1133814 4.2524147 -0.62669206
3.1506474 4.2483702 -0.6290701
3.1772518 4.2297511 -0.62919521
3.2091541 4.218071 -0.63044685
3.2307353 4.1928 -0.62957072
3.2594538 4.1768079 -0.63019651
3.3102496 4.1886387 -0.63532805
3.3482902 4.1837382 -0.63783127
3.3801465 4.1708212 -0.63908291
3.4176359 4.1645718 -0.64146096
3.4570785 4.1603079 -0.64421445
3.4895687 4.1473665 -0.6455912
3.5432675 4.1591005 -0.65109825
3.5648315 4.1327748 -0.65034729
3.5907753 4.1115704 -0.65047246
3.617908 4.0916901 -0.65084791
3.6601553 4.0886297 -0.65410209
3.691838 4.0734444 -0.65535372
3.7181046 4.0521765 -0.655604
3.7557306 4.0430951 -0.65798205
3.7947445 4.0351486 -0.66061044
3.8406444 4.0340595 -0.6644904
3.8777204 4.0232735 -0.66674328
3.9141152 4.0114741 -0.66887099
3.943537 3.992322 -0.66974711
3.9805896 3.980675 -0.67199999
4.0367084 3.9875448 -0.67763221
4.0816965 3.9827905 -0.68126184
4.1217761 3.972815 -0.68401533
4.1733851 3.9734406 -0.68877143
4.2237105 3.9722223 -0.69327718
4.2850823 3.9806619 -0.69966036
4.2750626 3.9227743 -0.69377786
4.2740531 3.8738208 -0.68952239
4.3132677 3.8614163 -0.69215077
4.3480306 3.844734 -0.69402814
4.3849926 3.8297274 -0.69628102
4.4309502 3.8221862 -0.70003587
4.4898205 3.8251598 -0.70591837
4.5618 3.8384106 -0.71392864
4.596714 3.8198569 -0.71580601
4.6584187 3.8230426 -0.72206402
4.7126245 3.8193686 -0.72707039
4.7793555 3.8250892 -0.73407936
4.8307619 3.8178325 -0.73858517
4.8760004 3.8052063 -0.74208963
4.9802146 3.8375754 -0.7549811
5.0376248 3.8327706 -0.76036298
5.1054759 3.8351495 -0.76737195
5.175138 3.8380206 -0.77463126
5.2162042 3.8190854 -0.77738476
5.2532105 3.796885 -0.77951247
5.2917562 3.775526 -0.78189051
5.3294258 3.7532656 -0.78414339
5.3596878 3.7255893 -0.78526986
5.3775373 3.689266 -0.7845189
5.3976083 3.6545324 -0.78414339
5.4232306 3.6235487 -0.78464407
5.4470186 3.591296 -0.78489435
5.4656253 3.5556426 -0.78439373
5.4831638 3.5193605 -0.78376794
5.4920807 3.4776907 -0.78189051
5.498168 3.434468 -0.77963763
5.5216722 3.4022281 -0.78001314
5.5441399 3.369314 -0.78026342
5.5630069 3.3342125 -0.78001314
5.5978818 3.3085952 -0.78214085
5.5966458 3.2616997 -0.77901185
5.611392 3.224333 -0.77826089
5.6017165 3.1732204 -0.77400547
5.624547 3.1407235 -0.77450609
5.6402354 3.1042397 -0.77400547
5.6617928 3.0709922 -0.77438092
5.6805296 3.0361943 -0.77438092
5.7034421 3.0035927 -0.77500671
5.7402601 2.9781322 -0.7776351
5.7257347 2.9261553 -0.77300417
5.7400365 2.889184 -0.77250355
5.743432 2.8468623 -0.77050096
5.7706003 2.8163526 -0.77187771
5.8011875 2.7873344 -0.77375513
5.8101087 2.7478704 -0.77262866
5.8367548 2.7167721 -0.77400547
5.8451958 2.6771905 -0.772879
5.8660359 2.6433117 -0.77350479
5.8866801 2.6092782 -0.77413058
5.9180417 2.5798461 -0.77625835
5.9237285 2.5391874 -0.77488154
5.9273105 2.4977858 -0.77325451
5.9177747 2.451123 -0.76987517
5.9483261 2.4211218 -0.77200288
5.9722824 2.3882601 -0.77325451
5.9794359 2.3486695 -0.77225322
6.0066948 2.3169324 -0.77400547
6.0031681 2.2733598 -0.77162743
6.0067739 2.2326818 -0.77025062
6.0129032 2.1930647 -0.76924938
6.03372 2.1588013 -0.77025062
6.0431075 2.1204252 -0.76975
6.0794601 2.0913696 -0.772879
6.1109819 2.0603635 -0.77538222
6.1112618 2.018785 -0.77375513
6.0914373 1.9708709 -0.76949966
6.1242247 1.9400451 -0.77225322
6.1322227 1.9012566 -0.77175254
6.1304803 1.8595648 -0.77000034
6.1179948 1.8148642 -0.76687133
6.1309209 1.777843 -0.76712161
6.1541243 1.7437047 -0.7687487
6.170445 1.7074975 -0.76949966
6.1769743 1.6685699 -0.76899904
6.1851773 1.630132 -0.7687487
6.155664 1.5820317 -0.76361716
6.1950912 1.5516988 -0.76749712
6.2035317 1.5134223 -0.76737195
6.182776 1.4682289 -0.76349199
6.21487 1.4356195 -0.76649582
6.2390509 1.4009337 -0.76849842
6.2552843 1.3643153 -0.76949966
6.2324767 1.3193386 -0.76549459
6.192831 1.2713046 -0.75936174
6.2131658 1.235796 -0.76098877
6.2235541 1.1982117 -0.76136428
6.2434697 1.1623603 -0.76299137
6.2094707 1.1166617 -0.75773466
6.2582407 1.0858253 -0.76311654
6.2275996 1.0411949 -0.75836045
6.2387686 1.0037506 -0.75898623
6.2330441 0.96363443 -0.75748432
6.2545424 0.92769718 -0.75948685
6.258152 0.8890239 -0.75923657
6.2349782 0.84674126 -0.75560689
6.2922049 0.81521487 -0.76224041
6.2951193 0.77634877 -0.76199007
6.2839975 0.73586464 -0.75998753
6.353478 0.70449758 -0.76824808
6.2402558 0.65323013 -0.75335401
6.2559953 0.61609298 -0.75485593
6.273489 0.57896918 -0.75660819
6.2571535 0.53876632 -0.75410497
6.2464957 0.49925894 -0.75235277
6.2890201 0.46383345 -0.75735915
6.2739296 0.42403507 -0.75510627
6.3259273 0.38856319 -0.76136428
6.3123422 0.34886762 -0.75936174
6.3084183 0.30983835 -0.75861079
6.2626219 0.26908928 -0.75260305
6.2463083 0.23000368 -0.75035018
6.2654524 0.19221704 -0.75260305
6.279408 0.15408331 -0.75423014
6.2881708 0.11569523 -0.75523144
6.2699132 0.076881938 -0.75285339
6.2662983 0.038385455 -0.75235277
6.2733607 -6.5914945e-05 -0.7532289
6.3030057 -0.038747005 -0.7569837
6.2758636 -0.077086806 -0.75360435
6.2891603 -0.11585173 -0.75535661
6.2992411 -0.15470909 -0.75673336
6.2852817 -0.19295941 -0.75510627
6.3236375 -0.23299004 -0.7601127
6.2864051 -0.27024615 -0.75560689
6.225173 -0.30588114 -0.7480973
6.2311039 -0.34451196 -0.7490986
6.2259016 -0.38255569 -0.74872309
6.239275 -0.42182365 -0.75072569
6.258337 -0.46170914 -0.75347918
6.263298 -0.50073487 -0.75448048
6.2482457 -0.53813255 -0.75297856
6.2566814 -0.5775575 -0.75448048
6.2895513 -0.61954218 -0.7591114
6.2599769 -0.65543157 -0.75585723
6.280489 -0.69656843 -0.75898623
6.2721553 -0.73462927 -0.75848562
6.2931304 -0.77626336 -0.76173973
6.2488933 -0.80975544 -0.75673336
6.2310271 -0.84634441 -0.75510627
6.2944741 -0.8943435 -0.7638675
6.2594266 -0.92857575 -0.7601127
6.2281194 -0.96301889 -0.75685853
6.2083802 -0.99900657 -0.75510627
6.2187681 -1.0398664 -0.75723398
6.226933 -1.0805516 -0.7591114
6.195775 -1.1143439 -0.7559824
6.1975989 -1.1539756 -0.75710881
6.1650724 -1.1870996 -0.75385469
6.181025 -1.2295552 -0.75685853
6.2860966 -1.2906251 -0.77137709
6.228559 -1.3186822 -0.76499391
6.2251973 -1.3579332 -0.7656197
6.2167478 -1.3961047 -0.7656197
6.1945314 -1.4310946 -0.7638675
6.1981821 -1.4720592 -0.76549459
6.1321678 -1.4961772 -0.75811011
6.1844625 -1.5492159 -0.76612037
6.1143064 -1.5715629 -0.75823528
6.1160603 -1.6120865 -0.75973719
6.100307 -1.64803 -0.75898623
6.120677 -1.6939036 -0.76299137
6.1206675 -1.7344047 -0.76436812
6.0879951 -1.7655679 -0.76148945
6.1236515 -1.8167255 -0.76762229
6.0924525 -1.8482133 -0.76499391
6.1037393 -1.8926173 -0.76799774
6.0939031 -1.9306332 -0.76824808
6.1451831 -1.9884645 -0.7766338
6.0735202 -2.006515 -0.7687487
6.1005774 -2.057065 -0.77400547
6.0625114 -2.0857394 -0.77062613
6.0542803 -2.1245425 -0.77125192
6.014976 -2.1522868 -0.76774746
6.0119085 -2.1928952 -0.76912421
5.9936905 -2.228013 -0.76849842
6.0021734 -2.273185 -0.77150226
6.0010705 -2.3149724 -0.77325451
5.9978337 -2.3561058 -0.77475643
5.9970808 -2.398392 -0.7766338
5.9822516 -2.4351444 -0.7766338
5.942451 -2.4615488 -0.77325451
5.9446049 -2.5052886 -0.7756325
5.9282088 -2.5413258 -0.77550739
5.9152322 -2.5788426 -0.77588284
5.8938556 -2.6126759 -0.77513188
5.8578157 -2.6398194 -0.77237839
5.8415079 -2.6757126 -0.77237839
5.8474646 -2.7219765 -0.77550739
5.8458982 -2.7650189 -0.7776351
5.8002086 -2.787081 -0.77362996
5.7669511 -2.8147819 -0.77137709
5.7584596 -2.8545222 -0.77262866
5.7691917 -2.9040816 -0.7766338
5.7300634 -2.9285858 -0.77362996
5.7225528 -2.9691749 -0.77513188
5.7182708 -3.0116315 -0.77713442
5.7049336 -3.0494688 -0.77788544
5.6773949 -3.079684 -0.7766338
5.6627369 -3.1168547 -0.77725959
5.6461039 -3.1529934 -0.7776351
5.6249251 -3.1865995 -0.77738476
5.5932245 -3.2141309 -0.7756325
5.5759692 -3.2498889 -0.77600801
5.5747108 -3.2951512 -0.77876151
5.5526857 -3.3282745 -0.77851123
5.5313115 -3.3617671 -0.77838606
5.5190253 -3.4008496 -0.77963763
5.4972129 -3.4341238 -0.77951247
5.4617906 -3.4587631 -0.77738476
5.4354563 -3.4889944 -0.7766338
5.423924 -3.5287745 -0.77813572
5.415421 -3.5707293 -0.78013831
5.4148545 -3.6182261 -0.78339243
5.3810515 -3.6435931 -0.78164023
5.3553219 -3.6742961 -0.78113955
5.3302321 -3.7053871 -0.7807641
5.3073959 -3.738023 -0.7807641
5.2617497 -3.754379 -0.77725959
5.2651453 -3.8057783 -0.78138989
5.2328897 -3.8315639 -0.78001314
5.2363715 -3.8837001 -0.78426856
5.1997533 -3.90622 -0.78226602
5.1614766 -3.9272354 -0.78001314
5.1443543 -3.9642832 -0.78113955
5.1480861 -4.0177536 -0.78564531
5.1085496 -4.0375748 -0.78326732
5.07516 -4.0620232 -0.78189051
5.0593886 -4.100585 -0.78339243
5.0364327 -4.1334405 -0.78376794
5.0102129 -4.1636314 -0.78364277
5.008101 -4.2141013 -0.78752273
4.9708228 -4.2350979 -0.78564531
4.966526 -4.2843161 -0.78927499
4.9356613 -4.3107924 -0.78852403
4.8935127 -4.3271918 -0.78589565
4.8809118 -4.3697124 -0.78827369
4.8738527 -4.417572 -0.79165304
4.8590803 -4.4587998 -0.79378074
4.8221822 -4.4797506 -0.79215366
4.7866554 -4.5017767 -0.79077691
4.7567878 -4.5290093 -0.7904014
4.7424788 -4.5711956 -0.79277945
4.7186007 -4.6043673 -0.7935304
4.6952 -4.6381149 -0.79440653
4.6617432 -4.6619248 -0.7935304
4.6302619 -4.6876173 -0.79302979
4.5993338 -4.713809 -0.79265428
4.5703239 -4.741941 -0.79265428
4.5472975 -4.7763629 -0.79378074
4.5301366 -4.8171864 -0.79603362
4.5011687 -4.8456192 -0.79615879
4.4814115 -4.8841138 -0.79803616
4.4673457 -4.9291658 -0.80103999
4.4310627 -4.9498301 -0.79991359
4.4084921 -4.9858456 -0.8014155
4.378469 -5.0135493 -0.80154067
4.3586383 -5.0530944 -0.80366838
4.3146858 -5.0646362 -0.80116516
4.2848058 -5.0925341 -0.8014155
4.261085 -5.1278872 -0.80291742
2.8974099 -3.5300798 -0.53795356
2.8638289 -3.5331445 -0.53557551
2.812346 -3.5134635 -0.52956784
2.7519879 -3.4816077 -0.52168274
2.7104356 -3.4726131 -0.51755244
2.6703086 -3.4648128 -0.51367247
2.6345844 -3.4621794 -0.51066864
2.6043553 -3.4663794 -0.50879127
2.5647204 -3.4575868 -0.5049113
2.5270498 -3.4508412 -0.50140679
2.4831681 -3.4349184 -0.49652556
2.455132 -3.440397 -0.49502364
2.4316914 -3.4521515 -0.49452299
2.4031038 -3.4564154 -0.49289593
2.3369608 -3.4056382 -0.48288313
2.2859912 -3.3755448 -0.47612447
2.2575216 -3.3779573 -0.47437224
2.2362063 -3.3909171 -0.47424707
2.2207668 -3.4128919 -0.47549868
2.2190711 -3.4565156 -0.48000443
2.1771262 -3.4373722 -0.4751232
2.1533666 -3.4464583 -0.47449738
2.1274962 -3.4520032 -0.47337094
2.0980334 -3.4514253 -0.47136837
2.0691681 -3.4514675 -0.46949098
2.0413907 -3.4529941 -0.46786392
2.006681 -3.4423082 -0.46448457
1.9820626 -3.448534 -0.46360847
1.95891 -3.4571774 -0.46310782
1.9275059 -3.4509392 -0.46047947
1.8991216 -3.449662 -0.45860207
1.8731904 -3.452528 -0.45735046
1.8454256 -3.4517055 -0.45559821
1.819128 -3.4533067 -0.45422146
1.7905968 -3.4503117 -0.45221889
1.7653304 -3.4532816 -0.45109245
1.7409869 -3.4578445 -0.45021632
1.7135708 -3.4560158 -0.4484641
1.6884179 -3.4584398 -0.44733766
1.6663065 -3.4669459 -0.44708732
1.6471225 -3.4815898 -0.44771314
1.6286584 -3.4979277 -0.44858927
1.6030351 -3.4988341 -0.44733766
1.5729803 -3.4896073 -0.4447093
1.5599782 -3.5182424 -0.44733766
1.5371724 -3.5250194 -0.44696218
1.5178587 -3.5398567 -0.44771314
1.5011164 -3.5609899 -0.44934022
1.4849308 -3.5838838 -0.45121762
0 -0 -0
0 -0 -0
1.4368395 -3.6567852 -0.4574756
1.4179436 -3.6747901 -0.45872721
1.4023927 -3.7019792 -0.46123043
1.3945078 -3.7505059 -0.46661231
0 -0 -0
1.3630768 -3.8084414 -0.47211933
0 -0 -0
0 -0 -0
0 -0 -0
1.2891084 -3.9010417 -0.4801296
1.2700317 -3.9239824 -0.48213214
1.2534168 -3.955348 -0.48526114
1.2828591 -4.1363912 -0.50816542
1.2617717 -4.1584268 -0.51004285
1.2633028 -4.2574081 -0.52205819
0 -0 -0
1.1379844 -4.0148458 -0.48826501
1.2180418 -4.4004273 -0.53782839
1.7301061 -6.4049435 -0.79878712
1.6960797 -6.4355869 -0.8014155
1.6600146 -6.4593258 -0.80316776
1.6184227 -6.4616904 -0.80216646
1.5768642 -6.463788 -0.80116516
1.5493133 -6.5245042 -0.80779868
1.4972018 -6.4816852 -0.80103999
1.4567512 -6.4878454 -0.80066454
1.4188163 -6.5053864 -0.80179101
1.3803103 -6.5207639 -0.80266708
1.3400743 -6.5281386 -0.80254197
1.2982529 -6.5274806 -0.8014155
1.2553657 -6.5207095 -0.79953808
1.2126107 -6.513658 -0.79766071
1.1675336 -6.4926572 -0.79403108
1.1268263 -6.4948111 -0.79340523
1.0930004 -6.5378108 -0.79803616
1.0547535 -6.556149 -0.79953808
1.0105695 -6.537004 -0.79628396
0.97538316 -6.5764503 -0.80053937
0.93515182 -6.5832934 -0.80066454
0.8948732 -6.5898905 -0.80078971
0.85238487 -6.5795145 -0.79878712
0.81211889 -6.5856056 -0.79891229
0.77111906 -6.5855374 -0.7982865
0.73124224 -6.5950756 -0.79891229
0.69086498 -6.6004248 -0.79903746
0.64889675 -6.5897293 -0.79716009
0.60590291 -6.5659237 -0.79365557
0.56500924 -6.5625987 -0.79277945
0.52402151 -6.5570407 -0.79165304
0.48487028 -6.5749745 -0.7935304
0.44385067 -6.5679269 -0.79227883
0.40323904 -6.5655756 -0.79165304
0.36327326 -6.5738697 -0.792404
0.32322082 -6.5819211 -0.79315495
0.2826592 -6.5798154 -0.79265428
0.24166341 -6.5645709 -0.79052657
0.15075953 -4.9058652 -0.58100861
0.12079979 -4.9126487 -0.58175957
0.090762474 -4.9192495 -0.58251053
0.0607685 -4.9355865 -0.58451307
0.030536201 -4.9447956 -0.58563954
0.00016376081 -5.103632 -0.60566515
-0.030969348 -5.0747652 -0.60203552
-0.062589362 -5.1131701 -0.60691673
-0.095586203 -5.1999826 -0.61793083
-0.15573989 -6.340898 -0.76199007
-0.19706361 -6.4181647 -0.77187771
-0.23717527 -6.4366636 -0.77438092
-0.27456847 -6.386518 -0.76824808
-0.23608562 -4.810122 -0.56936872
-0.26559553 -4.8085828 -0.56936872
-0.29533958 -4.8108239 -0.56986934
-0.32505399 -4.8118906 -0.57024485
-0.35420719 -4.8048582 -0.56961906
-0.38423732 -4.8095174 -0.57049519
-0.54342216 -6.3095307 -0.76073849
-0.57837993 -6.2655725 -0.75560689
-0.61476761 -6.2411718 -0.75297856
-0.66039938 -6.3073397 -0.7618649
-0.6971162 -6.2854195 -0.75961202
-0.72642189 -6.2021933 -0.74959922
-0.7705462 -6.2468519 -0.75585723
-0.80784023 -6.2341352 -0.75485593
-0.85730904 -6.3116403 -0.76536942
-0.89881533 -6.3259058 -0.76787263
-0.93265724 -6.2869053 -0.76361716
-0.97106367 -6.2800837 -0.76349199
-0.81879747 -5.0897832 -0.6121735
-0.85361618 -5.1061907 -0.61492699
-0.86455393 -4.9835577 -0.59990776
-0.89124852 -4.9566774 -0.59715426
-0.9185549 -4.9345345 -0.59502655
-0.94787645 -4.9239345 -0.59440076
-0.97768378 -4.9160795 -0.59415042
-1.2848333 -6.2579136 -0.76774746
-1.3273205 -6.2693238 -0.77025062
-1.3757097 -6.3066187 -0.77613318
-1.4165561 -6.3077388 -0.77738476
-1.4541155 -6.294095 -0.77675897
-1.4812365 -6.2367921 -0.77050096
-1.5105336 -6.1909609 -0.76574486
-1.5366704 -6.1344204 -0.75961202
-1.5839208 -6.1623492 -0.76449329
-1.6204373 -6.147718 -0.7638675
-1.6617534 -6.1510677 -0.7656197
-1.7058197 -6.1637034 -0.76862359
-1.7219541 -6.0767603 -0.75861079
-1.7467648 -6.0232034 -0.75297856
-1.7760659 -5.986692 -0.74959922
-1.8626227 -6.1399207 -0.77125192
-1.914668 -6.1748071 -0.77738476
-1.9453242 -6.140245 -0.77438092
-1.9799073 -6.1187539 -0.77312934
-2.015857 -6.1017804 -0.77250355
-2.0516729 -6.0845962 -0.77187771
-2.0857394 -6.0625114 -0.77062613
-2.1169827 -6.0327497 -0.76837325
-2.1379066 -5.9748111 -0.76236558
-2.1755476 -5.9643764 -0.76274103
-2.2200582 -5.9723029 -0.7656197
-2.2475212 -5.9344468 -0.76236558
-2.2799623 -5.9103632 -0.76098877
-2.3136442 -5.8897986 -0.7601127
-2.3309422 -5.8285136 -0.75372952
-2.3700294 -5.8223715 -0.75485593
-2.3977332 -5.7884722 -0.7522276
-2.4308927 -5.7681656 -0.75147665
-2.4545076 -5.7257872 -0.74772185
-2.482851 -5.695159 -0.74559408
-2.5133245 -5.6698413 -0.74421734
-2.5386875 -5.6335106 -0.74133867
-2.5603929 -5.5898671 -0.73745871
-2.5967379 -5.5785484 -0.7380845
-2.6113973 -5.5212579 -0.73232716
-2.6220133 -5.4568448 -0.72556847
-2.6497872 -5.4290643 -0.72394145
-2.6671803 -5.3807049 -0.71943563
-2.6872044 -5.338541 -0.71580601
-2.7113285 -5.3051682 -0.71342796
-2.7296596 -5.2611341 -0.709548
-2.7484777 -5.2188315 -0.70591837
-2.7795124 -5.2001195 -0.70566803
-2.7900724 -5.1437263 -0.70003587
-2.8129673 -5.1108665 -0.69778293
-2.8234668 -5.0562663 -0.69240105
-2.8407409 -5.0146785 -0.6888966
-2.8635454 -4.9833918 -0.68689406
-2.8910704 -4.9605851 -0.6861431
-2.9002438 -4.9068842 -0.68088633
-2.9206028 -4.8728294 -0.67850828
-2.9421999 -4.8412538 -0.67650574
-2.9546692 -4.795239 -0.67237544
-2.9693141 -4.7534614 -0.66887099
-3.0016108 -4.7401814 -0.66962194
-3.016701 -4.6999688 -0.66636777
-3.0189641 -4.6406255 -0.66023493
-3.0484741 -4.6236706 -0.66048527
-3.0800951 -4.609827 -0.66123623
-3.0971942 -4.5744128 -0.65873301
-3.1156595 -4.5414166 -0.6566053
-3.1264729 -4.4977779 -0.65285051
-3.1494403 -4.4720211 -0.65184921
-3.1791265 -4.4558425 -0.65234983
-3.1994309 -4.4266043 -0.65084791
-3.2212555 -4.3996863 -0.6497215
-3.2363672 -4.3639026 -0.64721829
-3.2559302 -4.334445 -0.64571637
-3.2710474 -4.2993855 -0.64333832
-3.2882802 -4.2674475 -0.64146096
-3.3058553 -4.2362423 -0.6397087
-3.3182487 -4.1987562 -0.63695514
-3.3166652 -4.1442399 -0.63144815
-3.3276601 -4.1060858 -0.62856942
-3.345237 -4.0763888 -0.62706751
-3.3663809 -4.0512085 -0.62631655
-3.3937309 -4.0335126 -0.62681723
-3.4094064 -4.0020418 -0.62506497
-3.3852844 -3.9247124 -0.61567795
-3.4008162 -3.8941541 -0.61405087
-3.3898065 -3.8338284 -0.6074174
-3.4165761 -3.8166521 -0.60804319
-3.4312668 -3.7860618 -0.60641611
-3.4396729 -3.748857 -0.60366261
-3.4680138 -3.733495 -0.60466385
-3.4765801 -3.6969707 -0.60203552
-3.462249 -3.6367748 -0.59527683
-3.465905 -3.5961788 -0.59189755
-3.475431 -3.5620654 -0.58964467
-3.4958272 -3.5392621 -0.58939433
-3.517478 -3.5177453 -0.58939433
-3.5340543 -3.4912167 -0.5885182
-3.5397842 -3.454226 -0.58576471
-3.5494807 -3.4214272 -0.58376211
-3.5589085 -3.3886399 -0.58175957
-3.5637307 -3.351789 -0.57900608
-3.5478785 -3.296104 -0.57274806
-3.5556066 -3.2628717 -0.5706203
-3.5682077 -3.2343321 -0.56936872
-3.585768 -3.2103925 -0.56899327
-3.5920184 -3.1765029 -0.56674033
-3.6099467 -3.1530981 -0.56649005
-3.6126952 -3.1166348 -0.5637365
-3.6332612 -3.0956957 -0.56398684
-3.6058719 -3.0343883 -0.55635208
-3.6076326 -2.9982591 -0.55359858
-3.6006489 -2.9553013 -0.54946828
-3.6148601 -2.9300296 -0.54884249
-3.622699 -2.8997369 -0.5472154
-3.6248531 -2.8651533 -0.54471219
-3.627502 -2.8312631 -0.54233414
-3.623584 -2.7926054 -0.53895485
-3.6264365 -2.7595081 -0.53670192
-3.6528206 -2.7443535 -0.53820384
-3.6656058 -2.7189343 -0.53757805
-3.6782169 -2.6934617 -0.53695226
-3.6641147 -2.6487627 -0.53219616
-3.6641433 -2.6147084 -0.52969301
-3.667949 -2.5836096 -0.52781558
-3.6829178 -2.5604887 -0.52769041
-3.6813769 -2.5260589 -0.52506208
-3.6746228 -2.4884086 -0.52168274
-3.6799216 -2.4592021 -0.52018082
-3.6999123 -2.439852 -0.52093178
-3.7040007 -2.4100726 -0.51930469
-3.7070284 -2.3797991 -0.51755244
-3.706471 -2.3474572 -0.51529956
-3.7241712 -2.3267725 -0.51580024
-3.7400675 -2.3049181 -0.51605052
-3.7473562 -2.2778053 -0.51504928
-3.7706239 -2.2603779 -0.51642603
-3.7716093 -2.2296293 -0.5145486
-3.7646446 -2.1944592 -0.51154476
-3.7694354 -2.1663771 -0.51029319
-3.7671168 -2.1344082 -0.50804031
-3.768014 -2.1044838 -0.50628805
-3.7756402 -2.0784547 -0.50553709
-3.7577956 -2.038698 -0.50115651
-3.7343557 -1.996434 -0.49602491
-3.7421458 -1.9711721 -0.49539912
-3.7620969 -1.9522843 -0.49652556
-3.7748885 -1.9296151 -0.49665073
-3.7866576 -1.9064165 -0.49665073
-3.7876155 -1.8778607 -0.49514881
-3.7946081 -1.85241 -0.49452299
-3.7933822 -1.8230786 -0.49277076
-3.8098786 -1.8023126 -0.49352172
-3.8046739 -1.7713686 -0.49126884
-3.8262963 -1.752946 -0.49277076
-3.816174 -1.7200643 -0.48989207
-3.8302846 -1.6982238 -0.49039271
-3.847909 -1.6778601 -0.49139398
-3.8335087 -1.6436689 -0.48801467
-3.8316355 -1.6151096 -0.48638758
-3.8378067 -1.5900507 -0.48588696
-3.8484099 -1.5668463 -0.4860121
-0.23180458 -0.093903288 0.0066179414
-0.24345863 -0.096829876 0.0051160203
-0.25608262 -0.099973701 0.0034889395
-0.25669122 -0.098400526 0.0034889395
-0.2554301 -0.096132658 0.0037392594
-0.25694728 -0.094903342 0.0036140995
-0.25845897 -0.093659014 0.0034889395
-0.25996503 -0.092399694 0.0033637793
-0.26052707 -0.090802841 0.0033637793
-0.26201954 -0.089519367 0.0032386193
-0.26444814 -0.088532023 0.0029882991
-0.2668744 -0.087518223 0.0027379789
-0.27118987 -0.087076843 0.0022373386
-0 -0 -0
-0.27413693 -0.084318005 0.0019870184
-0.2765516 -0.083198309 0.0017366983
-0.27610394 -0.081223711 0.0018618584
-0 -0 -0
-0 -0 -0
-0.26988941 -0.074059337 0.0028631389
-0 -0 -0
-0.27077791 -0.070741802 0.0028631389
-0.27024442 -0.068838127 0.0029882991
-0.26969782 -0.066943675 0.0031134591
-0.27010348 -0.065287583 0.0031134591
-0 -0 -0
-0.27282047 -0.062402457 0.0028631389
-0 -0 -0
-0.28230169 -0.060897458 0.0017366983
-0 -0 -0
-0.28594705 -0.058008693 0.001361218
-0.28337479 -0.055690892 0.0017366983
-0.28468657 -0.054132499 0.0016115382
-0 -0 -0
-0.28337428 -0.050296027 0.0018618584
-0.28465617 -0.048719753 0.0017366983
-0 -0 -0
-0 -0 -0
-0 -0 -0
-0.28281915 -0.041301191 0.0021121786
-0 -0 -0
-0.28330469 -0.037827455 0.0021121786
-0 -0 -0
-0 -0 -0
-0 -0 -0
-0 -0 -0
-0.29618028 -0.030283967 0.00061025767
-0.29636052 -0.02846607 0.00061025767
-0.29652959 -0.0266471 0.00061025767
-0 -0 -0
-0 -0 -0
-0 -0 -0
-0 -0 -0
-0 -0 -0
-0 -0 -0
-0 -0 -0
-0.28558227 -0.011629106 0.0021121786
-0 -0 -0
-0 -0 -0
-0.28178006 -0.0062982319 0.002612819
-0.27982926 -0.0045451834 0.0028631389
-0.27885976 -0.0028222047 0.0029882991
-0.27787969 -0.0011112951 0.0031134591
-0.27688918 0.00058748119 0.0032386193
-0 0 -0
-0.27487719 0.0039483793 0.0034889395
-0 0 -0
-0 0 -0
-0.27277502 0.0089338757 0.0037392594
-0 0 -0
-0.26669925 0.011987314 0.00449022
-0 0 -0
-0 0 -0
-0 0 -0
-0 -0 -0
-0 -0 -0
-0 -0 -0
-0 -0 -0
-0 -0 -0
-0 0 -0
-0 0 -0
-0 0 -0
-0 0 -0
-0 0 -0
-0 0 -0
-0 0 -0
-0 0 -0
-0 0 -0
-0 0 -0
-0 0 -0
-0 0 -0
-0 0 -0
-0 0 -0
-0 0 -0
-0 0 -0
-0 0 -0
-0 0 -0
-0 0 -0
-0 0 -0
-0 0 -0
-0 0 -0
-0 0 -0
-0 0 -0
-0 0 -0
-0 0 -0
-0 0 -0
-0 0 -0
-0 0 -0
-0 0 -0
-0 0 -0
-0 0 -0
-0 0 -0
-0 0 -0
-0 0 -0
-0 0 -0
-0 0 -0
-0 0 -0
-0 0 -0
-0 0 -0
-0 0 -0
-0 0 -0
-0 0 -0
-0 0 -0
-0 0 -0
-0 0 -0
-0 0 -0
-0 0 -0
-0 0 -0
-0 0 -0
-0 0 -0
-0 0 -0
-0 0 -0
-0 0 -0
-0 0 -0
-0 0 -0
-0 0 -0
-0 0 -0
-0 0 -0
-0 0 -0
-0 0 -0
-0 0 -0
-0 0 -0
-0 0 -0
-0 0 -0
-0 0 -0
-0 0 -0
-0 0 -0
-0 0 -0
-0 0 -0
-0 0 -0
-0 0 -0
-0 0 -0
-0 0 -0
-0 0 -0
-0 0 -0
-0 0 -0
-0 0 -0
-0 0 -0
-0 0 -0
-0 0 -0
-0 0 -0
-0 0 -0
-0 0 -0
-0 0 -0
-0 0 -0
-0 0 -0
-0 0 -0
-0 0 -0
-0 0 -0
-0 0 -0
-0 0 -0
-0 0 -0
-0 0 -0
-0 0 -0
-0 0 -0
-0 0 -0
-0 0 -0
-0 0 -0
-0 0 -0
-0 0 -0
-0 0 -0
-0 0 -0
-0 0 -0
-0 0 -0
-0 0 -0
-0 0 -0
-0 0 -0
-0 0 -0
-0 0 -0
-0 0 -0
-0 0 -0
-0 0 -0
-0 0 -0
-0 0 -0
-0.25571918 0.22092082 -0.0083474806
-0.26853973 0.23486045 -0.010949072
-0.25521594 0.22600986 -0.0087582581
-0.2604692 0.23351528 -0.0099905916
-0.25536025 0.23178445 -0.0093059614
-0.26707599 0.24539654 -0.011770627
-0.26556525 0.24703068 -0.011770627
-0.25105059 0.23644553 -0.0093059614
-0.24959505 0.2379815 -0.0093059614
-0.23956805 0.23126282 -0.0076628509
-0.23814455 0.23272844 -0.0076628509
-0.27055302 0.26758575 -0.014235294
-0.27030751 0.27064112 -0.014509146
-0.25053468 0.25397909 -0.010949072
-0.26765808 0.27464655 -0.014646072
-0.24739911 0.25703442 -0.010949072
-0.26426759 0.27791044 -0.014646072
-0.24829985 0.26437896 -0.011770627
-0.27297816 0.294191 -0.017110737
-0.24302675 0.26521727 -0.01135985
-0.26668528 0.29458395 -0.016563034
-0.26751679 0.29916582 -0.017110737
-0.23350839 0.26445302 -0.010401369
-0.23188135 0.26588082 -0.010401369
-0.25225484 0.29279211 -0.015056849
-0.22345936 0.26267621 -0.0093059614
-0.2295004 0.27313474 -0.010949072
-0 0 -0
-0 0 -0
-0 0 -0
-0 0 -0
-0 0 -0
-0 0 -0
-0 0 -0
-3.3935347 4.4570165 -0.73597169
-3.3821959 4.4991322 -0.73966873
-3.3533452 4.5182095 -0.73939484
-3.3156049 4.5251169 -0.7370671
-3.2970667 4.5582175 -0.73925793
-3.3064551 4.6307607 -0.7481581
-3.2768376 4.6493421 -0.74788427
-3.2635231 4.6913157 -0.75158125
-3.2335548 4.7096186 -0.75130743
-3.2090421 4.7359309 -0.75240278
-3.2118618 4.8032899 -0.76034451
-3.2041535 4.855978 -0.76582158
-3.181865 4.8871684 -0.76773852
-3.1753769 4.9432697 -0.77376324
-3.1449857 4.9626603 -0.77376324
-3.1223538 4.994463 -0.77581716
-3.1088095 5.0413504 -0.78033566
-3.1056178 5.1060309 -0.78772968
-3.0640371 5.1080017 -0.78499115
-3.0291066 5.120738 -0.7840327
-2.9991267 5.1417947 -0.7844435
-2.9694963 5.1635351 -0.78499115
-2.9387348 5.1833816 -0.78526503
-2.9344239 5.2506022 -0.79306978
-2.8811195 5.2303333 -0.78704506
-2.857008 5.262712 -0.7893728
-2.836813 5.3028522 -0.79293287
-2.8143849 5.339437 -0.79594523
-2.7820263 5.3574843 -0.7960822
-2.7527103 5.3815084 -0.79717755
-2.7205296 5.4000669 -0.79745144
-2.6873443 5.4166579 -0.79745144
-2.655797 5.4366055 -0.79799914
-2.6301177 5.4688668 -0.8004638
-2.5897293 5.4705772 -0.79827297
-2.5686657 5.5133009 -0.80238074
-2.5397429 5.5397635 -0.80402386
-2.523627 5.5949726 -0.81004864
-2.4948747 5.6230283 -0.81196558
-2.462703 5.6436777 -0.81278712
-2.4202144 5.6404767 -0.81004864
-2.393261 5.6734738 -0.81278712
-2.3603013 5.692627 -0.81347173
-2.3189723 5.6914077 -0.81114399
-2.2906344 5.7220826 -0.81360871
-2.2634575 5.7563105 -0.81662107
-2.2298791 5.7747107 -0.81730568
-2.1972141 5.7956944 -0.8184011
-2.1567736 5.7960696 -0.81648415
-2.1184504 5.8017507 -0.81538874
-2.090162 5.835156 -0.8184011
-2.0516918 5.8403945 -0.81730568
-2.014204 5.8481908 -0.81662107
-1.9874718 5.8876567 -0.82059193
-1.9547307 5.9100857 -0.82209808
-1.9175143 5.9191418 -0.82168734
-1.8841546 5.940238 -0.82305658
-1.8456142 5.945065 -0.82209808
-1.8073735 5.9505906 -0.82127655
-1.7665956 5.9473248 -0.81922263
-1.7325568 5.9666142 -0.82045496
-1.6961843 5.9780855 -0.82059193
-1.6666156 6.0141544 -0.8242889
-1.6268359 6.0137491 -0.8227827
-1.5835841 5.9996738 -0.8193596
-1.5578551 6.0524464 -0.82552123
-1.5170723 6.0474792 -0.82346737
-1.47735 6.0460892 -0.82196116
-1.4285308 6.0058923 -0.81497794
-1.384058 5.9817324 -0.81032246
-1.3501555 6.0026755 -0.8121025
-1.3099142 5.9953632 -0.80991167
-1.2733083 6.0042567 -0.81004864
-1.2258635 5.9605327 -0.80279154
-1.1987563 6.0155444 -0.80950093
-1.1621984 6.0247316 -0.80977476
-1.1253912 6.0327229 -0.80991167
-1.0915173 6.0570626 -0.81237638
-1.0609518 6.101707 -0.81771648
-1.0234925 6.1081018 -0.81771648
-0.98236597 6.0917745 -0.81456715
-0.94496906 6.0976877 -0.81456715
-0.8999573 6.0524216 -0.80744702
-0.86923146 6.1029406 -0.81374562
-0.83150071 6.1061959 -0.81347173
-0.78801644 6.0650144 -0.80703622
-0.75163907 6.0766168 -0.80799472
-0.71491766 6.0860333 -0.80867934
-0.67547876 6.0716 -0.80607778
-0.63686526 6.0628233 -0.80429775
-0.600335 6.0735173 -0.80525619
-0.55857611 6.0287557 -0.79854685
-0.52251321 6.0429254 -0.800053
-0.48471063 6.0371308 -0.79882067
-0.45315447 6.1140814 -0.80909014
-0.41153032 6.0564609 -0.80073768
-0.3787027 6.1290689 -0.81045938
-0.33905014 6.0946822 -0.80539316
-0.30277485 6.1194034 -0.80854243
-0.26221511 6.0518708 -0.79895759
-0.22614585 6.0820727 -0.80292845
-0.18734448 6.035821 -0.79635602
-0.15151715 6.0853801 -0.80306542
-0.1129819 6.022809 -0.79430211
-0.076187879 6.0362654 -0.7960822
-0.039142128 6.0356288 -0.79594523
-0.002072565 5.9515562 -0.78430653
0.034774251 6.0089097 -0.79224825
0.071361683 5.9848108 -0.78896201
0.10760123 5.9575186 -0.78526503
0.14499034 5.9914069 -0.79005742
0.17899245 5.8993125 -0.77746028
0.21295147 5.8367276 -0.76897085
0.2504459 5.8748989 -0.77444786
0.28566957 5.8564315 -0.77212012
0.32322651 5.8842411 -0.77622789
0.35715348 5.8465524 -0.77129859
0.3942821 5.8630295 -0.77390015
0.42974231 5.8535843 -0.77294171
0.45991898 5.7787528 -0.76294613
0.49773633 5.8034568 -0.76678002
0.5307079 5.771687 -0.76280916
0.56601566 5.7673364 -0.76267225
0.59872162 5.7381387 -0.75911218
0.63663834 5.7589717 -0.76253533
0.66610718 5.7047777 -0.75555211
0.69614363 5.6602726 -0.74993813
0.7266742 5.6234746 -0.74541956
0.76462108 5.6444321 -0.74897969
0.79743427 5.626884 -0.74719959
0.83368444 5.6336441 -0.74884272
0.86823612 5.6284227 -0.74884272
0.90746385 5.6523314 -0.75295049
0.92892951 5.567513 -0.7418595
0.95580888 5.5197377 -0.73597169
0.98668551 5.4971938 -0.73364395
0.9880138 5.3167043 -0.70913422
1.0146376 5.2794123 -0.70475262
1.0188562 5.1312294 -0.6847614
1.0218921 4.9861107 -0.66518104
1.0471433 4.9545474 -0.66162091
1.0764706 4.9431896 -0.6609363
1.1020153 4.915226 -0.65792394
1.1281476 4.8909974 -0.65545928
1.1478553 4.8406086 -0.6492976
1.1658155 4.7853522 -0.64245129
1.192753 4.7684989 -0.64108205
1.2146039 4.732305 -0.63697428
1.2408451 4.7142258 -0.63546807
1.2663945 4.6940899 -0.63368803
1.3004491 4.7053275 -0.63642657
1.3195883 4.6629453 -0.63149726
1.3412871 4.6309733 -0.62807411
1.3617997 4.5960617 -0.62424016
1.3813602 4.5591784 -0.62013239
1.4186838 4.5808969 -0.62451404
1.4452711 4.5673838 -0.62382936
1.4671776 4.5395775 -0.62109089
1.4987284 4.5417781 -0.62273401
1.5196137 4.5118432 -0.61972159
1.5511316 4.5136762 -0.62136471
1.5797806 4.5068784 -0.62177551
1.6064045 4.4943018 -0.62136471
1.6261528 4.4629531 -0.61821544
1.6545405 4.455677 -0.61862618
1.6839516 4.4510002 -0.61944777
1.7041082 4.4220967 -0.61670923
1.7326568 4.415246 -0.61725694
1.7604505 4.4063711 -0.61753082
1.790439 4.4028277 -0.61862618
1.8098465 4.3734522 -0.6158877
1.8404905 4.3713946 -0.61725694
1.8606498 4.3445387 -0.6149292
1.8904363 4.3403058 -0.61602461
1.930267 4.3585153 -0.62054318
1.9545344 4.3411694 -0.61972159
1.9778374 4.3218884 -0.61862618
2.0076599 4.3168573 -0.61972159
2.0315711 4.2990832 -0.61890006
2.0549109 4.2802858 -0.61794156
2.0811355 4.2675962 -0.61794156
2.108161 4.2565217 -0.61821544
2.138689 4.2523565 -0.61958468
2.1638398 4.2373891 -0.61931086
2.1870642 4.2187552 -0.61848927
2.206913 4.1938601 -0.61670923
2.2480021 4.2090755 -0.6212278
2.2832251 4.2126212 -0.62396634
2.3009164 4.1837759 -0.6216386
2.3202705 4.1583333 -0.61985856
2.345742 4.1440177 -0.61985856
2.3809886 4.1467285 -0.62259704
2.4278204 4.1688504 -0.62848485
2.4573839 4.1606989 -0.62958026
2.4935544 4.1633897 -0.63245571
2.5097992 4.1327701 -0.62999105
2.5366683 4.119823 -0.63040185
2.5729129 4.1218281 -0.6332773
2.6076887 4.1210318 -0.63574195
2.6254394 4.0932794 -0.633825
2.6731794 4.1119766 -0.63957584
2.7043538 4.1045961 -0.64108205
2.7228882 4.0780387 -0.63943893
2.7489696 4.0628958 -0.63971281
2.7833683 4.0598416 -0.64204055
2.8167026 4.0548911 -0.64409441
2.8535011 4.0545444 -0.64696985
2.8915508 4.055511 -0.65011919
2.92044 4.043314 -0.65107763
2.9691739 4.0580974 -0.65669161
2.9904795 4.0350275 -0.65587008
3.024101 4.0284858 -0.65792394
3.0493619 4.010643 -0.65806085
3.0702875 3.9871478 -0.65723932
3.1044402 3.9807324 -0.65943015
3.1601157 4.0012574 -0.66641337
3.190794 3.9895287 -0.6677826
3.2183301 3.9737244 -0.66846722
3.2527015 3.9661582 -0.67065805
3.2908976 3.9628918 -0.67367041
3.3291755 3.9593055 -0.67668277
3.3591855 3.9455924 -0.6779151
3.3994997 3.943665 -0.68133825
3.4255874 3.9249711 -0.68174905
3.4463267 3.9001663 -0.68106443
3.4695325 3.8782084 -0.68092752
3.5052321 3.8700633 -0.68339217
3.5369453 3.8572445 -0.68503529
3.5666115 3.8420038 -0.68626761
3.5982585 3.8287098 -0.68791074
3.6332898 3.8187604 -0.69023848
3.6800158 3.8206542 -0.69489396
3.7262092 3.8214083 -0.69941247
3.7593286 3.8083429 -0.70132947
3.8211339 3.823745 -0.7088604
3.8614306 3.8169413 -0.71214658
3.9102917 3.8180914 -0.71707594
3.9578853 3.8174093 -0.72173142
4.007051 3.8176527 -0.72666073
4.0614171 3.8221881 -0.73254853
4.121067 3.8309202 -0.73939484
4.1678424 3.8270025 -0.7437765
4.2161918 3.8239856 -0.74843198
4.2594957 3.815891 -0.75212896
4.3132434 3.8165994 -0.75774294
4.3701425 3.8193984 -0.76390457
4.4204888 3.8158157 -0.76883394
4.4551253 3.7982609 -0.77088779
4.4738011 3.7670248 -0.77006626
4.4930229 3.7363362 -0.76938164
4.5128021 3.7061822 -0.76883394
4.5308418 3.6746783 -0.76801234
4.5649009 3.6560977 -0.77006626
4.5888023 3.6292484 -0.77034009
4.612546 3.6022432 -0.77061397
4.6157365 3.5593543 -0.76732773
4.639854 3.5327661 -0.76773852
4.6725278 3.5125639 -0.76965547
4.6796751 3.4732001 -0.76719081
4.6609483 3.4151444 -0.76034451
4.6906438 3.392868 -0.76185071
4.6879959 3.3473282 -0.75787985
4.7254491 3.3304853 -0.7607553
4.7230277 3.2855871 -0.75692135
4.7643304 3.2711246 -0.76048142
4.7802114 3.2390509 -0.7597968
4.7629428 3.1848786 -0.75363517
4.8419228 3.1948781 -0.76349378
4.8531342 3.1597033 -0.76212454
4.8682632 3.1271882 -0.76143992
4.8547292 3.0765765 -0.75609982
4.9205503 3.0761395 -0.76376766
4.8845301 3.0120897 -0.75486749
4.8749919 2.9650733 -0.75034893
4.966145 2.9789317 -0.76212454
4.9723945 2.9413424 -0.76020759
4.9894929 2.9102778 -0.76007068
4.9694743 2.857877 -0.7540459
5.0274158 2.8502958 -0.76048142
5.0586452 2.8271277 -0.76267225
5.0550737 2.7845631 -0.759386
5.0859933 2.7610559 -0.76157683
5.102839 2.7297969 -0.76157683
5.1133585 2.6952014 -0.76061839
5.1271625 2.6624062 -0.76020759
5.1619215 2.6403706 -0.76308304
5.1753716 2.6073108 -0.76267225
5.2099066 2.5847528 -0.76554769
5.214098 2.5470836 -0.76376766
5.2037406 2.5025904 -0.7597968
5.2342181 2.4778199 -0.76212454
5.2421403 2.4423096 -0.76102912
5.2858415 2.4233105 -0.76541078
5.2355986 2.3615026 -0.75555211
5.2644768 2.335762 -0.75774294
5.3068538 2.3156991 -0.76198763
5.3409896 2.2916877 -0.76499999
5.3722911 2.2661891 -0.76760161
5.3522396 2.2191429 -0.76253533
5.3841019 2.193737 -0.76527387
5.3956218 2.1599231 -0.76499999
5.3599153 2.1075604 -0.75774294
5.3672013 2.0724914 -0.75692135
5.3742595 2.0374126 -0.75609982
5.3625221 1.9954149 -0.75253975
5.4379368 1.9855813 -0.76185071
5.4117837 1.9384791 -0.75623673
5.419838 1.903923 -0.75568902
5.440784 1.873858 -0.75705826
5.4484253 1.8391712 -0.75651056
5.5019279 1.8197058 -0.76267225
5.5158172 1.7868285 -0.76308304
5.5266771 1.7529504 -0.76308304
5.5477352 1.7222377 -0.76458919
5.5496678 1.6855735 -0.76335686
5.567502 1.6537466 -0.76445228
5.5708857 1.6176199 -0.76349378
5.5835652 1.5842185 -0.76390457
5.6170454 1.5565435 -0.76732773
5.5461702 1.500315 -0.75582594
5.4997211 1.4515901 -0.74788427
5.5574484 1.430413 -0.75486749
5.5939837 1.4032779 -0.7588383
5.572659 1.3616365 -0.75459361
5.6734223 1.3494288 -0.76773852
5.6574688 1.3090078 -0.76431537
5.5851812 1.2562221 -0.75295049
5.6343966 1.2310232 -0.7588383
5.6050215 1.1886166 -0.75363517
5.6063876 1.1530048 -0.75281358
5.6376433 1.1234243 -0.75623673
5.605525 1.0813036 -0.75075972
5.6383462 1.0517949 -0.7544567
5.6388445 1.0161244 -0.75363517
5.5903211 0.97199959 -0.74596727
5.6850824 0.9525823 -0.75842756
5.6693058 0.9142105 -0.7554152
5.635653 0.87333649 -0.74993813
5.6173906 0.83524227 -0.74665195
5.6871343 0.8099817 -0.75568902
5.5614557 0.75728607 -0.7374779
5.5984139 0.72736132 -0.74199647
5.5840931 0.6906848 -0.73939484
5.5793719 0.65536773 -0.73816252
5.6187301 0.62506634 -0.74309182
5.6549697 0.59399581 -0.74761039
5.6900525 0.56240648 -0.75199205
5.7160826 0.52958578 -0.75514132
5.6935649 0.49228224 -0.75158125
5.6293354 0.45194271 -0.74227029
5.6458325 0.41841918 -0.74418724
5.6225977 0.38202146 -0.74062717
5.640655 0.3484931 -0.742818
5.6654353 0.31514311 -0.74596727
5.677156 0.28086486 -0.74733657
5.7045035 0.24714175 -0.75089663
5.6979933 0.21183994 -0.74980122
5.7170076 0.17742807 -0.75226587
5.7001638 0.14190085 -0.74980122
5.6315989 0.10561756 -0.74021637
5.7064285 0.072003223 -0.75048584
5.7533193 0.037292849 -0.75692135
5.7673078 0.0019961912 -0.7588383
5.7582965 -0.033340376 -0.75760597
5.7223253 -0.068249159 -0.75267667
5.7693386 -0.10421489 -0.75924909
5.7161055 -0.13834625 -0.75199205
5.7111883 -0.17329711 -0.75144434
5.7090273 -0.20830099 -0.75130743
5.7214975 -0.24391674 -0.75322437
5.726819 -0.27935594 -0.75418282
5.7724738 -0.31709453 -0.7607553
5.7209821 -0.34949112 -0.75390899
5.6534986 -0.38020551 -0.74487185
5.6639023 -0.41582957 -0.74665195
5.7234545 -0.45552173 -0.75527823
5.7353563 -0.4919003 -0.75733215
5.6365466 -0.518291 -0.74405032
5.6835389 -0.55779737 -0.75103354
5.7233601 -0.59718066 -0.75705826
5.7008805 -0.63022053 -0.7544567
5.7126489 -0.66702569 -0.75664753
5.7133646 -0.7026695 -0.75733215
5.7089453 -0.73771286 -0.75733215
5.7013664 -0.77232969 -0.75692135
5.7141743 -0.80979872 -0.759386
5.7139978 -0.84556973 -0.76007068
5.6538773 -0.87216091 -0.75240278
5.6777611 -0.91154474 -0.75651056
5.6945343 -0.95011359 -0.75965989
5.7071424 -0.98824674 -0.76226145
5.7155967 -1.0258704 -0.76431537
5.6536808 -1.0506095 -0.75651056
5.6422639 -1.0843456 -0.75582594
5.5713768 -1.1062173 -0.74678886
5.5916562 -1.1459484 -0.75062275
5.6194105 -1.187608 -0.75555211
5.6033063 -1.2201693 -0.75431979
5.6024804 -1.256044 -0.75527823
5.6178341 -1.2957381 -0.75856447
5.6117053 -1.330641 -0.7588383
5.5889983 -1.3615329 -0.75678444
5.6218619 -1.4061334 -0.76267225
5.5872216 -1.433955 -0.75897527
5.5380831 -1.4576237 -0.75322437
5.5510321 -1.49751 -0.75637364
5.5761123 -1.5410392 -0.76130301
5.5646453 -1.5746852 -0.76102912
5.5748601 -1.6145852 -0.76390457
5.5382538 -1.640884 -0.76007068
5.5328217 -1.6762711 -0.7607553
5.5290561 -1.712239 -0.76171374
5.5515018 -1.7565894 -0.7665062
5.4614406 -1.7650367 -0.75500441
5.5069504 -1.8171345 -0.76321995
5.45439 -1.8369818 -0.75719523
5.4692473 -1.8794267 -0.76102912
5.4725699 -1.9181917 -0.76321995
5.4746895 -1.9567345 -0.76527387
5.4337268 -1.9797792 -0.76102912
5.4019752 -2.0058429 -0.75815368
5.384933 -2.0371988 -0.75746906
5.413003 -2.0858712 -0.76349378
5.4600425 -2.1425617 -0.772394
5.4412737 -2.1738188 -0.77157241
5.4287505 -2.2075381 -0.77170938
5.3125858 -2.1983924 -0.75637364
5.3409944 -2.2486267 -0.76267225
5.342577 -2.2879844 -0.76499999
5.331162 -2.3219092 -0.76541078
5.3322129 -2.3613946 -0.76773852
5.3311725 -2.400167 -0.76979238
5.34517 -2.4460216 -0.77417403
5.3246713 -2.4762671 -0.77335244
5.2780294 -2.4940815 -0.76856005
5.268878 -2.5294204 -0.76951855
5.2701759 -2.5699503 -0.77212012
5.2489815 -2.5996015 -0.77129859
5.2028418 -2.6166296 -0.76664311
5.2131562 -2.6620171 -0.77075088
5.1949649 -2.6930428 -0.77047706
5.1678233 -2.7193332 -0.76883394
5.1475453 -2.7491248 -0.76828623
5.1270962 -2.77877 -0.76773852
5.1012692 -2.8054039 -0.76636922
5.0804996 -2.8347216 -0.76582158
5.0905972 -2.8814545 -0.77020317
5.0083899 -2.8756471 -0.75993371
5.0557103 -2.9442053 -0.77034009
5.0204902 -2.9650974 -0.76760161
5.0200496 -3.0065339 -0.77047706
4.9608645 -3.0126023 -0.76390457
4.9152923 -3.0263672 -0.75952297
4.9411693 -3.0842667 -0.76678002
4.8936892 -3.0965202 -0.76212454
4.9254622 -3.1591082 -0.77047706
4.9034939 -3.1876512 -0.77006626
4.9177589 -3.2400205 -0.77568018
4.8862519 -3.2624345 -0.77376324
4.8603983 -3.2884691 -0.7728048
4.8621898 -3.3333519 -0.77650177
4.852222 -3.3704689 -0.77828181
4.8111968 -3.3859267 -0.77485865
4.7540331 -3.3895087 -0.76869696
4.7363586 -3.4209349 -0.76924467
4.7040858 -3.4417441 -0.76732773
4.6510439 -3.4469526 -0.76185071
4.6242604 -3.4712636 -0.76089221
4.6288977 -3.5193551 -0.76541078
4.5907331 -3.5350008 -0.76253533
4.6494174 -3.6258411 -0.77663869
4.630969 -3.6573706 -0.77732331
4.6084409 -3.6857169 -0.77732331
4.5795803 -3.7089372 -0.77622789
4.5590343 -3.7388513 -0.77663869
4.5093331 -3.7446072 -0.77184629
4.4862719 -3.7722054 -0.77184629
4.5211225 -3.8491027 -0.78238958
4.5304351 -3.9052267 -0.7884143
4.472055 -3.9029915 -0.78211576
4.4524765 -3.9342933 -0.78293729
4.4208694 -3.9549351 -0.78156805
4.3943162 -3.9799917 -0.78115726
4.393908 -4.0289707 -0.78567582
4.375638 -4.0619202 -0.78690815
4.3419695 -4.0805526 -0.78526503
4.3426876 -4.1316962 -0.79019433
4.2951355 -4.1369634 -0.78594965
4.2788916 -4.1722298 -0.78772968
4.2503905 -4.1956224 -0.78718197
4.2133546 -4.2104211 -0.78499115
4.1637621 -4.2122431 -0.78033566
4.1212277 -4.2207036 -0.77704948
4.11726 -4.2687254 -0.78143108
4.0991902 -4.3025136 -0.7830742
4.0815392 -4.3369622 -0.78485423
4.0609217 -4.3684535 -0.78608656
4.0360513 -4.3954773 -0.78649735
4.0196538 -4.4318986 -0.78868818
3.9950285 -4.4594302 -0.78923589
3.9209802 -4.431191 -0.77951413
3.8858941 -4.4462166 -0.77787101
3.8527136 -4.4632277 -0.77663869
3.8258979 -4.4875374 -0.7767756
3.8212619 -4.5382051 -0.78170496
3.7800422 -4.5455732 -0.77882951
3.7854028 -4.6092515 -0.78608656
3.7308407 -4.60008 -0.78033566
3.2492211 -4.0569568 -0.68010592
3.1941545 -4.0387483 -0.67339659
3.1662643 -4.054368 -0.67271191
3.1249938 -4.0525408 -0.66901493
2.8288081 -3.7154214 -0.60712445
2.6142747 -3.477762 -0.5630343
2.5751739 -3.4698753 -0.55892652
2.5427096 -3.4704299 -0.5563249
2.508594 -3.4683096 -0.55331254
2.4694197 -3.4586468 -0.54906785
2.4293177 -3.4470153 -0.54454929
2.3730454 -3.411442 -0.53605992
2.3352463 -3.4014409 -0.53195214
2.3143315 -3.4157057 -0.53195214
2.263593 -3.3853776 -0.52455813
2.2422323 -3.3983762 -0.52442122
2.2472837 -3.4519155 -0.53099364
2.2041082 -3.4314699 -0.52537966
2.1792996 -3.4390726 -0.52442122
2.1502793 -3.4397812 -0.5223673
2.1213326 -3.4402635 -0.52031338
2.0976098 -3.4489834 -0.51962876
2.070802 -3.4524455 -0.51812261
2.0430219 -3.4540036 -0.51634258
2.018296 -3.4604847 -0.51538408
1.9910983 -3.4624996 -0.51374096
1.9605317 -3.4582794 -0.51113939
