# .PCD v0.7 - Point Cloud Data file format
VERSION 0.7
FIELDS x y z
SIZE 4 4 4
TYPE F F F
COUNT 1 1 1
WIDTH 1607
HEIGHT 1
VIEWPOINT 0 0 0 1 0 0 0
POINTS 1607
DATA ascii
-1.2599677 12.829522 -0.95001334
-1.1476352 12.471627 -0.92190886
-1.0614641 12.366176 -0.91327894
-0.98050541 12.308844 -0.90839118
-0.89926881 12.237065 -0.90243423
-0.82135779 12.200569 -0.89922667
-0.7448402 12.178509 -0.89716464
-0.66446978 12.080305 -0.88929844
-0.57698125 11.810283 -0.86829638
-0.4969914 11.637278 -0.85477877
-0.4213264 11.523527 -0.84584332
-0.34638128 11.386369 -0.83515137
-0.27284613 11.236768 -0.82354301
-0.20303027 11.190378 -0.81987721
-0.13269049 11.050836 -0.80910891
-0.064496212 10.984638 -0.80399203
0.0028940083 10.953918 -0.80162454
0.069859393 10.915806 -0.79872245
0.13387392 10.680877 -0.78077525
0.19940802 10.679853 -0.78077525
0.26486009 10.675439 -0.78054613
0.32552943 10.518144 -0.76863229
0.38642862 10.418302 -0.76114792
0.44995821 10.40677 -0.76046056
0.51405096 10.408792 -0.76084244
0.5779084 10.405441 -0.76084244
0.64211321 10.407671 -0.76130068
0.70704323 10.419452 -0.76252258
0.77169967 10.424861 -0.76328629
0.83565086 10.41993 -0.76328629
0.89699316 10.384805 -0.76099515
0.94726294 10.234153 -0.74984503
0.95245665 9.6457014 -0.70501524
0.96088541 9.1567564 -0.66782254
0.81261551 7.3134422 -0.52623075
0.81814963 6.9736075 -0.50041735
0.86055624 6.9654875 -0.50018823
0.91278768 7.0332451 -0.50583971
0.96736282 7.1114883 -0.51233125
0.96485859 6.7816453 -0.48728156
0.97814494 6.5852542 -0.47254196
1.0180748 6.5761724 -0.47231284
1.0614227 6.5885048 -0.47376388
1.104301 6.5966187 -0.47490945
1.1461228 6.5975771 -0.47552043
1.1878211 6.5972896 -0.47605503
1.2299249 6.5986981 -0.47674236
1.2709572 6.5939646 -0.47697148
1.3129522 6.5938649 -0.47758245
1.355998 6.5983806 -0.47857526
1.3970801 6.5928626 -0.47880438
1.4389968 6.5909848 -0.47933897
1.4807241 6.5878677 -0.47979721
1.5224674 6.5844865 -0.48025542
1.5660708 6.5886011 -0.48132461
1.6088351 6.5885539 -0.48208833
1.6502019 6.5824265 -0.4823938
1.6925483 6.5799017 -0.48300478
1.7367072 6.5838537 -0.48415035
1.7807177 6.5865483 -0.48521954
1.8250928 6.589911 -0.48636511
1.8714814 6.5996909 -0.48804528
1.915834 6.6014886 -0.48911446
1.9588592 6.5982113 -0.48980179
2.0019164 6.5946541 -0.49048913
2.0458903 6.5936732 -0.49140558
2.090832 6.595252 -0.49255115
2.1377137 6.6022182 -0.49415496
2.1819413 6.600337 -0.49507141
2.2262261 6.5981607 -0.49598786
2.2705662 6.5956893 -0.49690431
2.3169427 6.5985661 -0.49827898
2.3617585 6.5964284 -0.49927181
2.4062932 6.5930514 -0.50018823
2.4505272 6.5884418 -0.50102836
2.5025716 6.6040483 -0.50354856
2.5473566 6.59973 -0.50446504
2.5929122 6.5969663 -0.50553423
2.6392708 6.5957432 -0.50675619
2.6849594 6.5923514 -0.50782537
2.7356701 6.6006212 -0.5098874
2.7896836 6.6158648 -0.51256037
2.8369093 6.6142001 -0.51385868
2.8850172 6.6140318 -0.51530969
2.9271634 6.5998507 -0.51561517
2.9840033 6.6181211 -0.51867002
3.028295 6.6078444 -0.51935738
3.0742574 6.6008883 -0.52035022
3.1215281 6.5963197 -0.52157211
3.1675618 6.5887232 -0.52256495
3.2092428 6.5718513 -0.52279407
3.2446318 6.5422106 -0.521954
3.2874045 6.5275216 -0.52241218
3.3255785 6.5036769 -0.52210671
3.3723147 6.4964223 -0.52325231
3.4121125 6.4756079 -0.52325231
3.458837 6.4677372 -0.52439785
3.4870396 6.4253621 -0.52256495
3.5273614 6.4055915 -0.52271771
3.5773008 6.4029756 -0.52439785
3.6179967 6.3835073 -0.52462697
3.661571 6.3689666 -0.52531433
3.7116337 6.3653274 -0.52699447
3.7562051 6.3518734 -0.52783453
3.8104963 6.3543568 -0.53012568
3.8556321 6.3410792 -0.53104216
3.8902807 6.3105125 -0.53043115
3.9315708 6.2907505 -0.53081304
3.9663599 6.2606134 -0.53027844
3.9939215 6.2193804 -0.52875102
4.0178628 6.1730323 -0.52676535
4.03864 6.1224637 -0.52439785
4.1077232 6.1448116 -0.52875102
4.1654859 6.1492066 -0.53150034
4.1997519 6.1185999 -0.53104216
4.2360768 6.0910788 -0.53088939
4.2607341 6.0470424 -0.52920926
4.294281 6.0159163 -0.52875102
4.3445544 6.0080352 -0.53050756
4.3819265 5.9820685 -0.53058392
4.425086 5.9638758 -0.53142399
4.4717822 5.9501605 -0.53272229
4.5094156 5.9241967 -0.53287506
4.5475073 5.8987846 -0.53310412
4.603869 5.8967028 -0.53562438
4.648005 5.878509 -0.53661722
4.6908436 5.8584394 -0.53745729
4.7380075 5.8434858 -0.53883195
4.825665 5.8774862 -0.54509437
4.8839521 5.8745975 -0.5477674
4.9282551 5.8544345 -0.54876018
4.992548 5.85747 -0.55212051
5.0114546 5.8071022 -0.5501349
5.0489602 5.7784953 -0.55036402
5.090929 5.7548738 -0.55112767
5.1334629 5.7316971 -0.5519678
5.1611671 5.691967 -0.55112767
5.1966696 5.6609259 -0.55120409
5.2394528 5.6376963 -0.55212051
5.2732635 5.6047153 -0.55204415
5.3048029 5.5693665 -0.55173868
5.3388758 5.5367117 -0.55173868
5.3783207 5.5095558 -0.55234963
5.4162312 5.4807062 -0.55280787
5.4666858 5.4642839 -0.55464077
5.5114646 5.4418454 -0.55586272
5.5540323 5.4169741 -0.5568555
5.6194825 5.413919 -0.56029224
5.6641541 5.3903327 -0.56151414
5.6949425 5.3534279 -0.56128502
5.7211061 5.3122787 -0.56059772
5.7587385 5.2817917 -0.56113231
5.8191218 5.2717915 -0.5640344
5.8870296 5.2678962 -0.56770021
5.9349332 5.2455392 -0.56930399
5.9730172 5.2142692 -0.56991494
6.0109406 5.1827292 -0.57052594
6.0676823 5.167078 -0.57304615
6.1381946 5.1624756 -0.57694107
6.2219176 5.1680293 -0.58213431
6.2650757 5.1392388 -0.58327991
6.3011408 5.1044655 -0.58373809
6.3486948 5.078784 -0.58534193
6.3938231 5.0508566 -0.58671659
6.4522138 5.0329895 -0.58938956
6.5122051 5.0158124 -0.5922153
6.5857205 5.0083461 -0.59633934
6.6458321 4.9899893 -0.59916502
6.7123733 4.975832 -0.60260177
6.785428 4.965755 -0.6066494
6.8384018 4.9403729 -0.60878778
6.8848243 4.9098969 -0.6103152
6.9246063 4.8744459 -0.61123168
6.9764957 4.8472233 -0.61329371
7.007751 4.8054528 -0.61344641
7.119688 4.8182354 -0.6210835
7.1706786 4.7888536 -0.62306917
7.2282372 4.7634153 -0.62566578
7.280736 4.73419 -0.62780416
7.3213978 4.6969628 -0.62887335
7.3711443 4.6652794 -0.63078266
7.457994 4.6563911 -0.63605225
7.529727 4.6372018 -0.63994718
7.5929809 4.6121316 -0.64307839
7.6356797 4.5741639 -0.6443767
7.6885004 4.5419297 -0.64659142
7.7601676 4.5202579 -0.65048635
7.8612566 4.5147557 -0.65697789
7.9738479 4.5145664 -0.66446227
8.0127182 4.4718704 -0.66545504
8.074954 4.4418387 -0.6685099
8.1467638 4.4164376 -0.67240483
8.2467098 4.4053512 -0.6787436
8.303586 4.3704534 -0.68134022
8.3656549 4.3377757 -0.68439507
8.468483 4.3253579 -0.69096297
8.5527649 4.302433 -0.69592708
8.6272526 4.2737679 -0.70005113
8.6891623 4.2382317 -0.70310599
8.7419701 4.1977811 -0.70539707
8.8180466 4.1679168 -0.70967388
8.9420023 4.1595588 -0.71799833
9.0217562 4.1295061 -0.72258055
9.1151142 4.1047697 -0.72830838
9.2139759 4.0814648 -0.73449445
9.3183765 4.0594883 -0.7411387
9.3861895 4.0206828 -0.74472815
9.4125204 3.9637883 -0.74488091
9.5186625 3.9398885 -0.75167793
9.689518 3.9411235 -0.76382089
9.8033333 3.917475 -0.77122891
10.025817 3.9351881 -0.78757226
10.207012 3.9341831 -0.80047899
10.369914 3.9240446 -0.81185824
10.540549 3.9148297 -0.82384849
10.620583 3.8705592 -0.82843077
10.773703 3.8516266 -0.83896995
10.719974 3.7584052 -0.83270752
10.717373 3.6838095 -0.8306455
10.720877 3.6116152 -0.82911807
10.717269 3.5373299 -0.82705605
10.724541 3.4669046 -0.82591051
10.709487 3.3896055 -0.82300842
10.699605 3.3143916 -0.82056457
10.720695 3.2489667 -0.82064092
10.735648 3.1817086 -0.82025903
10.751138 3.1146665 -0.81995356
10.761412 3.0461969 -0.81926626
10.772212 2.9779842 -0.81865525
10.774879 2.9076762 -0.81743336
10.76359 2.8338952 -0.81514221
10.762425 2.7630887 -0.81369114
10.756929 2.6914358 -0.81193459
10.770335 2.6246738 -0.81170553
10.772655 2.5553186 -0.81063634
10.778415 2.4869301 -0.80987263
10.793471 2.420748 -0.80987263
10.8052 2.3538387 -0.80964351
10.800903 2.2835782 -0.80819243
10.80006 2.2142596 -0.80704689
10.793883 2.144067 -0.80551946
10.792149 2.0749743 -0.80437392
10.787032 2.0054374 -0.8029992
10.772636 1.9344562 -0.80093718
10.766619 1.8652585 -0.79956251
10.763108 1.7966995 -0.79841697
10.759163 1.7282541 -0.79727137
10.763652 1.6612927 -0.79681319
10.779561 1.5960925 -0.79727137
10.7931 1.5304798 -0.79757684
10.797348 1.4635566 -0.79719502
10.792281 1.3954892 -0.79612583
10.798661 1.3289994 -0.79597306
10.820477 1.2643336 -0.79704225
10.822085 1.1972594 -0.79658407
10.821294 1.1300062 -0.79597306
10.812147 1.062029 -0.79475117
10.795624 0.99356759 -0.79299462
10.788602 0.92620087 -0.79200178
10.784142 0.85919505 -0.79123807
10.78225 0.79249775 -0.79070348
10.781936 0.72598976 -0.79032165
10.784197 0.65969783 -0.79016888
10.790033 0.59362417 -0.79032165
10.797456 0.52760082 -0.79062712
10.808459 0.46167848 -0.79123807
10.824042 0.39582264 -0.7922309
10.842214 0.32988355 -0.79345286
10.854998 0.26361588 -0.79429293
10.868374 0.1972217 -0.79520935
10.880346 0.13066141 -0.79604948
10.890914 0.063955888 -0.79681319
10.89509 -0.0028721902 -0.79711866
10.894867 -0.069723152 -0.79711866
10.893237 -0.13655888 -0.79704225
10.892195 -0.20339596 -0.79704225
10.890741 -0.27022538 -0.79704225
10.888878 -0.33704463 -0.79704225
10.889594 -0.40396237 -0.79727137
10.880934 -0.47051299 -0.79681319
10.868879 -0.53682464 -0.79612583
10.868367 -0.60367095 -0.79635495
10.853512 -0.66966999 -0.79551488
10.853177 -0.73652375 -0.79582036
10.869335 -0.8046518 -0.79742414
10.877114 -0.87236732 -0.79841697
10.871556 -0.93909162 -0.79841697
10.846726 -1.0040324 -0.7969659
10.826469 -1.0691943 -0.79589671
10.813756 -1.1349791 -0.79543847
10.809561 -1.2016405 -0.79566759
10.800994 -1.2678277 -0.79559124
10.794991 -1.3343223 -0.79574394
10.771769 -1.3986067 -0.7945984
10.753104 -1.4633292 -0.79383469
10.740962 -1.5288596 -0.79360557
10.743214 -1.5964961 -0.79452205
10.751937 -1.6652868 -0.79597306
10.748406 -1.7323394 -0.79650766
10.731674 -1.797269 -0.79604948
10.699816 -1.8594961 -0.79444569
10.675448 -1.9228148 -0.79345286
10.66835 -1.9891963 -0.79383469
10.665733 -2.0565073 -0.7945984
10.674427 -2.1262 -0.7962786
10.649461 -2.1892464 -0.79536211
10.628024 -2.2528942 -0.79475117
10.602311 -2.3155098 -0.79383469
10.582067 -2.3792078 -0.79337645
10.56047 -2.4425199 -0.79284185
10.535583 -2.5049644 -0.79207814
10.510329 -2.5671954 -0.79131448
10.478906 -2.6277552 -0.79009253
10.450998 -2.6890204 -0.78917605
10.427553 -2.7513144 -0.78864145
10.414325 -2.8162866 -0.78894693
10.403575 -2.8819985 -0.78948152
10.398165 -2.9493179 -0.79047436
10.386575 -3.0150106 -0.79100895
10.371703 -3.0798204 -0.79131448
10.353564 -3.1436918 -0.79139084
10.337889 -3.2083435 -0.79169631
10.316108 -3.2711122 -0.79154354
10.290151 -3.3325052 -0.79108536
10.266669 -3.3946424 -0.79085624
10.244702 -3.4572546 -0.79077983
10.26949 -3.5359607 -0.79452205
10.214675 -3.5873394 -0.79184908
10.153986 -3.6361616 -0.78871787
10.118372 -3.6936088 -0.78764862
10.1357 -3.7705774 -0.7909326
10.15153 -3.847544 -0.79414016
10.165867 -3.9244869 -0.79727137
10.164793 -3.9959118 -0.79918069
10.154894 -4.064136 -0.80040258
10.141769 -4.1312599 -0.80139542
10.132809 -4.200285 -0.80277008
10.119707 -4.2678056 -0.80383927
10.102492 -4.3337502 -0.80460298
10.079366 -4.3972516 -0.80490851
10.05493 -4.460228 -0.80513757
10.034644 -4.5251198 -0.80574858
10.023004 -4.5940857 -0.80712324
10.005472 -4.6605525 -0.80803972
9.9847975 -4.725697 -0.80872703
9.9645987 -4.7911954 -0.80949074
9.9421806 -4.8557482 -0.81010169
9.9255962 -4.9233079 -0.81124729
9.9112291 -4.9921932 -0.81262195
9.8795233 -5.0524592 -0.8125456
8.2175074 -4.2660847 -0.67179388
8.1629515 -4.301548 -0.66934997
8.1504707 -4.3590794 -0.67057192
8.1402197 -4.4180465 -0.672023
9.9670439 -5.489285 -0.8341586
9.9305639 -5.5488791 -0.83392948
9.8919926 -5.6072483 -0.83354759
9.860858 -5.6698275 -0.83385307
9.8353577 -5.7357521 -0.83469319
9.7939711 -5.792439 -0.8341586
8.9519482 -5.3687425 -0.76214075
8.9018002 -5.4132066 -0.76061332
8.8870888 -5.4792395 -0.76229346
8.8549929 -5.5347233 -0.76244622
8.8410778 -5.6017623 -0.76427913
8.2193117 -5.2786713 -0.71081942
8.7867107 -5.7196269 -0.76565379
8.8454914 -5.8354883 -0.77428371
9.623435 -6.4339318 -0.84928006
9.5829506 -6.4923 -0.84920365
9.5281391 -6.5408187 -0.84782898
9.4935551 -6.6031451 -0.84836358
9.4553051 -6.6629953 -0.8485927
7.3888798 -5.2746577 -0.65797073
7.3563762 -5.3198957 -0.65797073
7.323595 -5.3649335 -0.65797073
7.3009472 -5.4174943 -0.65896356
7.2755384 -5.4681816 -0.65972722
7.3457699 -5.5918493 -0.66973186
7.3097415 -5.6355991 -0.66957909
7.2923126 -5.6938467 -0.67125928
7.2853918 -5.7607517 -0.67400861
9.0499439 -7.2470922 -0.85065472
9.1175928 -7.393558 -0.86172849
9.0959406 -7.4689808 -0.86409599
9.0760059 -7.5463285 -0.8666926
9.0386839 -7.6095824 -0.86760908
9.0161018 -7.6856003 -0.87005293
8.9763222 -7.747293 -0.87081665
8.9714088 -7.8396258 -0.87516981
8.9604721 -7.9275637 -0.87898833
8.9458218 -8.0130005 -0.88250142
8.9319363 -8.0998936 -0.88616723
8.9518375 -8.2186136 -0.89342248
8.8778725 -8.2516623 -0.89097857
8.7965784 -8.2772799 -0.88777101
8.6503363 -8.2403097 -0.87769002
8.5508127 -8.2461615 -0.87249678
8.4743719 -8.2733955 -0.86974746
8.4248667 -8.3266392 -0.86990023
8.4504375 -8.4550552 -0.87822461
8.4285183 -8.5372601 -0.88150859
8.3905935 -8.6038074 -0.88311237
8.3445606 -8.6623106 -0.88387609
7.868588 -8.2690811 -0.83690792
8.1966629 -8.7204638 -0.87929386
8.1341829 -8.7610931 -0.87830102
8.053319 -8.7814426 -0.87524617
7.9664884 -8.7944784 -0.87150401
7.3659301 -8.2323427 -0.80872703
7.3132982 -8.2751427 -0.80849791
7.2676301 -8.3258705 -0.80910891
7.2326813 -8.3891878 -0.81101817
3.0509648 -3.5819993 -0.32300755
2.9962034 -3.5617306 -0.31911266
2.9475398 -3.5478299 -0.31590506
2.9086444 -3.5450323 -0.31384304
2.8761702 -3.5496402 -0.31254473
2.8493538 -3.5609918 -0.31193379
2.7946987 -3.5369358 -0.30788612
2.7704911 -3.5508721 -0.30758062
2.6981618 -3.502233 -0.30124184
2.7291217 -3.5877779 -0.30788612
2.6980777 -3.5924945 -0.30674055
2.6088998 -3.5184596 -0.29811063
2.5801971 -3.5247447 -0.29719418
0 -0 -0
2.5101233 -3.5187962 -0.29368111
2.4219215 -3.4395442 -0.28482208
2.3967896 -3.4486077 -0.28428748
2.3389387 -3.4097939 -0.27932337
2.285567 -3.3761828 -0.27489385
2.2708981 -3.3992648 -0.27573392
2.2532892 -3.4181306 -0.27619216
2.2328169 -3.4327283 -0.27626851
2.2133269 -3.4488819 -0.27649763
2.1771958 -3.4388051 -0.27435926
2.1523592 -3.4461787 -0.27382466
2.1233323 -3.4465845 -0.27267909
2.0969691 -3.4510255 -0.27191538
2.0737054 -3.4604056 -0.2716099
2.0422933 -3.4558938 -0.27008247
2.0135236 -3.4554355 -0.2689369
1.987319 -3.4590781 -0.26817319
1.9572166 -3.4555879 -0.26679853
1.9316045 -3.4596956 -0.26611117
1.9016917 -3.4557562 -0.2647365
1.8742757 -3.4559636 -0.26374367
1.8497472 -3.4612422 -0.26320907
1.8289388 -3.4734092 -0.26328546
1.800709 -3.4712877 -0.26213989
1.7694004 -3.4627349 -0.26045972
1.7481201 -3.4735267 -0.26045972
1.7281015 -3.4868681 -0.26068884
1.703615 -3.4911325 -0.26015425
1.6843191 -3.5060141 -0.2605361
1.6487179 -3.4865332 -0.25801584
1.6319185 -3.5065291 -0.25885594
1.6136912 -3.5237298 -0.25946692
1.5932676 -3.5362923 -0.25969601
1.5723468 -3.5478253 -0.25984877
1.5541312 -3.5656335 -0.2605361
1.5349711 -3.5815184 -0.2610707
1.5121927 -3.5890315 -0.26091796
1.487855 -3.5927148 -0.26045972
0 -0 -0
0 -0 -0
1.4305779 -3.6426971 -0.26236901
1.4099922 -3.6560585 -0.26275086
1.398116 -3.6926186 -0.26504198
1.3858439 -3.7291698 -0.26733312
0 -0 -0
1.3490369 -3.7712462 -0.26939514
0 -0 -0
0 -0 -0
1.3035767 -3.8672538 -0.27519932
1.314501 -3.9802823 -0.28367651
1.2934264 -3.9987094 -0.28451657
1.2842058 -4.0550528 -0.2884115
1.264609 -4.0800004 -0.28978619
1.2502469 -4.1229906 -0.29261193
1.2999791 -4.3839264 -0.31285024
1.2478164 -4.3046675 -0.30590045
1.172244 -4.1385889 -0.2920773
1.2246422 -4.4272943 -0.31445402
1.2506872 -4.6320729 -0.33011007
1.2524397 -4.754405 -0.3391982
1.2527369 -4.8769288 -0.34828636
1.2438354 -4.968678 -0.35493064
1.2324384 -5.0546856 -0.36111668
1.2260128 -5.1659622 -0.36928838
1.2231965 -5.2987208 -0.37914023
1.2329726 -5.4948759 -0.39395621
1.2187492 -5.591969 -0.40098235
1.2108011 -5.7242107 -0.41075784
1.2092812 -5.8956318 -0.42358816
1.2000716 -6.0388818 -0.43420371
1.1836919 -6.1538396 -0.44260454
1.1859815 -6.3766532 -0.45940614
1.1943861 -6.6487885 -0.4800263
1.1738092 -6.7729053 -0.48911446
1.1602846 -6.9481568 -0.5021739
1.1467071 -7.1362891 -0.51622617
1.3735842 -8.8982372 -0.6522429
1.3126845 -8.8640852 -0.64895892
1.2598095 -8.8828325 -0.64979899
1.2007319 -8.856801 -0.64720237
1.1457261 -8.8590574 -0.64682055
1.0909814 -8.8629522 -0.64659142
1.0364631 -8.8684893 -0.64651507
0.9809323 -8.8647718 -0.64575136
0.92538267 -8.8597145 -0.64491129
0.87041885 -8.859272 -0.64445305
0.8146739 -8.8495531 -0.64330751
0.76035875 -8.8543844 -0.64330751
0.70569861 -8.854908 -0.64300197
0.65076882 -8.8511162 -0.64239103
0.59624648 -8.8519583 -0.64216191
0.54192066 -8.8554497 -0.64216191
0.48790243 -8.8645821 -0.64262015
0.43320987 -8.861433 -0.64216191
0.37895632 -8.8669128 -0.64239103
0.20163785 -5.4981914 -0.38402799
0.14605191 -4.7787676 -0.32881176
0.11643799 -4.7676125 -0.32789531
0.086930513 -4.7542806 -0.32682613
0.05759104 -4.740766 -0.32575691
0.028345961 -4.7141094 -0.32369491
-0.0005687105 -4.6842823 -0.32140377
-0.029349843 -4.6901731 -0.32186201
-0.058203284 -4.6958866 -0.32232022
-0.087015606 -4.6954412 -0.32232022
-0.1161724 -4.7087736 -0.32338941
-0.14407216 -4.6760812 -0.32094556
-0.17309496 -4.6840763 -0.32163289
-0.20174628 -4.680934 -0.32148015
-0.23046416 -4.6796079 -0.32148015
-0.25911796 -4.6771102 -0.32140377
-0.28799582 -4.6784177 -0.32163289
-0.31676424 -4.6775575 -0.32170925
-0.3449432 -4.6685653 -0.32117465
-0.37382194 -4.6693425 -0.32140377
-0.40289503 -4.6719275 -0.32178563
-0.43118581 -4.6653962 -0.32148015
-0.46147171 -4.6795311 -0.32277846
-0.49028027 -4.6776028 -0.32285482
-0.5182004 -4.6675696 -0.32232022
-0.54799378 -4.6742048 -0.32308394
-0.57788807 -4.6806498 -0.32384765
-0.60646862 -4.6760273 -0.32377127
-0.63716704 -4.6870375 -0.32491684
-0.66380501 -4.6682329 -0.32377127
-0.70020962 -4.7163424 -0.32781893
-0.73280054 -4.7356048 -0.32965183
-0.75993878 -4.7192068 -0.32873538
-0.79300088 -4.7390394 -0.33064467
-0.82189333 -4.7331018 -0.33056828
-0.85675573 -4.7603517 -0.33308855
-0.89253181 -4.7902913 -0.3358379
-0.92322987 -4.7915778 -0.33637249
-0.96216232 -4.8337374 -0.34011465
-1.0010439 -4.8726678 -0.34362772
-1.8817724 -8.8781862 -0.65774161
-1.9387667 -8.8781614 -0.65865803
-1.995175 -8.8748531 -0.65934539
-2.0540881 -8.8818722 -0.66087282
-2.1129317 -8.8875322 -0.66232383
-2.1676617 -8.8753681 -0.66240025
-2.22402 -8.8696375 -0.66301119
-2.2828753 -8.8732052 -0.66438586
-2.3436394 -8.883132 -0.66629517
-2.3983614 -8.8695469 -0.66637152
-2.4514074 -8.8498602 -0.66598964
-2.5100179 -8.8499994 -0.66721159
-2.5667758 -8.843049 -0.66789895
-2.6212711 -8.8280888 -0.66797531
-2.6774185 -8.8185167 -0.6685099
-2.7181737 -8.7590714 -0.66507322
-2.7586024 -8.7004108 -0.66171288
-2.8024087 -8.6539154 -0.65934539
-2.8516979 -8.6251974 -0.65842897
-2.8682108 -8.4998417 -0.64972264
-2.9056988 -8.4396601 -0.64628595
-2.9359472 -8.3605261 -0.64132184
-2.9740772 -8.3057451 -0.63834339
-3.0003598 -8.2199059 -0.63284469
-3.0347433 -8.1583557 -0.62933159
-3.0744941 -8.1125441 -0.62711686
-3.1087687 -8.0535307 -0.62383288
-3.134408 -7.97399 -0.61886877
-3.1621537 -7.901845 -0.6145156
-3.1944003 -7.8425889 -0.61123168
-3.2164917 -7.76021 -0.60603845
-3.2427316 -7.6898007 -0.60183805
-3.2627246 -7.6065354 -0.59656847
-3.2961757 -7.5562153 -0.5940482
-3.3279195 -7.5030379 -0.59129882
-3.3538055 -7.4379411 -0.58755666
-3.3781879 -7.3709984 -0.58366174
-3.4056656 -7.3121724 -0.58045417
-3.4308426 -7.2496829 -0.57694107
-3.4514923 -7.1790748 -0.57274067
-3.4823472 -7.1308851 -0.57044959
-3.5034351 -7.0638309 -0.56655467
-3.5337017 -7.0163784 -0.56433988
-3.55035 -6.9430785 -0.55991036
-3.5722067 -6.8813438 -0.55647367
-3.5906503 -6.8143115 -0.55257875
-3.6131105 -6.7561054 -0.54944754
-3.6411767 -6.7092729 -0.54730916
-3.651485 -6.6309114 -0.5424214
-3.661943 -6.554419 -0.53768641
-3.6873379 -6.5058055 -0.53539526
-3.7087948 -6.4510779 -0.53256953
-3.7297196 -6.3963327 -0.52974385
-3.7516363 -6.3441496 -0.52714723
-3.7797213 -6.3030548 -0.52554339
-3.7830904 -6.221817 -0.52035022
-3.806541 -6.1747246 -0.51821178
-3.8279712 -6.1250429 -0.51584429
-3.8548067 -6.0845957 -0.51431686
-3.8726678 -6.0306282 -0.51156753
-3.8954532 -5.9850278 -0.50958186
-3.9134319 -5.9327173 -0.50698525
-3.9270363 -5.8746114 -0.50385404
-3.9529402 -5.835547 -0.50247937
-3.9683542 -5.7815914 -0.49973002
-4.0009074 -5.7530408 -0.49934816
-4.0085597 -5.6892643 -0.49568236
-4.020216 -5.6321034 -0.49262753
-4.0354137 -5.5806699 -0.4901073
-4.0342202 -5.5075479 -0.48552501
-4.0637779 -5.4770861 -0.48499042
-4.0571647 -5.3986502 -0.47987357
-4.0763211 -5.3554087 -0.47811705
-4.1078868 -5.3287168 -0.47796428
-4.1362095 -5.2979102 -0.47742969
-4.1556497 -5.2560086 -0.47582591
-4.1610188 -5.1969476 -0.47254196
-4.1639366 -5.1356964 -0.46902889
-4.181448 -5.0930986 -0.46734872
-4.2036943 -5.0566134 -0.46627954
-4.2301464 -5.0253859 -0.46574494
-4.248611 -4.9849195 -0.4642939
-4.2628293 -4.939888 -0.46238461
-4.2864976 -4.9061313 -0.4616209
-4.3052878 -4.8670435 -0.46032259
-4.3164411 -4.8197412 -0.45818421
-4.3271766 -4.7724862 -0.45604584
-4.3361468 -4.7238131 -0.45375469
-4.3535089 -4.6847034 -0.45245638
-4.3637214 -4.6382985 -0.45039436
-4.3817825 -4.6006074 -0.44924879
-4.3960848 -4.5592818 -0.44772139
-4.4170113 -4.5250883 -0.44695768
-4.4068413 -4.45961 -0.44283363
-4.3910985 -4.3894944 -0.43817502
-4.4271741 -4.3715744 -0.43916783
-4.4517727 -4.3422394 -0.43893874
-4.4682779 -4.3051581 -0.43786952
-4.485219 -4.2687259 -0.43687671
-4.4808102 -4.2124467 -0.43366912
-4.4766116 -4.1570616 -0.43053791
-4.4961553 -4.1241245 -0.42992693
-4.5198975 -4.0951204 -0.42977419
-4.5367651 -4.0599976 -0.42893413
-4.5541196 -4.0254817 -0.42817041
-4.5539432 -3.9758275 -0.42565018
-4.5661688 -3.9373944 -0.42442822
-4.575058 -3.8963761 -0.42290083
-4.5859056 -3.8573222 -0.42160252
-4.5795708 -3.8042691 -0.41862404
-4.592804 -3.7678785 -0.41763121
-4.594141 -3.7220564 -0.41549283
-4.581852 -3.6657736 -0.41205615
-4.5979981 -3.6326473 -0.41144517
-4.6052623 -3.5927162 -0.40999413
-4.6035194 -3.5461421 -0.40770298
-4.6212225 -3.5148115 -0.40732113
-4.6283484 -3.4756157 -0.40594646
-4.6327648 -3.4346845 -0.40434265
-4.6585808 -3.4097261 -0.40480089
-4.6600151 -3.3670664 -0.40296799
-4.6878943 -3.3436191 -0.40365532
-4.7034297 -3.3113489 -0.40319711
-4.716289 -3.2773075 -0.40250975
-4.7223287 -3.238723 -0.40121144
-4.7388086 -3.2074516 -0.40090597
-4.7584 -3.1783144 -0.40090597
-4.7769799 -3.148509 -0.40082961
-4.7903571 -3.1153347 -0.40029499
-4.7825246 -3.0686581 -0.39785114
-4.7759857 -3.0232615 -0.39556
-4.8020592 -2.9986513 -0.39624733
-4.8033867 -2.9586751 -0.39471993
-4.7924738 -2.9115505 -0.39212331
-4.7931399 -2.8718441 -0.39059588
-4.7857738 -2.8276761 -0.38838112
-4.7961407 -2.7942438 -0.38777018
-4.8140602 -2.765259 -0.38784653
-4.8023019 -2.719461 -0.3853263
-4.824122 -2.6928582 -0.38578451
-4.8291965 -2.6569614 -0.3847917
-4.8331356 -2.6206288 -0.38372251
-4.8535223 -2.5932724 -0.38410434
-4.8225765 -2.5388358 -0.38005668
-4.8221297 -2.5009377 -0.37868202
-4.8507047 -2.4781039 -0.37982759
-4.8702726 -2.4505336 -0.38020945
-4.8807497 -2.4183917 -0.37982759
-4.8963928 -2.3888354 -0.37990394
-4.9055648 -2.3561578 -0.37944573
-4.8676424 -2.301307 -0.37501621
-4.870822 -2.2663512 -0.37409976
-4.8791962 -2.2339325 -0.37364152
-4.89463 -2.2047708 -0.37379426
-4.8934793 -2.168237 -0.37257233
-4.905777 -2.1377723 -0.37249595
-4.8940539 -2.0970333 -0.37043396
-4.9252086 -2.0747018 -0.37196136
-4.9102063 -2.0330055 -0.36967024
-4.9244351 -2.0035899 -0.36982298
-0.24401511 -0.098737091 0.01722518
-0.25575456 -0.1016084 0.016308727
-0.2563732 -0.1000372 0.016308727
-0.25698221 -0.098462239 0.016308727
-0.25851625 -0.097230628 0.016232356
-0.25910798 -0.095642574 0.016232356
-0.26062888 -0.094386473 0.016155986
-0.26402599 -0.093774877 0.015926873
-0.26271048 -0.091505058 0.016079614
-0 -0 -0
-0.26949483 -0.090148792 0.015621388
-0.2700429 -0.088493511 0.015621388
-0 -0 -0
-0.27301344 -0.085762866 0.015468647
-0.27162603 -0.08350791 0.015621388
-0 -0 -0
-0 -0 -0
-0.27311713 -0.078494012 0.015621388
-0 -0 -0
-0.2740598 -0.075136535 0.015621388
-0.27451566 -0.073453523 0.015621388
-0 -0 -0
-0.27055994 -0.068869703 0.016003244
-0.26710239 -0.066264391 0.016308727
-0.26750398 -0.064624235 0.016308727
-0.26595232 -0.062533513 0.016461469
-0.26827687 -0.061336685 0.016308727
-0 -0 -0
-0.27193597 -0.058658332 0.016079614
-0.27522111 -0.057589125 0.015850501
-0 -0 -0
-0.27688625 -0.054395556 0.015774131
-0.27819511 -0.052877732 0.015697761
-0 -0 -0
-0.27391076 -0.048609376 0.016079614
-0.27420387 -0.046927776 0.016079614
-0.27448663 -0.045244411 0.016079614
-0 -0 -0
-0.27699387 -0.042164501 0.015926873
-0.2742857 -0.04004446 0.016155986
-0.27650237 -0.038628366 0.016003244
-0 -0 -0
-0.2739867 -0.034867287 0.016232356
-0.27518585 -0.033301093 0.016155986
-0.27736709 -0.031831022 0.016003244
-0 -0 -0
-0.28071377 -0.028716994 0.015774131
-0.28287047 -0.02717657 0.015621388
-0 -0 -0
-0.28815237 -0.024098674 0.015239534
-0.28928921 -0.022403132 0.015163163
-0.28942123 -0.020627664 0.015163163
-0 -0 -0
-0.29164374 -0.017183797 0.015010421
-0 -0 -0
-0.28685176 -0.013391369 0.015392276
-0 -0 -0
-0 -0 -0
-0 -0 -0
-0 -0 -0
-0.28214249 -0.0045266165 0.015774131
-0.28415909 -0.0028068339 0.015621388
-0.28616512 -0.0010624741 0.015468647
-0 0 -0
-0.2871536 0.0024618977 0.015392276
-0.28513929 0.0041863471 0.015545018
-0.28411147 0.0059110112 0.015621388
-0 0 -0
-0.28102836 0.009285843 0.015850501
-0 0 -0
-0 0 -0
-0 0 -0
-0.2628026 0.015072634 0.01722518
-0 0 -0
-0 -0 -0
-0 -0 -0
-0 -0 -0
-0 -0 -0
-0 -0 -0
-0 0 -0
-0 0 -0
-0 0 -0
-0 0 -0
-0 0 -0
-0 0 -0
-0 0 -0
-0 0 -0
-0 0 -0
-0 0 -0
-0 0 -0
-0 0 -0
-0 0 -0
-0 0 -0
-0 0 -0
-0 0 -0
-0 0 -0
-0 0 -0
-0 0 -0
-0 0 -0
-0 0 -0
-0 0 -0
-0 0 -0
-0 0 -0
-0 0 -0
-0 0 -0
-0 0 -0
-0 0 -0
-0 0 -0
-0 0 -0
-0 0 -0
-0 0 -0
-0 0 -0
-0 0 -0
-0 0 -0
-0 0 -0
-0 0 -0
-0 0 -0
-0 0 -0
-0 0 -0
-0 0 -0
-0 0 -0
-0 0 -0
-0 0 -0
-0 0 -0
-0 0 -0
-0 0 -0
-0 0 -0
-0 0 -0
-0 0 -0
-0 0 -0
-0 0 -0
-0 0 -0
-0 0 -0
-0 0 -0
-0 0 -0
-0 0 -0
-0 0 -0
-0 0 -0
-0 0 -0
-0 0 -0
-0 0 -0
-0 0 -0
-0 0 -0
-0 0 -0
-0 0 -0
-0 0 -0
-0 0 -0
-0 0 -0
-0 0 -0
-0 0 -0
-0 0 -0
-0 0 -0
-0 0 -0
-0 0 -0
-0 0 -0
-0 0 -0
-0 0 -0
-0 0 -0
-0 0 -0
-0 0 -0
-0 0 -0
-0 0 -0
-0 0 -0
-0 0 -0
-0 0 -0
-0 0 -0
-0 0 -0
-0 0 -0
-0 0 -0
-0 0 -0
-0 0 -0
-0 0 -0
-0 0 -0
-0 0 -0
-0 0 -0
-0 0 -0
-0 0 -0
-0 0 -0
-0 0 -0
-0 0 -0
-0 0 -0
-0 0 -0
-0 0 -0
-0 0 -0
-0 0 -0
-0 0 -0
-0 0 -0
-0 0 -0
-0 0 -0
-0 0 -0
-0 0 -0
-0 0 -0
-0 0 -0
-0 0 -0
-0 0 -0
-0 0 -0
-0 0 -0
-0 0 -0
-0 0 -0
-0 0 -0
-0 0 -0
-0 0 -0
-0.25304523 0.24134405 0.0065579815
-0 0 -0
-0.23081088 0.22565337 0.0089440458
-0.25281289 0.25015989 0.0060277451
-0.24070556 0.24114385 0.0073533361
-0.26652822 0.27024701 0.0039067985
-0.26973572 0.27686664 0.0032881894
-0.26803181 0.2785165 0.0032881894
-0.25944766 0.27294338 0.0041719172
-0 0 -0
-0.25946927 0.27975479 0.0037300531
-0.25909507 0.28280914 0.0035533076
-0.25869313 0.28586936 0.0033765621
-0.26557359 0.29709709 0.0022277164
-0.26374564 0.29872102 0.0022277164
-0 0 -0
-0.26006001 0.30193508 0.0022277164
-0.2420485 0.28457338 0.0044370354
-0.25376925 0.30205563 0.0025812073
-0.2366277 0.28522444 0.0047021536
-0.21970284 0.26819497 0.0068230997
-0 0 -0
-0 0 -0
-0 0 -0
-0 0 -0
-0 0 -0
-0 0 -0
-0 0 -0
-4.7167454 6.3572636 -0.66472149
-4.6882448 6.4005494 -0.66631222
-4.6704803 6.4590597 -0.66958201
-4.649859 6.514349 -0.67249829
-4.639061 6.5842843 -0.67700529
-4.6275792 6.6543303 -0.6815123
-4.6182303 6.7285881 -0.68646121
-4.5992041 6.7897854 -0.68999612
-4.5962076 6.8758435 -0.69618219
-4.5846481 6.9504781 -0.70113105
-4.5821252 7.0402541 -0.70767063
-4.5560651 7.0950575 -0.71049857
-4.5417657 7.1691575 -0.71535909
-4.5436215 7.2703772 -0.72304749
-4.5302901 7.3489933 -0.72834986
-4.5115061 7.4200578 -0.73285687
-4.5079012 7.5176487 -0.74010348
-4.498703 7.6077557 -0.74655467
-4.4644823 7.6567278 -0.74876398
-4.4263544 7.6995206 -0.75035471
-4.4497571 7.8513207 -0.76308036
-4.43648 7.9410849 -0.76944321
-4.4145794 8.0170183 -0.77439207
-4.4014153 8.1104898 -0.78110844
-4.3929067 8.2146387 -0.78888524
-4.3795691 8.3119364 -0.79595506
-4.3638248 8.4067249 -0.80275977
-4.3543367 8.5158205 -0.81097841
-4.3409843 8.6197748 -0.81866682
-4.323421 8.7176371 -0.82573664
-4.3179317 8.8424568 -0.83545768
-4.3093452 8.9639425 -0.84482515
-4.3011332 9.0892544 -0.85454619
-4.2995348 9.2319546 -0.86594629
-4.3063054 9.3967056 -0.87946731
-4.296473 9.529192 -0.88980693
-4.2795215 9.6491604 -0.89890933
-4.2580709 9.7619724 -0.9073047
-4.245213 9.8977671 -0.91790944
-4.2320085 10.03652 -0.9287793
-4.2107749 10.159837 -0.93814683
-4.184804 10.274964 -0.94671899
-4.1686802 10.417895 -0.95794231
-4.1648054 10.596239 -0.97252381
-4.1560273 10.767488 -0.98639834
-4.1382422 10.920393 -0.99850541
-4.1288066 11.100555 -1.0131752
-4.1029687 11.241707 -1.0241336
-4.0554047 11.326689 -1.0297893
-4.015532 11.435943 -1.0377429
-3.9634457 11.513109 -1.0426918
-3.9038746 11.570245 -1.0457848
-3.8193622 11.553314 -1.0419848
-3.7373531 11.542417 -1.0388033
-3.6550198 11.52905 -1.0354452
-3.5827341 11.546503 -1.0350033
-3.5103717 11.563503 -1.0345615
-3.4336829 11.565727 -1.032794
-3.3582096 11.571273 -1.0313801
-3.2844286 11.582077 -1.0304964
-3.2082484 11.583774 -1.0288173
-3.1337311 11.59074 -1.0276684
-3.0534053 11.575078 -1.024487
-2.9522939 11.47687 -1.0137939
-2.8493545 11.365301 -1.0019519
-2.7701116 11.343864 -0.99841702
-2.6840975 11.291843 -0.99214256
-2.6048863 11.265399 -0.98825419
-2.5263195 11.239382 -0.98445415
-2.4356325 11.15541 -0.97544008
-2.3437998 11.060033 -0.96545398
-2.2650628 11.021519 -0.96068186
-2.1812449 10.954126 -0.95334691
-2.0990939 10.890036 -0.94636548
-2.0260274 10.869417 -0.94336081
-1.9518808 10.840471 -0.93964916
-1.8679342 10.752143 -0.93063515
-1.7841588 10.657301 -0.92109084
-1.7106512 10.617894 -0.91658384
-1.6361701 10.568146 -0.91119313
-1.5557768 10.473547 -0.90182561
-1.4851675 10.438519 -0.89784884
-1.4151813 10.404008 -0.89396042
-1.34093 10.332483 -0.88680226
-1.2710309 10.288123 -0.88211846
-1.2031201 10.255167 -0.87849522
-1.1364319 10.228696 -0.87549055
-1.0708417 10.208729 -0.87310445
-1.0034841 10.167527 -0.86886257
-0.93777412 10.137786 -0.86568117
-0.87469518 10.133426 -0.86479741
-0.8106702 10.115765 -0.86276484
-0.74417484 10.060946 -0.85746247
-0.68074256 10.040478 -0.85525316
-0.61765087 10.020605 -0.85313219
-0.55438703 9.9923811 -0.85030431
-0.48997027 9.9329166 -0.84473681
-0.42639026 9.8750315 -0.83934605
-0.36446169 9.8416281 -0.83616465
-0.30366743 9.8307362 -0.83501577
-0.24272434 9.807519 -0.83280647
-0.18142754 9.7490692 -0.8275041
-0.12101922 9.703186 -0.82335061
-0.061263382 9.6698799 -0.82034594
-0.0019246577 9.6521444 -0.81875521
0.057264585 9.645998 -0.81822497
0.11631841 9.6345091 -0.81725287
0.17519721 9.6206665 -0.81610405
0.23362006 9.5945158 -0.81389469
0.29236525 9.5889196 -0.81354123
0.35094127 9.579977 -0.8129226
0.40924844 9.5666962 -0.8119505
0.46691951 9.5431128 -0.81009465
0.5241524 9.5161982 -0.80797374
0.58119428 9.4909296 -0.80602956
0.63700873 9.4514065 -0.8028481
0.69192183 9.4055967 -0.79913646
0.74661344 9.3634424 -0.79577827
0.80175138 9.3318892 -0.79339224
0.85589105 9.2930698 -0.79038757
0.90831858 9.2410517 -0.78623402
0.95165503 9.1075039 -0.77483398
0.80627018 7.2827816 -0.61249322
0.81521285 6.9719872 -0.585186
0.85907203 6.9757514 -0.58598137
0.90530777 6.9970212 -0.5883674
0.94956177 7.001205 -0.58925116
0.96424854 6.796031 -0.57139987
0.97776747 6.5998154 -0.55434394
1.0185487 6.5956607 -0.55452067
1.0597898 6.5942044 -0.55496252
1.099739 6.58463 -0.55469739
1.1442022 6.6013131 -0.55681837
1.1845095 6.5931878 -0.55672997
1.226581 6.5946093 -0.55752534
1.2705954 6.6055441 -0.5592044
1.3105202 6.5946927 -0.55893928
1.3465579 6.5650601 -0.55699509
1.3864028 6.5547252 -0.55681837
1.4206586 6.5188437 -0.55434394
1.4540904 6.4808459 -0.55169272
1.4922609 6.4650078 -0.55107415
1.5312116 6.4528222 -0.55080903
1.5695972 6.4384665 -0.55036712
1.6076226 6.4229169 -0.54983693
1.6398187 6.3849525 -0.54727411
1.6827698 6.3892193 -0.54859966
1.7180485 6.3643489 -0.54727411
1.7429987 6.3028035 -0.54259032
1.7642744 6.2306509 -0.53693449
1.7858397 6.1623039 -0.53163213
1.8156915 6.1244898 -0.5291577
1.8543922 6.1170464 -0.52951115
1.8892379 6.0969896 -0.52871579
1.9239073 6.076736 -0.52792048
1.9556417 6.0477567 -0.52632976
1.9902154 6.0280762 -0.52562279
2.0173068 5.9864883 -0.52288324
2.044287 5.9457383 -0.52023202
2.0747981 5.916163 -0.51864135
2.0959694 5.8611135 -0.51466453
2.1318932 5.8481426 -0.51466453
2.1660023 5.8302827 -0.51422268
2.1964471 5.8029084 -0.51289707
2.2108743 5.7344856 -0.5076831
2.2485664 5.7273026 -0.50830173
2.2866235 5.7207975 -0.50900871
2.3228085 5.7094274 -0.50927383
2.3551304 5.6886249 -0.50865519
2.3826451 5.6566253 -0.50697613
2.4278991 5.6666207 -0.50936216
2.4582467 5.6415715 -0.50839007
2.5194433 5.6864901 -0.51422268
2.5563326 5.6754651 -0.51466453
2.5923524 5.6623898 -0.51492965
2.6203251 5.6319265 -0.51351571
2.6518531 5.6094389 -0.51289707
2.6870844 5.5948577 -0.51307386
2.7200532 5.5755787 -0.51280874
2.7626143 5.5757427 -0.5144878
2.8016984 5.5684748 -0.5154599
2.8290169 5.5378728 -0.51413429
2.8574409 5.509799 -0.51307386
2.8744929 5.4604301 -0.5098924
2.891047 5.4110608 -0.50671101
2.9550512 5.4501395 -0.51245522
3.010041 5.471179 -0.51643199
3.0542343 5.4717422 -0.51837623
3.0857878 5.4494319 -0.51802272
3.1206551 5.4329863 -0.51828784
3.1499217 5.4068503 -0.51758087
3.2007701 5.417438 -0.52067387
3.2400935 5.4079504 -0.52173436
3.2814889 5.4015889 -0.52314836
3.3177047 5.3864412 -0.5236786
3.357023 5.376122 -0.52473903
3.3984704 5.3688893 -0.52615303
3.4275844 5.3420668 -0.52553439
3.4429224 5.2942128 -0.52270645
3.4846601 5.287127 -0.52420878
3.5386105 5.2979517 -0.52765536
3.5794253 5.2885137 -0.52898091
3.6354673 5.3009539 -0.53269261
3.6804285 5.2965441 -0.5346368
3.7243254 5.2901521 -0.53640425
3.7914159 5.3158598 -0.54170662
3.7831302 5.2359762 -0.53552049
3.8157747 5.2134686 -0.53560889
3.841167 5.1811552 -0.5346368
3.8776703 5.1638608 -0.53534377
3.9340031 5.1724782 -0.53896707
3.9857244 5.1742845 -0.54188335
4.039453 5.1780057 -0.54506481
4.0847325 5.1703186 -0.54700899
4.1300693 5.1622701 -0.54895318
4.177968 5.1569552 -0.55125087
4.1684699 5.0811639 -0.54550666
4.1951137 5.050127 -0.54488802
4.2446146 5.0463991 -0.54745084
4.2838941 5.0301185 -0.54859966
4.3667126 5.0640903 -0.55566949
4.3924627 5.0311985 -0.55496252
4.4245701 5.0056448 -0.5551393
4.4638357 4.9880519 -0.55628812
4.4977012 4.9642591 -0.55672997
4.5509682 4.9615278 -0.55973464
4.5833592 4.9356999 -0.55999976
4.6196976 4.9140162 -0.56079513
4.6552558 4.8913503 -0.5615021
4.6962385 4.8741717 -0.5629161
4.753181 4.873075 -0.56636262
4.8081861 4.8693357 -0.56954402
4.8443108 4.8460822 -0.57033938
4.8952088 4.8372722 -0.5729906
4.9447551 4.8266277 -0.57546502
4.9943542 4.815556 -0.57793945
5.0353479 4.7958131 -0.57935339
5.0922465 4.7907643 -0.58271158
5.1478128 4.7838407 -0.58589298
5.2042189 4.7770886 -0.58916277
5.2599964 4.7691541 -0.59234422
5.3091941 4.7547326 -0.59473026
5.3472214 4.7299867 -0.59579074
5.4076467 4.7246151 -0.59950238
5.4651899 4.7160759 -0.60286057
5.5107017 4.6966686 -0.60480475
5.555419 4.6762385 -0.6066606
5.6046877 4.6592569 -0.60904664
5.6655035 4.6513276 -0.61275834
5.7070899 4.6271424 -0.61426067
5.7711406 4.620677 -0.61832577
5.822824 4.6037135 -0.62097698
5.8721604 4.5844498 -0.62336302
5.9167457 4.5611048 -0.62521887
5.9715681 4.5452275 -0.62822354
6.054287 4.5497947 -0.63432127
6.1092877 4.5327415 -0.63732594
6.1586809 4.5110636 -0.63971198
6.20158 4.4842801 -0.6413911
6.2289782 4.4461436 -0.6413911
6.2683558 4.4164457 -0.64271671
6.3092384 4.3875694 -0.64421904
6.3738179 4.3747048 -0.64828414
6.426105 4.3528323 -0.65102375
6.5081744 4.3504114 -0.65694469
6.5763187 4.3378215 -0.6613633
6.6420474 4.3229275 -0.66551685
6.691915 4.2971625 -0.66799128
6.7492886 4.2757459 -0.67126107
6.8167863 4.2601213 -0.67559135
6.896215 4.2511468 -0.68115884
6.9494047 4.2253132 -0.68398678
6.9948478 4.1943755 -0.6860193
7.0376 4.1615181 -0.68778676
7.0888162 4.1333113 -0.69043797
7.1485853 4.1095967 -0.69397289
7.20573 4.0838299 -0.69724268
7.2793474 4.0667472 -0.70219153
7.3329573 4.0378618 -0.70510787
7.4302578 4.0322289 -0.71244276
7.5523572 4.0387053 -0.72225219
7.6245823 4.0173645 -0.72702432
7.6764946 3.9847329 -0.72976387
7.7043471 3.9393699 -0.73011732
7.7434974 3.8996398 -0.73161966
7.8547301 3.8954279 -0.74028021
7.9733596 3.8934929 -0.74964774
8.100337 3.8941319 -0.75981057
8.260932 3.9091227 -0.77324325
8.4102726 3.9168196 -0.78552705
8.5111151 3.900418 -0.79303873
8.6247835 3.8886573 -0.80178761
8.6821718 3.8506067 -0.80505741
8.7649794 3.8231497 -0.81080168
8.8129892 3.7798989 -0.81318772
8.8240852 3.7207205 -0.8120389
8.8421478 3.6645999 -0.81159705
8.8460169 3.6027615 -0.80982959
8.8531599 3.5424941 -0.80841559
8.8589706 3.4819107 -0.80691326
8.85322 3.4170849 -0.80435044
8.8525972 3.3545792 -0.80231786
8.8720798 3.2998502 -0.80222952
8.8734465 3.2385192 -0.80046207
8.8884621 3.1823328 -0.80002022
8.9125195 3.1293845 -0.80046207
8.9230776 3.0717211 -0.7996667
8.9323187 3.0137274 -0.79878294
8.9430771 2.9563615 -0.79807597
8.9544144 2.8992841 -0.7974574
8.9663391 2.8424799 -0.79692715
8.9760008 2.7850482 -0.79622018
8.9900608 2.7290521 -0.79595506
9.0161858 2.6766739 -0.79683876
9.0238304 2.6188023 -0.7960434
9.0291882 2.560394 -0.7950713
9.0380087 2.5030825 -0.79445273
9.0493507 2.4465394 -0.79409921
9.0613031 2.3902051 -0.79383409
9.0815859 2.3360503 -0.79436433
9.0889854 2.2785869 -0.7937457
9.0882807 2.2192299 -0.79242015
9.0959129 2.1620412 -0.79188991
9.1099777 2.1064136 -0.79197824
9.1120405 2.0480728 -0.79100615
9.1166506 1.9904238 -0.79029918
9.116024 1.9317627 -0.78915036
9.1208763 1.8743875 -0.78853172
9.1292744 1.817804 -0.7882666
9.1314545 1.7600565 -0.78747123
9.1332684 1.7023507 -0.78667593
9.1406012 1.6457484 -0.78641081
9.144639 1.5886085 -0.78588057
9.1542149 1.5324682 -0.78588057
9.1575451 1.4753193 -0.78535032
9.1546125 1.4172727 -0.78428984
9.1503277 1.3591713 -0.78314102
9.1220074 1.2978076 -0.77987123
9.1436167 1.2436916 -0.78110844
9.1342831 1.185384 -0.7796061
9.1354532 1.1285819 -0.77907586
9.1501207 1.0734353 -0.77978283
9.1436653 1.0158406 -0.77863395
9.1447725 0.95919728 -0.7781921
9.1623812 0.9042424 -0.77925259
9.1905699 0.85011721 -0.78128517
9.1966057 0.79379457 -0.78137356
9.1963387 0.7369523 -0.78093165
9.1758528 0.67867285 -0.77872235
9.1699066 0.62168396 -0.77783865
9.1993971 0.56700104 -0.78013635
9.1997194 0.5103783 -0.77987123
9.1967087 0.45362556 -0.77934098
9.1933479 0.39692903 -0.77881074
9.1946154 0.34047535 -0.77872235
9.1985226 0.28411341 -0.77889907
9.2010889 0.22769168 -0.77898747
9.2053003 0.1712863 -0.77925259
9.21315 0.11488765 -0.77987123
9.2216501 0.05840547 -0.7805782
9.224823 0.0018221079 -0.78084332
9.2246609 -0.054780375 -0.78084332
9.2191706 -0.11132088 -0.78040141
9.2262812 -0.16803131 -0.78110844
9.2380219 -0.22495423 -0.78225726
9.2294989 -0.28142121 -0.78163868
9.2136621 -0.33753711 -0.78040141
9.2054462 -0.39380956 -0.77987123
9.2167854 -0.4509666 -0.78110844
9.2317476 -0.50849658 -0.78269911
9.2383957 -0.56574035 -0.78358287
9.2238178 -0.62167907 -0.78261077
9.1969814 -0.67658377 -0.7805782
9.1747847 -0.73157829 -0.77898747
9.1582136 -0.78683722 -0.77792698
9.156189 -0.84329009 -0.7781921
9.1647205 -0.90081912 -0.77942932
9.1847792 -0.95972621 -0.78172702
9.174757 -1.0156267 -0.78137356
9.1624165 -1.0712091 -0.78084332
9.1507282 -1.1267999 -0.78040141
9.1357384 -1.1819044 -0.77969444
9.1144962 -1.2360646 -0.77845722
9.1037817 -1.2915472 -0.7781921
9.0986414 -1.3478204 -0.77845722
9.0961065 -1.4045351 -0.77898747
9.0902672 -1.4607953 -0.77925259
9.0801506 -1.5163805 -0.7791642
9.0716572 -1.5722368 -0.77925259
9.0628195 -1.6280459 -0.77934098
9.0634317 -1.6856267 -0.78031307
9.0627003 -1.7430881 -0.78119677
9.0576963 -1.7998275 -0.78172702
9.0503855 -1.8561709 -0.78208053
9.0271311 -1.9091953 -0.78102005
9.020113 -1.965609 -0.78146189
9.0010786 -2.0193923 -0.78084332
8.9720182 -2.0707765 -0.77934098
8.9610815 -2.1262486 -0.77951771
8.9585123 -2.1837871 -0.7804898
8.9488096 -2.2396817 -0.78084332
8.9348984 -2.2945483 -0.78084332
8.9245043 -2.3503432 -0.78119677
8.9079914 -2.4045396 -0.78102005
8.8786688 -2.4551711 -0.77969444
8.8471441 -2.5049908 -0.7781921
8.8229961 -2.5567341 -0.77739674
8.7985468 -2.6082752 -0.77660143
8.7795172 -2.6613462 -0.77633631
8.7687311 -2.7169347 -0.77686656
8.7423992 -2.7676816 -0.7759828
8.7110357 -2.8166757 -0.77465719
8.6907511 -2.8691359 -0.77439207
8.6701508 -2.921453 -0.77412695
8.6445265 -2.9720066 -0.77341998
8.6223679 -3.0236742 -0.77306652
8.6233492 -3.0835655 -0.77492231
8.6154966 -3.1405125 -0.7759828
8.5979319 -3.1940107 -0.77615952
8.573514 -3.2449436 -0.77571768
8.5627365 -3.3010714 -0.77660143
8.5469561 -3.3553689 -0.77704328
8.5280571 -3.4084883 -0.77722001
8.5171318 -3.4648795 -0.7781921
8.5067558 -3.521646 -0.77925259
8.5373135 -3.5958128 -0.78428984
8.515089 -3.648129 -0.78428984
8.4596701 -3.6859858 -0.78110844
8.4368935 -3.737824 -0.78110844
8.4301481 -3.7968836 -0.78269911
8.4365807 -3.8622198 -0.78561544
8.4271746 -3.9206352 -0.78702939
8.4092627 -3.9752491 -0.78764802
8.3999777 -4.0341029 -0.78915036
8.3956575 -4.095612 -0.79118294
8.3891134 -4.1563349 -0.79303873
8.3723507 -4.2122078 -0.79392248
8.1432085 -4.1597428 -0.7736851
8.1758928 -4.239893 -0.77951771
8.1461983 -4.2881236 -0.7791642
8.1302767 -4.3436589 -0.78022468
8.1174822 -4.4010592 -0.78163868
8.0746155 -4.442143 -0.78004795
8.1568012 -4.5527687 -0.79118294
8.2717342 -4.6837077 -0.80576444
8.2713442 -4.7507443 -0.80868071
8.2601137 -4.8119359 -0.81053656
8.2364359 -4.8660746 -0.81115514
8.2106962 -4.9190803 -0.81159705
8.1854668 -4.9724703 -0.81212723
8.1641312 -5.0283475 -0.81309938
8.1517124 -5.0899525 -0.81504357
8.1329527 -5.1478653 -0.81636918
8.1112738 -5.2041254 -0.8174296
8.0841999 -5.2570553 -0.81795985
8.0559492 -5.3093004 -0.81840169
8.0215635 -5.3575249 -0.81822497
7.9868898 -5.4055266 -0.81804824
7.9535718 -5.4544315 -0.81804824
7.9240446 -5.5059729 -0.81849009
7.8909259 -5.5550637 -0.81857848
7.8510151 -5.5993285 -0.81795985
7.6517954 -5.5283999 -0.79993182
7.3291545 -5.3640628 -0.768206
7.3185086 -5.4255419 -0.77068043
7.3002152 -5.4817085 -0.77235949
7.2973642 -5.5499139 -0.77580607
7.3026309 -5.6249752 -0.78022468
7.2884002 -5.685606 -0.78252238
7.5933881 -5.9988079 -0.82096452
7.5649929 -6.0521317 -0.82193661
7.5339074 -6.1034517 -0.82264364
7.4947753 -6.1483002 -0.82246685
7.4775977 -6.2113557 -0.82485294
7.4469681 -6.2635317 -0.82573664
7.4030867 -6.3045869 -0.82511806
7.3665266 -6.3518438 -0.82538319
7.3386698 -6.4067502 -0.82670873
7.3059378 -6.4575958 -0.8275041
7.2654347 -6.5016384 -0.82741576
7.2342634 -6.554121 -0.82847619
7.2129984 -6.615891 -0.83077389
7.1919765 -6.6783242 -0.83315998
7.1610246 -6.7318792 -0.8343972
7.1239133 -6.7798114 -0.83492744
7.0800271 -6.821322 -0.83466232
7.0401783 -6.8667226 -0.83492744
7.0021653 -6.91399 -0.83545768
6.95961 -6.9568243 -0.83545768
6.9146919 -6.9972711 -0.83519256
6.8737149 -7.0417056 -0.83545768
6.8310699 -7.0844665 -0.83554602
6.7709837 -7.1089377 -0.8334251
6.7265539 -7.1496243 -0.83333671
6.6906953 -7.1995187 -0.8343972
6.6558247 -7.2507091 -0.83563441
6.6259303 -7.3076458 -0.83757859
6.6075492 -7.3778434 -0.84111351
6.5654554 -7.421978 -0.84155536
6.5060277 -7.4463711 -0.83969957
6.4471993 -7.4710693 -0.83793211
6.4277287 -7.5415692 -0.84155536
2.9788418 -3.539115 -0.37282628
2.9392395 -3.5358799 -0.37035182
2.8991578 -3.5315228 -0.36778903
2.8648868 -3.5337713 -0.36602157
2.827585 -3.5318451 -0.36381224
2.7830017 -3.5202188 -0.36054245
2.7484763 -3.5207412 -0.35868663
2.7000616 -3.5028293 -0.35479823
2.6682611 -3.505857 -0.35329589
2.6329348 -3.503849 -0.35126331
2.6060441 -3.5127389 -0.35046795
2.5797319 -3.5222349 -0.34976098
2.5388093 -3.5113616 -0.34684467
2.5062203 -3.5114698 -0.34516561
2.4800372 -3.5202677 -0.34445861
2.4066348 -3.4610031 -0.33641669
2.3329277 -3.3993306 -0.32819802
2.2924726 -3.3847177 -0.32510498
2.2683396 -3.3937519 -0.32457474
2.2540553 -3.4175837 -0.32563522
2.23739 -3.4380286 -0.3263422
2.2205586 -3.4583974 -0.3270492
2.1859689 -3.4509218 -0.32483986
2.1621137 -3.4600463 -0.32439801
2.2155943 -3.5944972 -0.3370353
2.2007427 -3.6199393 -0.33827251
2.1749036 -3.6273949 -0.33765391
2.1551406 -3.6449585 -0.33809578
2.1387563 -3.6684394 -0.33915624
2.1008158 -3.6547239 -0.33641669
2.0906308 -3.6892095 -0.33862603
2.047549 -3.6654463 -0.33491436
2.0235782 -3.6753232 -0.33464924
2.0038397 -3.6929233 -0.33517948
1.9473196 -3.6419072 -0.32881665
0 -0 -0
0 -0 -0
1.7978678 -3.5166132 -0.31282118
1.7565415 -3.488435 -0.30893278
1.7306778 -3.4902239 -0.30804905
1.7044214 -3.4909317 -0.30707693
0 -0 -0
1.6486709 -3.4845743 -0.30442575
0 -0 -0
0 -0 -0
1.5924411 -3.5324914 -0.3061932
1.5735633 -3.5485697 -0.30681181
1.550167 -3.5545061 -0.30645832
1.527935 -3.5630355 -0.30636996
1.5079792 -3.5769327 -0.30681181
1.4875287 -3.5897987 -0.30716532
0 -0 -0
0 -0 -0
1.4241155 -3.6239874 -0.3078723
1.4118962 -3.6586766 -0.31034672
1.3975394 -3.688694 -0.3123793
1.3835617 -3.7205396 -0.31458864
1.3692455 -3.7523513 -0.31679794
1.3535832 -3.7813134 -0.31874216
1.3369567 -3.8083441 -0.32050961
1.3213464 -3.8390799 -0.32263055
1.3235621 -3.923563 -0.32978874
1.3116572 -3.9684942 -0.33323526
0 -0 -0
0 -0 -0
1.2685006 -4.0890012 -0.3422493
0 -0 -0
0 -0 -0
0 -0 -0
0 -0 -0
0 -0 -0
1.279639 -4.7338924 -0.39748228
1.262511 -4.786922 -0.4016358
1.2467654 -4.8476357 -0.40649629
1.2543056 -5.0039859 -0.4201057
1.2325586 -5.0483584 -0.42346385
1.2374996 -5.2070022 -0.43725002
1.2414365 -5.3697734 -0.45138964
1.2475723 -5.5512476 -0.46720839
1.2370756 -5.6668181 -0.47701776
1.2202499 -5.759078 -0.48470619
1.202739 -5.8532934 -0.49257135
1.2189437 -6.1223726 -0.51625526
1.2120905 -6.2891631 -0.53066003
1.1875352 -6.3718815 -0.53746474
1.2296273 -6.8299942 -0.57811618
1.1974162 -6.8933492 -0.58315343
1.1603609 -6.9320035 -0.58598137
1.1442701 -7.1032209 -0.6007396
1.3694079 -8.8455248 -0.75654078
1.3121791 -8.8340559 -0.75477332
1.2568269 -8.8340521 -0.75406635
1.2012557 -8.831727 -0.75318265
1.1483248 -8.8488092 -0.75406635
1.0942523 -8.857666 -0.75424308
1.0376762 -8.845417 -0.75256401
0.9818418 -8.8377581 -0.7513268
0.92759585 -8.8436155 -0.7513268
0.87233627 -8.8392286 -0.75044304
0.81753266 -8.8384628 -0.74991286
0.76285696 -8.8383512 -0.74947095
0.70853192 -8.8418732 -0.74938262
0.65419233 -8.8450603 -0.74929422
0.59950322 -8.8429451 -0.74876398
0.54504871 -8.8434744 -0.74849886
0.49072069 -8.8456583 -0.74841052
0.43604261 -8.8405437 -0.74770349
0.38234895 -8.8559895 -0.74885237
0.19526559 -5.2777019 -0.43097556
0 -0 -0
0 -0 -0
0 -0 -0
0 -0 -0
0.029743781 -4.7263985 -0.38175192
0 -0 -0
-0.028158799 -4.7094746 -0.38024959
-0.056803387 -4.6882968 -0.37839377
-0.085460588 -4.6818843 -0.37786353
-0.11438014 -4.6892381 -0.3785705
-0.14290808 -4.6804829 -0.37786353
-0 -0 -0
-0.20224796 -4.7231598 -0.38184029
-0.23000899 -4.6969576 -0.37963098
-0.25762036 -4.6735768 -0.37768677
-0.28501436 -4.6510296 -0.37583095
-0.31274387 -4.6372671 -0.37477046
-0.3413378 -4.6372476 -0.37494722
-0.36938933 -4.6301012 -0.37450534
-0 -0 -0
-0.4296498 -4.6629119 -0.37786353
-0 -0 -0
-0 -0 -0
-0 -0 -0
-0 -0 -0
-0.57893133 -4.699935 -0.38254729
-0.6077587 -4.6962943 -0.38254729
-0 -0 -0
-0 -0 -0
-0 -0 -0
-0 -0 -0
-0.7501086 -4.6665902 -0.38175192
-0.78036845 -4.6717248 -0.38263565
-0 -0 -0
-0.84450591 -4.7000322 -0.38608217
-0.87824529 -4.7212033 -0.38846824
-0 -0 -0
-0 -0 -0
-1.8027486 -8.7898502 -0.75848502
-1.8578845 -8.7844706 -0.7590152
-1.9234124 -8.8264351 -0.76387572
-1.9788423 -8.8202982 -0.76440597
-2.0266542 -8.7808142 -0.76193154
-2.0786548 -8.7604599 -0.76122457
