# .PCD v0.7 - Point Cloud Data file format
VERSION 0.7
FIELDS x y z
SIZE 4 4 4
TYPE F F F
COUNT 1 1 1
WIDTH 1678
HEIGHT 1
VIEWPOINT 0 0 0 1 0 0 0
POINTS 1678
DATA ascii
2.647269 -3.4770255 -0.24234718
2.6096921 -3.4716666 -0.24062361
2.5752552 -3.469985 -0.23921923
2.544477 -3.4728417 -0.23819786
2.5003076 -3.4568551 -0.23570827
2.4645505 -3.4518282 -0.23411238
2.446774 -3.4717796 -0.2344954
2.393508 -3.4408526 -0.2309206
2.3361955 -3.402823 -0.22683512
2.2967966 -3.3898315 -0.22472854
2.2726252 -3.3988833 -0.22434554
2.2572241 -3.4210932 -0.22498389
2.2345564 -3.4323699 -0.22479238
2.2237027 -3.4619689 -0.22600526
2.1853223 -3.448575 -0.22396252
2.1551268 -3.4475341 -0.22287731
2.1260746 -3.4479518 -0.22191978
2.0955427 -3.4455855 -0.22077073
2.0707676 -3.4523883 -0.22032389
2.0409067 -3.450428 -0.21923868
2.0101423 -3.4465077 -0.2180258
1.9954255 -3.4700227 -0.21885566
1.9548984 -3.4483449 -0.21636608
1.922017 -3.4393682 -0.21483402
1.9018403 -3.4528451 -0.21496169
1.8720468 -3.4486632 -0.21381265
1.8583838 -3.4741638 -0.21483402
0 -0 -0
0 -0 -0
1.7723038 -3.4651365 -0.21176992
1.7505597 -3.4750547 -0.21170609
1.7256556 -3.478579 -0.21119539
1.700336 -3.4810319 -0.21062088
0 -0 -0
1.6583445 -3.5034394 -0.21074855
0 -0 -0
0 -0 -0
1.5931664 -3.5324609 -0.21068472
1.5771286 -3.5549405 -0.21157841
1.5576813 -3.5700386 -0.21196142
1.5400759 -3.5896168 -0.21266362
1.5234525 -3.6118717 -0.21355732
1.5020264 -3.6229951 -0.21368499
0 -0 -0
0 -0 -0
1.42851 -3.6333117 -0.21253595
1.414459 -3.6634202 -0.21400416
1.3990307 -3.6906927 -0.21528088
1.3805358 -3.7104309 -0.2160469
1.3615088 -3.7291434 -0.2167491
1.3416309 -3.7458825 -0.21732362
1.3298694 -3.7860563 -0.21949403
1.3108391 -3.806411 -0.22032389
1.3056555 -3.8682771 -0.22396252
1.3119853 -3.9671719 -0.23009074
0 -0 -0
1.2843281 -4.0495601 -0.23455924
0 -0 -0
0 -0 -0
1.245952 -4.194963 -0.24273019
1.2327145 -4.2456551 -0.24560279
1.2278925 -4.3280225 -0.25058198
1.2919462 -4.6624532 -0.27228609
1.2492378 -4.6182733 -0.26883897
1.2636744 -4.7879548 -0.27956334
1.2514409 -4.8623028 -0.283968
1.2271692 -4.8921528 -0.28543621
2.2550745 -9.2280703 -0.57046223
2.194252 -9.2242575 -0.56931323
2.1362615 -9.2317142 -0.56893021
2.0988536 -9.330327 -0.57454771
1.234418 -5.64993 -0.3327384
1.2227149 -5.7657599 -0.33982417
1.2116468 -5.8914299 -0.34754828
1.2033739 -6.0387082 -0.35667676
1.192771 -6.1831617 -0.36561376
1.1899594 -6.3787208 -0.3778702
1.1766473 -6.5292931 -0.38719019
1.1639254 -6.6937017 -0.3974039
1.1774417 -7.0264969 -0.41853347
1.1527431 -7.1478748 -0.4259384
1.4417138 -9.3017244 -0.56490856
1.3807945 -9.2847309 -0.56324881
1.322813 -9.2861128 -0.56280196
1.2629806 -9.2732897 -0.56146145
1.2069575 -9.2877913 -0.56190825
1.1509266 -9.3029461 -0.56241894
1.0918427 -9.2929831 -0.56133378
1.0362368 -9.3124018 -0.56216359
0.98095524 -9.3364496 -0.56331265
0.91814858 -9.2866783 -0.55973786
0.86170208 -9.2980995 -0.56012088
0.80532211 -9.3111658 -0.56063157
0.74849445 -9.319911 -0.56088692
0.69218034 -9.3362703 -0.5616529
0.63427156 -9.3313808 -0.56107843
0.5773114 -9.3400774 -0.56139761
0.52087885 -9.3593864 -0.56241894
0.46423101 -9.3783541 -0.56344032
0.40416846 -9.3231993 -0.55973786
0.19930126 -5.3613596 -0.30599129
0.14918154 -4.8088813 -0.27056253
0.11942296 -4.7997293 -0.26992416
0.089876205 -4.795383 -0.26960498
0.060222715 -4.7778821 -0.26845595
0.03085929 -4.7711763 -0.2680091
0.0015779426 -4.7583022 -0.26717922
-0.027578514 -4.7512369 -0.26673239
-0.056624539 -4.7419972 -0.26615787
-0.085468441 -4.7275915 -0.26526415
-0.11423402 -4.7170014 -0.26462582
-0.14275205 -4.7022467 -0.26373211
-0.17181972 -4.7072659 -0.26411512
-0.20078461 -4.708117 -0.2642428
-0.22894096 -4.6918449 -0.26328525
-0.25706923 -4.6783943 -0.26251924
-0.28637832 -4.6866899 -0.26315758
-0.31579885 -4.6948013 -0.26379594
-0.34452668 -4.6917801 -0.26373211
-0.37196356 -4.6726661 -0.26264691
-0.4020761 -4.6871991 -0.26373211
-0.43046337 -4.6806684 -0.26347676
-0.45985717 -4.6848917 -0.26392362
-0.48880145 -4.6839671 -0.26405129
-0.51840925 -4.6888151 -0.26456198
-0.54809487 -4.6934757 -0.26507264
-0.57822239 -4.7009196 -0.26577485
-0.60820627 -4.7061911 -0.26634938
-0.63693756 -4.7013817 -0.26628554
-0.66703236 -4.7062778 -0.26686007
-0.69604301 -4.7030835 -0.26692387
-0.72595203 -4.7056284 -0.26737073
-0.75813222 -4.7217779 -0.2687113
-0.78988105 -4.7337713 -0.26979649
-0.82197577 -4.7465358 -0.27094552
-0.8540805 -4.7581015 -0.27203074
-0.88672256 -4.7714138 -0.27324361
-0.92012477 -4.7874441 -0.27464801
-0.95278555 -4.7983489 -0.2757332
-1.845256 -9.0051279 -0.55080086
-1.8916055 -8.9516506 -0.54805595
-1.9441612 -8.9291487 -0.54735374
-1.9962938 -8.9053659 -0.54658771
-2.0500016 -8.8890591 -0.54633236
-2.1061165 -8.883111 -0.54677922
-2.1631801 -8.8806868 -0.54748142
-2.2227142 -8.8875771 -0.54882199
-2.2809258 -8.8882713 -0.54977947
-2.335674 -8.8750744 -0.54984331
-2.3937247 -8.8740644 -0.55073702
-2.4510534 -8.869791 -0.55143923
-2.5097778 -8.8699493 -0.55246061
-2.5730374 -8.8850574 -0.55450332
-2.6326084 -8.8863258 -0.55565238
-2.6940274 -8.8929281 -0.55718446
-2.7506087 -8.8829031 -0.55763131
-2.8333549 -8.9552984 -0.56363183
-2.8913186 -8.9472408 -0.5642702
-2.9489772 -8.9378614 -0.56484473
-3.0008972 -8.9110861 -0.5642702
-3.0532484 -8.8858986 -0.56382334
-3.1047435 -8.8585205 -0.56324881
-3.165756 -8.858099 -0.56452554
-3.1937475 -8.7663059 -0.55961019
-3.237057 -8.7184772 -0.55769509
-3.2756634 -8.6592474 -0.55501401
-3.3133066 -8.5989418 -0.5522691
-3.3463242 -8.5282831 -0.54882199
-3.3819318 -8.4658852 -0.54594934
-3.4236658 -8.4200134 -0.54422581
-3.4451253 -8.3259983 -0.53918278
-3.4895661 -8.2890654 -0.53809756
-3.5258272 -8.2335539 -0.53573567
-3.5531719 -8.1586962 -0.53203321
-3.5853882 -8.096591 -0.52922446
-3.6165674 -8.0334883 -0.52635181
-3.6288385 -7.9303794 -0.52067047
-3.6584957 -7.8672428 -0.51779789
-3.6875155 -7.8040419 -0.51492524
-3.705534 -7.7191906 -0.51052058
-3.7362089 -7.6622214 -0.50809485
-3.7574682 -7.5872817 -0.50439239
-3.7752593 -7.5070219 -0.5003069
-3.8080907 -7.4579401 -0.49845567
-3.8294406 -7.3874745 -0.49507239
-3.8616867 -7.3391094 -0.49328497
-3.8779716 -7.2615771 -0.489391
-3.9005837 -7.1972842 -0.48645458
-3.9196684 -7.1277423 -0.48313513
-3.9414508 -7.0643392 -0.48026252
-3.9626036 -7.0009384 -0.4773899
-3.9920709 -6.9531245 -0.47566634
-4.0040278 -6.8758912 -0.47177237
-4.0319343 -6.8271327 -0.46998498
-4.0696468 -6.7954149 -0.46947429
-4.0853691 -6.7276649 -0.46628252
-4.0993676 -6.6582794 -0.46296307
-4.1042156 -6.5754313 -0.45862225
-4.1274109 -6.5231371 -0.45657951
-4.1371899 -6.4506459 -0.45300472
-4.1658149 -6.4084044 -0.45172799
-4.1830983 -6.3493872 -0.44917458
-4.1926117 -6.2796102 -0.44579127
-4.2165251 -6.2322755 -0.44413155
-4.2377591 -6.181592 -0.44221649
-4.2721934 -6.1505551 -0.44183347
-4.2903261 -6.0964761 -0.43966305
-4.3114324 -6.0472832 -0.43787566
-4.3280072 -5.9923983 -0.43564141
-4.3340549 -5.9238462 -0.43232197
-4.3423963 -5.8594561 -0.42932171
-4.353107 -5.7991791 -0.4266406
-4.3686776 -5.7461424 -0.42453402
-4.3977652 -5.7113209 -0.42389566
-4.4167714 -5.6637673 -0.42223594
-4.434742 -5.6154132 -0.42051238
-4.4504161 -5.5647144 -0.41859731
-4.4624953 -5.5101576 -0.41636306
-4.4873624 -5.471869 -0.41546938
-4.5163898 -5.4388571 -0.41502252
-4.5310535 -5.3888907 -0.41317129
-4.5446272 -5.3381896 -0.41125622
-4.5584021 -5.2882814 -0.40940499
-4.5691113 -5.2353988 -0.40729842
-4.6077566 -5.2147436 -0.40793675
-4.6083965 -5.1514134 -0.40493649
-4.6298699 -5.1119442 -0.40397894
-4.6476612 -5.0687275 -0.40270224
-4.6671333 -5.0276804 -0.40161705
-4.6739759 -4.9734945 -0.3993828
-4.682394 -4.9215841 -0.39734006
-4.6979671 -4.8776655 -0.39599949
-4.7041211 -4.8244524 -0.39382911
-4.7259235 -4.7876849 -0.3931269
-4.7326393 -4.7360063 -0.39108416
-4.7495451 -4.6949506 -0.38999894
-4.7568436 -4.6448021 -0.38808388
-4.7687345 -4.5995917 -0.38661566
-4.7860298 -4.5599184 -0.38565814
-4.7928448 -4.5106301 -0.38380691
-4.7977743 -4.460072 -0.38182801
-4.8118196 -4.4183989 -0.38067895
-4.8144474 -4.3666649 -0.37857237
-4.8314877 -4.3283844 -0.37774253
-4.8400192 -4.2827845 -0.37621045
-4.8331461 -4.2241077 -0.3734017
-4.8657727 -4.200242 -0.37397623
-4.8823404 -4.1625371 -0.37321019
-4.8818359 -4.1106448 -0.37103978
-4.8885517 -4.0652976 -0.36950773
-4.894896 -4.0200238 -0.36797568
-4.9109449 -3.9829979 -0.36727348
-4.8893371 -3.9159794 -0.36350718
-4.8952713 -3.8716657 -0.36203897
-4.9228673 -3.8446274 -0.36235812
-4.9463649 -3.8143489 -0.36235812
-4.9545908 -3.7724392 -0.36114526
-4.9704661 -3.7365699 -0.36057073
-4.977273 -3.6941051 -0.35929403
-5.0151401 -3.6747034 -0.36050689
-5.0084853 -3.6228042 -0.35820881
-5.0411777 -3.599544 -0.35903868
-5.0501184 -3.5593448 -0.35801733
-5.0489259 -3.512332 -0.3562299
-5.0382977 -3.4592543 -0.35374033
-5.0718203 -3.4366727 -0.35469785
-5.0811982 -3.3977211 -0.35380417
-5.0802941 -3.3521876 -0.35214445
-5.0639706 -3.2969918 -0.34933567
-5.0891428 -3.2690945 -0.34971869
-5.1335502 -3.2533 -0.35156992
-5.1085687 -3.1936989 -0.34818664
-5.1297674 -3.1633408 -0.34831429
-5.1456704 -3.1297312 -0.34805897
-5.1836038 -3.1093938 -0.34946334
-5.2068796 -3.08007 -0.34978253
-5.1903386 -3.0274458 -0.34716526
-5.2036266 -2.9925561 -0.34678224
-5.1862979 -2.9403884 -0.344165
-5.1720109 -2.8904946 -0.34180307
-5.176538 -2.8514819 -0.34084553
-5.1474547 -2.7944274 -0.33746225
-5.119628 -2.73878 -0.33420664
-5.1407504 -2.7096419 -0.33452579
-5.1289392 -2.6633289 -0.33248305
-5.162065 -2.640444 -0.33369595
-5.1737132 -2.6064754 -0.33337677
-5.1869273 -2.5733502 -0.33318526
-5.179306 -2.5300848 -0.33152553
-5.1938334 -2.4978251 -0.3314617
-5.1919246 -2.4577951 -0.33024883
-5.218667 -2.4313715 -0.33107868
-5.2244163 -2.3951452 -0.33044031
-5.2508397 -2.3683786 -0.33127019
-0.23005368 -0.10165836 0.02110241
-0.25262457 -0.10982538 0.019570356
-0.25329369 -0.10827324 0.019570356
-5.2089977 -2.1972942 -0.32443979
-5.1993361 -2.1557338 -0.32284388
-5.2059965 -2.1211545 -0.32239705
-0 -0 -0
-0 -0 -0
-0 -0 -0
-0 -0 -0
-0 -0 -0
-0 -0 -0
-0 -0 -0
-0 -0 -0
-0 -0 -0
-0 -0 -0
-0 -0 -0
-0 -0 -0
-0 -0 -0
-0 -0 -0
-0 -0 -0
-0 -0 -0
-0 -0 -0
-0 -0 -0
-0 -0 -0
-0 -0 -0
-0 -0 -0
-0 -0 -0
-0 -0 -0
-0 -0 -0
-0 -0 -0
-0 -0 -0
-0 -0 -0
-0 -0 -0
-0 -0 -0
-0 -0 -0
-0 -0 -0
-0 -0 -0
-0 -0 -0
-0 -0 -0
-0 -0 -0
-0 -0 -0
-0 -0 -0
-0 -0 -0
-0 -0 -0
-0 -0 -0
-0 -0 -0
-0 -0 -0
-0 -0 -0
-0 -0 -0
-0 -0 -0
-0 -0 -0
-0 -0 -0
-0 -0 -0
-0 -0 -0
-0 -0 -0
-0 -0 -0
-0 -0 -0
-0 -0 -0
-0 -0 -0
-0 -0 -0
-0 -0 -0
-0 -0 -0
-0 -0 -0
-0 0 -0
-0.27142555 0.020625783 0.016537841
-0 0 -0
-0 0 -0
-0.27496889 0.026010741 0.016232356
-0.27777898 0.028009985 0.016003244
-0 0 -0
-0 0 -0
-0.27721635 0.033118241 0.016003244
-0 0 -0
-0 0 -0
-0 0 -0
-0 0 -0
-0.27212873 0.040995348 0.016308727
-0 0 -0
-0 0 -0
-0 0 -0
-0 0 -0
-0 0 -0
-0 0 -0
-0 0 -0
-0.29322863 0.059119798 0.014475824
-0 0 -0
-0 0 -0
-0 0 -0
-0 0 -0
-0 0 -0
-0.26760799 0.064192094 0.016308727
-0 0 -0
-0 0 -0
-0 0 -0
-0 0 -0
-0 0 -0
-0 0 -0
-0 0 -0
-0 0 -0
-0 0 -0
-0 0 -0
-0 0 -0
-0 0 -0
-0.25880218 0.084372289 0.016537841
-0.2611137 0.086915441 0.016308727
-0.26151821 0.088840678 0.016232356
-0.2628496 0.091104627 0.016079614
-0.26510167 0.093724489 0.015850501
-0 0 -0
-0.26766944 0.098361626 0.015545018
-0 0 -0
-0.26551211 0.10127975 0.015621388
-0.26674148 0.10363677 0.015468647
-0.26702622 0.1056421 0.015392276
-0.26637301 0.10727855 0.015392276
-0.26570973 0.10891096 0.015392276
-0.26319912 0.10976417 0.015545018
-0.2606881 0.1105907 0.015697761
-0.26000461 0.11218818 0.015697761
-0.26113412 0.11459021 0.015545018
-0.26224387 0.1170103 0.015392276
-0.26242733 0.11903275 0.015315904
-0.2644034 0.12190404 0.015086791
-0.26365042 0.12352409 0.015086791
-0.26468465 0.12600382 0.01493405
-0.26301062 0.12718786 0.015010421
-0 0 -0
-0.26232049 0.13085446 0.01493405
-0.26151264 0.13246156 0.01493405
-0.26069495 0.13406368 0.01493405
-0.25810337 0.13473086 0.015086791
-0.25375512 0.13443063 0.015392276
-0.25380176 0.13646084 0.015315904
-0.25121301 0.13705337 0.015468647
-0.24688588 0.13664642 0.015774131
-0.24430807 0.13717514 0.015926873
-0.24173312 0.13767742 0.016079614
-0.24174505 0.13966046 0.016003244
-0.24259989 0.14215648 0.015850501
-0.24086803 0.14312945 0.015926873
-0.24339275 0.14667732 0.015621388
-0.24673155 0.15078485 0.015239534
-0.24918351 0.1544102 0.01493405
-0.24991573 0.15700376 0.014781307
-0.25146437 0.16015096 0.014552195
-0.25131255 0.16223495 0.014475824
-0.25031236 0.16377392 0.014475824
-0.24930274 0.16530673 0.014475824
-0.24828376 0.16683331 0.014475824
-0.24725541 0.1683536 0.014475824
-0.24867323 0.17157581 0.014246711
-0.25006074 0.1748217 0.014017598
-0.25060624 0.1775116 0.013864856
-0.25435957 0.18255226 0.01340663
-0.25725603 0.18705621 0.013024775
-0.25690407 0.18922545 0.012948404
-0.25892609 0.19319485 0.01264292
-0.25932238 0.19598803 0.012490178
-0.25890449 0.1981844 0.012413807
-0.2584694 0.20038301 0.012337436
-0.25488889 0.20010956 0.012566549
-0.25287801 0.20104644 0.01264292
-0.2500909 0.20133811 0.012795663
-0.24885079 0.20286885 0.012795663
-0.24683471 0.20375441 0.012872033
-0.24634254 0.20590736 0.012795663
-0.24810944 0.21000262 0.012490178
-0.2453067 0.21021795 0.01264292
-0.24251074 0.21040684 0.012795663
-0.24196184 0.21255165 0.012719291
-0.23991045 0.21336697 0.012795663
-0 0 -0
-0 0 -0
-0 0 -0
-0 0 -0
-0 0 -0
-0.23691794 0.2268983 0.012261066
-0 0 -0
-0 0 -0
-0 0 -0
-0 0 -0
-0 0 -0
-0 0 -0
-0 0 -0
-0 0 -0
-0 0 -0
-0 0 -0
-0 0 -0
-0 0 -0
-0 0 -0
-0 0 -0
-0 0 -0
-0 0 -0
-0 0 -0
-0 0 -0
-0 0 -0
-0 0 -0
-0 0 -0
-0 0 -0
-0 0 -0
-0 0 -0
-0 0 -0
-0 0 -0
-0 0 -0
-0 0 -0
-5.0045896 6.9273157 -0.61718863
-4.9845643 6.9895558 -0.62016708
-4.9869156 7.0844264 -0.62620038
-4.9643984 7.1451921 -0.62902611
-4.934557 7.1960783 -0.63093537
-4.9288616 7.2832036 -0.63620496
-4.9333539 7.3871121 -0.64300197
-4.9285264 7.478858 -0.64865345
-4.9015641 7.5382175 -0.65132642
-4.8923597 7.6260624 -0.656596
-4.9089165 7.7562051 -0.66568416
-4.8902698 7.8327012 -0.66988456
-4.8844595 7.9313335 -0.67607063
-4.8610601 8.0029154 -0.67981279
-4.8461866 8.0899048 -0.68492967
-4.8557787 8.2199373 -0.69386506
-4.838366 8.3064451 -0.69890559
-4.8642578 8.4700041 -0.71074307
-4.8367519 8.5430775 -0.71456164
-4.8299074 8.6544428 -0.72174048
-4.8353286 8.7905054 -0.73105776
-4.8250079 8.9006586 -0.7380839
-4.8215003 9.0259647 -0.74640834
-4.8082771 9.1356754 -0.75335807
-4.7915936 9.2411356 -0.75992596
-4.8141503 9.425765 -0.77329087
-4.7907181 9.5237169 -0.77917147
-4.7967954 9.6833858 -0.79032165
-4.7853594 9.8112192 -0.79872245
-4.7764168 9.9473639 -0.8078106
-4.7766309 10.1063 -0.81880802
-4.7410169 10.192378 -0.82361937
-4.7696614 10.420743 -0.84042102
-4.7551575 10.559826 -0.84966189
-4.754869 10.734674 -0.86188126
-4.7530098 10.910826 -0.87417698
-4.7216907 11.023192 -0.88112676
-4.6961336 11.152124 -0.88945115
-4.6676455 11.277468 -0.89747012
-4.6483102 11.428741 -0.90762746
-4.6328411 11.594085 -0.91893035
-4.6031327 11.728106 -0.92763668
-4.5662165 11.847309 -0.935121
-4.5435324 12.00753 -0.94596571
-4.5020456 12.122113 -0.9530682
-4.4811673 12.296593 -0.96505845
-4.4274435 12.384887 -0.97002256
-4.3853364 12.508739 -0.97788876
-4.3247023 12.58256 -0.98170733
-4.2725549 12.683509 -0.98774064
-4.2196431 12.785235 -0.99385029
-4.1512327 12.842196 -0.99637055
-4.0813794 12.895945 -0.9986617
-4.0089583 12.942651 -1.0004182
-3.9306245 12.970823 -1.0007237
-3.8489804 12.988005 -1.0001891
-3.7614493 12.984561 -0.99805069
-3.6838784 13.015071 -0.9986617
-3.6127141 13.069145 -1.001182
-3.5381682 13.112245 -1.0028621
-3.4599302 13.142386 -1.0035495
-3.3779857 13.15854 -1.0031676
-3.2974248 13.179986 -1.0032439
-3.2214472 13.220314 -1.0048478
-3.1444087 13.257296 -1.0062224
-3.0623322 13.273425 -1.0059932
-2.9832294 13.302668 -1.0068334
-2.9066405 13.344104 -1.0086663
-2.8226466 13.351932 -1.0079026
-2.7314603 13.324068 -1.0043895
-2.6374221 13.278963 -0.99957812
-2.5385842 13.204813 -0.99255198
-2.4504097 13.18191 -0.98957354
-2.3643732 13.168236 -0.98735875
-2.2770662 13.145162 -0.98445666
-2.1914442 13.129382 -0.98216558
-2.1100523 13.137659 -0.98178369
-2.0236261 13.112912 -0.9788816
-1.9396261 13.10141 -0.9770487
-1.8540252 13.076537 -0.97422296
-1.7704087 13.062965 -0.9723137
-1.6826849 13.01524 -0.96780783
-1.5958571 12.968911 -0.96345466
-1.5124362 12.945777 -0.9609344
-1.4243208 12.876521 -0.9549011
-1.3423886 12.857251 -0.95276272
-1.2581178 12.810668 -0.94856232
-1.1741955 12.760559 -0.9441328
-1.0562681 12.305576 -0.9086203
-0.97821206 12.28002 -0.90617639
-0.90145826 12.266897 -0.90472537
-0.82048839 12.187636 -0.89823383
-0.74088997 12.113819 -0.89220053
-0.66310316 12.055415 -0.88738918
-0.58266222 11.926803 -0.87723184
-0.50361258 11.792681 -0.8666926
-0.42081779 11.509578 -0.84477413
-0.3458676 11.369426 -0.83385307
-0.27381012 11.276639 -0.82659787
-0.20267062 11.17044 -0.81834978
-0.13335498 11.106668 -0.81338567
-0.064754881 11.029506 -0.80742872
0.0029217433 11.028699 -0.80735236
0.069839932 10.912814 -0.79849333
0.13413863 10.701814 -0.78237903
0.19952036 10.685835 -0.78123349
0.26426396 10.651517 -0.77871323
0.3263033 10.543058 -0.77054155
0.38605794 10.408338 -0.7603842
0.45043322 10.417727 -0.76130068
0.51424813 10.412775 -0.76114792
0.57796383 10.406437 -0.7609188
0.64192867 10.404685 -0.76107156
0.70677274 10.415472 -0.7622171
0.77059388 10.409945 -0.76214075
0.8348527 10.40999 -0.76252258
0.89673543 10.381824 -0.76076603
0.95361155 10.302658 -0.75511461
0.95804828 9.70226 -0.70936841
0.96213561 9.1686563 -0.66873902
0.81151283 7.3035326 -0.52546704
0.8174516 6.9676661 -0.49995914
0.85823023 6.9466867 -0.49873722
0.90931851 7.0065484 -0.50377768
0.97301406 7.1529827 -0.51553881
0.97048312 6.8211298 -0.49033639
0.98078501 6.6030064 -0.47391662
1.0205182 6.5919375 -0.47353479
1.062534 6.5953956 -0.47429848
1.1039714 6.5946517 -0.47475672
1.1447562 6.5897183 -0.47490945
1.1872907 6.5943456 -0.47582591
1.2277304 6.5869365 -0.47582591
1.2700129 6.5890694 -0.47658962
1.3113931 6.5860419 -0.47697148
1.354592 6.5915442 -0.47804067
1.3983213 6.5987148 -0.47926259
1.4389968 6.5909848 -0.47933897
1.4815995 6.5917587 -0.48010269
1.5235913 6.5893435 -0.48063728
1.5674552 6.5944214 -0.48178285
1.6100185 6.5933967 -0.48247018
1.6497166 6.580492 -0.48224106
1.6930454 6.5818329 -0.48315752
1.7374706 6.5867457 -0.48437947
1.7796761 6.5826983 -0.48491406
1.8250928 6.589911 -0.48636511
1.8687595 6.5900989 -0.48728156
1.9133314 6.5928712 -0.48842713
1.9554521 6.5867419 -0.48888534
2.0001776 6.5889301 -0.49003091
2.0450034 6.5908165 -0.49117649
2.0899277 6.592401 -0.49232203
2.134948 6.5936813 -0.4934676
2.1813152 6.5984435 -0.49491864
2.2243125 6.5924926 -0.49552962
2.2689428 6.5909758 -0.49652246
2.3146293 6.5919814 -0.49774438
2.3620946 6.5973668 -0.49934816
2.4069772 6.5949249 -0.500341
2.4505272 6.5884418 -0.50102836
2.5004508 6.5984545 -0.50309032
2.5473566 6.59973 -0.50446504
2.5943718 6.600678 -0.50583971
2.6396413 6.5966687 -0.50683254
2.6853356 6.5932751 -0.50790173
2.7337606 6.5960159 -0.50950551
2.7865832 6.6085153 -0.51194936
2.8365161 6.6132836 -0.51378226
2.8846183 6.6131177 -0.51523334
2.9312072 6.6089644 -0.51637888
2.9770336 6.6026702 -0.51737171
3.0270486 6.6051254 -0.51912826
3.0746784 6.6017919 -0.52042657
3.1202481 6.593616 -0.52134299
3.1679938 6.589622 -0.5226413
3.2101181 6.5736427 -0.52294683
3.2490633 6.5511427 -0.52271771
3.2883019 6.5293026 -0.52256495
3.3269408 6.50634 -0.52233583
3.3755312 6.5026164 -0.5237869
3.4232709 6.4967771 -0.52508521
3.4696548 6.487958 -0.5261544
3.5027387 6.4542789 -0.52508521
3.5437188 6.4352851 -0.52531433
3.5899484 6.4256053 -0.52638352
3.623898 6.3939157 -0.52554339
3.6625652 6.3706951 -0.52546704
3.713141 6.3679113 -0.52722359
3.7556975 6.3510151 -0.52775818
3.8012638 6.3389664 -0.52875102
3.8571866 6.3436346 -0.53127122
3.8960378 6.3198481 -0.53127122
3.9326279 6.2924414 -0.53096575
3.9652925 6.2589288 -0.53012568
4.0020051 6.2319636 -0.52989656
4.0222149 6.1797166 -0.52737635
4.0435824 6.1299539 -0.52508521
4.1110487 6.1497846 -0.52920926
4.1621299 6.1442542 -0.53104216
4.2008805 6.120244 -0.53119487
4.2508817 6.1123595 -0.53287506
4.2906041 6.0894213 -0.53318053
4.3226728 6.0556769 -0.53249317
4.3574109 6.0258083 -0.5321877
4.3907661 5.9941325 -0.53172946
4.4345942 5.976686 -0.53264594
4.4801702 5.961318 -0.53379148
4.5196838 5.9376826 -0.53417337
4.5621209 5.9177341 -0.53493702
4.6044827 5.8974886 -0.53570074
4.6449122 5.874599 -0.53623533
4.6970768 5.8662219 -0.538221
4.7593627 5.8698149 -0.54142857
4.8351574 5.8890438 -0.54623997
4.8801265 5.869998 -0.54730916
4.9378886 5.8658752 -0.54990578
4.9893136 5.8536763 -0.55173868
5.0296979 5.8282351 -0.55227327
5.0581465 5.7890058 -0.55143321
5.0935721 5.7578607 -0.55143321
5.1321325 5.7302117 -0.55181503
5.1692052 5.7008295 -0.55204415
5.204762 5.6697388 -0.55212051
5.2414899 5.6398873 -0.55234963
5.2794132 5.6112504 -0.55273151
5.3137441 5.5787506 -0.55273151
5.3444138 5.5424528 -0.55234963
5.3825002 5.5138364 -0.55280787
5.425344 5.4899244 -0.5538007
5.4800863 5.477675 -0.55609185
5.5263667 5.4565544 -0.55746651
5.5611711 5.4239349 -0.55761921
5.6281004 5.4222188 -0.56120867
5.6627092 5.388958 -0.56136143
5.6884031 5.3472829 -0.56059772
5.7240291 5.314992 -0.56090319
5.7734365 5.2952685 -0.56265974
5.8287292 5.2804928 -0.56502724
5.8937178 5.2738791 -0.56838757
5.9424047 5.252141 -0.5700677
5.9737682 5.2149248 -0.56999135
6.0147171 5.1859841 -0.57090777
6.0752745 5.1735415 -0.57380986
6.1481156 5.1708169 -0.57793391
6.2127128 5.1603856 -0.58121789
6.253511 5.129755 -0.58213431
6.2926173 5.0975628 -0.58289802
6.3525887 5.0818977 -0.58572376
6.4071255 5.0613618 -0.5880149
6.4592905 5.0385079 -0.59007692
6.5256352 5.0261536 -0.59351361
6.5881019 5.0101562 -0.59656847
6.6482244 4.991785 -0.59939414
6.7211852 4.9823623 -0.60344183
6.8023267 4.9781184 -0.60825318
6.8618431 4.957303 -0.61100256
6.8994379 4.9203157 -0.61168987
6.94173 4.8864961 -0.61283547
6.9879603 4.8551865 -0.6143629
7.0307779 4.8212385 -0.61558479
7.127121 4.8232636 -0.62177086
7.1673617 4.7866392 -0.62276369
7.2157474 4.7551875 -0.62452024
7.2723761 4.728756 -0.62704045
7.3197188 4.6958866 -0.62872064
7.373672 4.6668787 -0.63101172
7.4419231 4.6463604 -0.63460118
7.5212364 4.6319747 -0.63918346
7.6015038 4.6173067 -0.6438421
7.6519327 4.5838971 -0.64582771
7.6962271 4.5464931 -0.64727879
7.7506895 4.5147386 -0.64964628
7.8690391 4.5192237 -0.65766525
7.9764514 4.5160398 -0.66469133
8.016201 4.4738135 -0.66576058
8.0714588 4.4399171 -0.66820443
8.1485176 4.4173875 -0.67255759
8.2449503 4.4044118 -0.67859089
8.3062334 4.3718462 -0.68156934
8.3709669 4.340529 -0.68485332
8.4613791 4.3217306 -0.69035202
8.5563278 4.304225 -0.69623256
8.6192112 4.2697854 -0.69936377
8.6622753 4.2251215 -0.70081484
8.7320824 4.1930346 -0.704557
8.8369789 4.1768622 -0.71127766
8.928441 4.1532526 -0.71685272
9.0117826 4.1249423 -0.72174048
9.1314802 4.1121373 -0.72968304
9.216711 4.0826759 -0.73472357
9.3074074 4.0547109 -0.74022228
9.3944387 4.0242152 -0.74541551
9.4327383 3.9722996 -0.74656105
9.4910231 3.9284518 -0.74938679
9.675663 3.9354901 -0.76267534
9.8385181 3.9315307 -0.774131
9.9942589 3.9228053 -0.78497565
10.220037 3.9392021 -0.80154818
10.398825 3.9349809 -0.81422573
10.526528 3.9096239 -0.82270294
10.62714 3.8729484 -0.82896537
10.726756 3.8348486 -0.83515137
10.756672 3.7712669 -0.83568597
10.721145 3.6851056 -0.83095098
10.726546 3.6135247 -0.82957631
10.728632 3.541079 -0.82797253
10.728335 3.4681308 -0.82621598
10.720895 3.3932147 -0.82392484
10.720559 3.3208802 -0.8222447
10.715923 3.2475214 -0.82025903
10.710792 3.1743448 -0.81827343
10.708998 3.102463 -0.81659323
10.718238 3.0339808 -0.81582952
10.734731 2.9676266 -0.81567681
10.748887 2.900665 -0.81537133
10.749126 2.8300886 -0.81399661
10.744076 2.7583797 -0.81224012
10.739518 2.6870813 -0.81055993
10.738366 2.6168869 -0.80918527
10.742579 2.5481877 -0.80826879
10.755097 2.4815524 -0.80803972
10.774013 2.4163861 -0.8083452
10.786689 2.3498082 -0.80819243
10.788221 2.2808983 -0.8071996
10.793222 2.2128587 -0.8065123
10.797795 2.1448436 -0.80582494
10.803899 2.0772321 -0.80529034
10.809579 2.0096266 -0.80475575
10.813855 1.9418534 -0.8041448
10.811811 1.8730829 -0.80307561
10.810316 1.8045747 -0.80208278
10.808387 1.7361555 -0.80108994
10.806026 1.6678281 -0.80009711
10.803233 1.599595 -0.79910427
10.798037 1.5311792 -0.79795873
10.790432 1.4626199 -0.79666042
10.774482 1.3931897 -0.79475117
10.768972 1.3253489 -0.79368198
10.777892 1.2593623 -0.79375833
10.780461 1.192659 -0.79337645
10.786585 1.1263855 -0.79330009
10.788331 1.0596923 -0.79291826
10.786687 0.99274617 -0.79230726
10.785622 0.92594534 -0.79177266
10.783149 0.85911596 -0.79116172
10.786228 0.79278964 -0.79100895
10.787905 0.72639108 -0.79077983
10.795145 0.66036636 -0.79100895
10.802976 0.59433484 -0.79131448
10.809407 0.52818346 -0.79154354
10.814437 0.46193314 -0.79169631
10.821054 0.39571363 -0.79200178
10.827264 0.32943031 -0.79230726
10.833069 0.26308566 -0.79261273
10.838467 0.1966822 -0.79291826
10.842461 0.13021052 -0.79314739
10.847043 0.063702963 -0.79345286
10.858198 -0.0028585077 -0.79429293
10.869941 -0.06956096 -0.79520935
10.878283 -0.13636979 -0.79589671
10.885216 -0.20326491 -0.79650766
10.884761 -0.27007633 -0.79658407
10.883895 -0.33688986 -0.79666042
10.887602 -0.40388826 -0.79711866
10.890895 -0.47094482 -0.79757684
10.895767 -0.53815556 -0.79818785
10.896242 -0.60522223 -0.79849333
10.891329 -0.67200738 -0.79841697
10.887 -0.7388227 -0.79841697
10.879279 -0.80538899 -0.79818785
10.874132 -0.87212783 -0.79818785
10.865596 -0.9385761 -0.79795873
10.857647 -1.0050445 -0.79780596
10.841353 -1.0706658 -0.79704225
10.825655 -1.1362293 -0.79635495
10.817489 -1.2025226 -0.7962786
10.78812 -1.2663152 -0.7945984
10.779158 -1.3323636 -0.79452205
10.764848 -1.3977072 -0.79406381
10.748165 -1.4626564 -0.79345286
10.738001 -1.5284377 -0.79337645
10.723489 -1.5935627 -0.79299462
10.709568 -1.65872 -0.79268914
10.691314 -1.7231314 -0.79207814
10.673656 -1.787546 -0.79154354
10.661505 -1.8528339 -0.79146719
10.661711 -1.920339 -0.79238367
10.663449 -1.988282 -0.79345286
10.650069 -2.0534854 -0.79337645
10.640203 -2.119379 -0.79360557
10.624068 -2.1840236 -0.79337645
10.606565 -2.248343 -0.79307097
10.5877 -2.3123171 -0.79268914
10.567476 -2.3759255 -0.7922309
10.554642 -2.4411712 -0.79238367
10.528793 -2.5033491 -0.79154354
10.504519 -2.5657752 -0.79085624
10.476972 -2.62727 -0.78993976
10.450998 -2.6890204 -0.78917605
10.429482 -2.7518234 -0.78879422
10.411438 -2.8155053 -0.78871787
10.399732 -2.8809335 -0.78917605
10.382817 -2.944963 -0.78925246
10.378915 -3.0127861 -0.790398
10.357367 -3.0755615 -0.79016888
10.342116 -3.1402144 -0.79047436
10.333128 -3.2068653 -0.79131448
10.324661 -3.2738256 -0.7922309
10.304379 -3.3371148 -0.7922309
10.274242 -3.3971474 -0.79146719
10.239979 -3.4556601 -0.790398
10.265719 -3.534662 -0.79421657
10.239134 -3.5959322 -0.79383469
10.149293 -3.6344802 -0.78833598
10.14085 -3.7018168 -0.78948152
10.149717 -3.7757938 -0.79207814
10.156193 -3.8493114 -0.79452205
10.159356 -3.9219725 -0.79673678
10.149947 -3.9900737 -0.79795873
10.140083 -4.0582066 -0.79918069
10.142693 -4.1316361 -0.80147177
10.144782 -4.2052498 -0.80376291
10.123382 -4.2693558 -0.8041448
10.100659 -4.3329639 -0.80445027
10.079366 -4.3972516 -0.80490851
10.047639 -4.4569926 -0.80452663
10.02101 -4.51897 -0.80460298
10.002157 -4.584528 -0.80536669
9.9901075 -4.6533937 -0.80674142
9.9784889 -4.7227106 -0.80819243
9.9628019 -4.7903309 -0.80933803
9.9556189 -4.8623133 -0.81124729
9.9434605 -4.9321713 -0.81277472
9.9343805 -5.0038571 -0.81460762
9.9105921 -5.0683522 -0.81521857
8.2192774 -4.2670035 -0.67194659
8.1779461 -4.3094521 -0.67064828
8.1610212 -4.3647237 -0.6714884
8.1419725 -4.4189982 -0.67217571
9.8832045 -5.4430995 -0.82682699
9.867898 -5.5138545 -0.82843077
9.8416853 -5.5787253 -0.82911807
9.8280144 -5.650938 -0.83095098
9.7974615 -5.7136469 -0.83133286
9.7630768 -5.7741632 -0.83140922
8.929718 -5.3554068 -0.76015508
8.8992453 -5.4116521 -0.7603842
8.878602 -5.4740057 -0.76152974
8.8828926 -5.552166 -0.76496649
8.8815031 -5.6273823 -0.76794493
8.9105635 -5.7227287 -0.77374911
8.8802948 -5.7805595 -0.77420735
8.8687935 -5.8508649 -0.77642208
9.6267509 -6.4361491 -0.84958553
9.5730457 -6.4855881 -0.84828722
9.5223856 -6.5368681 -0.84729439
9.476367 -6.591187 -0.8467598
9.4267807 -6.6428905 -0.84591973
7.3669705 -5.2590132 -0.6559087
7.3402185 -5.308208 -0.6564433
7.3163567 -5.3596292 -0.65728337
7.2969437 -5.4145231 -0.65858167
7.2715535 -5.4651861 -0.65934539
7.331491 -5.580977 -0.66835719
7.3239541 -5.6465592 -0.67095375
7.2875977 -5.6901646 -0.67080104
7.2720971 -5.7502365 -0.6727103
7.2849274 -5.8333955 -0.67744529
9.1137209 -7.3904176 -0.86134666
9.0967112 -7.4696136 -0.8641724
9.0798388 -7.5495162 -0.86707449
9.0547009 -7.6230693 -0.86921287
9.0206547 -7.6894817 -0.87051117
8.9891529 -7.758369 -0.87211496
8.9541416 -7.8245344 -0.87341326
8.9298573 -7.9004726 -0.87585711
8.9725571 -8.036952 -0.88525075
8.9031334 -8.0737686 -0.88318872
8.9400873 -8.2078238 -0.89220053
8.8691092 -8.243515 -0.89006215
8.7747955 -8.2567787 -0.88547987
8.6575556 -8.2471876 -0.87845373
8.5637302 -8.2586212 -0.87387151
8.4757996 -8.2747889 -0.86990023
8.429121 -8.3308449 -0.87035841
8.4469137 -8.4515285 -0.87784278
8.4250154 -8.5337124 -0.88112676
8.3822403 -8.5952406 -0.88219595
8.0872555 -8.3951569 -0.85546607
7.868588 -8.2690811 -0.83690792
8.1836901 -8.7066584 -0.87784278
8.1226511 -8.7486706 -0.87700272
8.0526447 -8.7807074 -0.87516981
7.9504247 -8.776742 -0.86967111
7.3499756 -8.2145081 -0.80689412
7.3053756 -8.2661762 -0.80758148
7.2604184 -8.3176069 -0.80826879
7.2339835 -8.3906984 -0.81117094
3.0567818 -3.5888324 -0.32369491
2.9962034 -3.5617306 -0.31911266
2.9558206 -3.5578022 -0.3168979
2.9061155 -3.5419483 -0.31353757
2.8680124 -3.539567 -0.31155193
2.8499765 -3.5617704 -0.31201014
2.8045859 -3.5494556 -0.30910805
2.7539363 -3.5296426 -0.3055186
2.7261441 -3.538574 -0.30475491
2.7140355 -3.5679343 -0.30597684
2.6681492 -3.5526233 -0.30292201
2.631459 -3.5489008 -0.30101272
2.6237636 -3.5842934 -0.30284563
0 -0 -0
2.5135961 -3.5236673 -0.29413933
2.4385624 -3.463191 -0.28703684
2.397927 -3.4502456 -0.28444022
2.3361199 -3.4056818 -0.27894151
2.3012111 -3.3993061 -0.27703223
2.2714517 -3.400094 -0.2758103
2.243964 -3.403976 -0.27489385
2.2230353 -3.4176805 -0.27489385
2.2149417 -3.4513996 -0.27672675
2.1937227 -3.4649253 -0.27672675
2.1645019 -3.4656329 -0.27558118
2.1306505 -3.4584713 -0.27374828
2.1000743 -3.4561391 -0.27237359
2.0716562 -3.456984 -0.2713044
2.0407722 -3.4533181 -0.26985335
2.0110149 -3.4511273 -0.26855505
1.9798722 -3.4461076 -0.26702765
1.9503407 -3.4434397 -0.26572934
1.9272323 -3.451859 -0.26542383
1.8964067 -3.4461455 -0.26389644
1.87 -3.4480739 -0.26305634
1.8455199 -3.4533265 -0.26252174
1.821046 -3.4584086 -0.26198715
1.7961203 -3.4624355 -0.26137617
1.7762017 -3.4760551 -0.26160529
1.7503599 -3.4779806 -0.26084158
1.7254465 -3.4815071 -0.2602306
1.6983709 -3.4803779 -0.2592378
1.6864766 -3.5105085 -0.26091796
1.6585152 -3.507268 -0.25977239
1.635282 -3.513762 -0.25946692
1.6124467 -3.5210097 -0.2592378
1.5932676 -3.5362923 -0.25969601
1.5779989 -3.5605891 -0.26091796
1.5620935 -3.5839167 -0.2620635
1.5416436 -3.5971003 -0.26236901
1.5114189 -3.5871935 -0.26076522
1.4859489 -3.5881081 -0.26007786
0 -0 -0
0 -0 -0
1.4269358 -3.6334152 -0.26160529
1.4103507 -3.6569889 -0.26282722
1.394941 -3.6842253 -0.26435465
1.3775145 -3.7067361 -0.26550022
0 -0 -0
1.3389702 -3.7430787 -0.267104
0 -0 -0
0 -0 -0
1.2949847 -3.8417404 -0.2731373
1.2960687 -3.9244168 -0.27917063
1.27687 -3.9474759 -0.28039256
0 -0 -0
1.277881 -4.1228614 -0.29322287
0 -0 -0
1.2900662 -4.3504663 -0.31017724
1.2389412 -4.2740197 -0.3034566
0 -0 -0
1.2153471 -4.3936572 -0.31178102
1.2506872 -4.6320729 -0.33011007
1.2610677 -4.7871895 -0.34179482
1.2581894 -4.8981762 -0.34996653
1.2467383 -4.9802852 -0.35584709
1.2392817 -5.0827794 -0.36333144
1.2342937 -5.2008886 -0.37203774
1.2285742 -5.3220387 -0.38097313
1.2288288 -5.4763899 -0.39250517
1.2174765 -5.5861235 -0.40052411
1.2089458 -5.7154307 -0.41007048
1.2074798 -5.8868408 -0.42290083
1.1884221 -5.9802022 -0.42962146
1.1848208 -6.1597147 -0.44306275
1.1836138 -6.3639092 -0.45841333
1.1942101 -6.6478071 -0.47994995
1.1678557 -6.7385192 -0.48644146
1.1724256 -7.0209346 -0.50782537
1.1558728 -7.1933885 -0.52065569
1.3681127 -8.8627625 -0.64949352
1.3102036 -8.8473177 -0.64766061
1.2582707 -8.871973 -0.64895892
1.1993936 -8.846921 -0.64643872
1.1441931 -8.8471918 -0.64590412
1.0903729 -8.8580046 -0.6462096
1.034729 -8.8536339 -0.64536947
0.98038459 -8.8598166 -0.64536947
0.92569298 -8.86269 -0.64514041
0.86983466 -8.8533182 -0.64399481
0.8146739 -8.8495531 -0.64330751
0.76010323 -8.8514042 -0.64307839
0.7058568 -8.8568954 -0.64315474
0.65164459 -8.8630486 -0.64330751
0.59718275 -8.8658857 -0.64323109
0.54179913 -8.8534594 -0.6420092
0.4871918 -8.8516388 -0.64162731
0.43316132 -8.8604374 -0.64208555
0.37946564 -8.8788671 -0.64330751
0.20062061 -5.4702916 -0.38188958
0.14765334 -4.8315887 -0.33285943
0.11807679 -4.8353939 -0.33308855
0.087937579 -4.8101077 -0.33110288
0.058326729 -4.8025808 -0.33049193
0.028483918 -4.738039 -0.32552782
-0.00058646087 -4.732142 -0.32506958
-0.029537987 -4.7190876 -0.32407677
-0.058430184 -4.7138329 -0.32369491
-0.087277725 -4.7093978 -0.32338941
-0.1161724 -4.7087736 -0.32338941
-0.14391738 -4.6710982 -0.3205637
-0.17346565 -4.6940403 -0.32239661
-0.2017031 -4.6799378 -0.32140377
-0.2301684 -4.6736326 -0.32102191
-0.25861934 -4.6681504 -0.32071644
-0.2873807 -4.6684661 -0.32086918
-0.31703469 -4.6815367 -0.32201475
-0.34582782 -4.6804976 -0.3220911
-0.37406141 -4.6723242 -0.32163289
-0.4022077 -4.6639805 -0.32117465
-0.43081778 -4.6614251 -0.32117465
-0.46058881 -4.6706009 -0.3220911
-0.49090537 -4.6835527 -0.32331306
-0.51897228 -4.6745067 -0.32285482
-0.54822648 -4.6761856 -0.32323667
-0.57764322 -4.6786709 -0.32369491
-0.60788196 -4.6869035 -0.32461137
-0.63622516 -4.6801214 -0.32438225
-0.6678828 -4.6968589 -0.32598603
-0.70064962 -4.7193007 -0.32804805
-0.72867721 -4.7090011 -0.32758981
-0.75850993 -4.7103477 -0.32804805
-0.78838658 -4.7115049 -0.32850626
-0.81745183 -4.707561 -0.32858264
-0 -0 -0
-0.87936527 -4.7197189 -0.33033919
-0.90944165 -4.7201085 -0.3307974
-0 -0 -0
-0.97352344 -4.7388687 -0.3331649
-1.8794968 -8.8674564 -0.65690154
-1.9387667 -8.8781614 -0.65865803
-1.9949561 -8.8738804 -0.65926903
-2.0520651 -8.8731298 -0.66018546
-2.110163 -8.8758917 -0.66140741
-2.1678984 -8.8763371 -0.6624766
-2.2259612 -8.8773746 -0.66362214
-2.2843666 -8.8789988 -0.6648441
-2.3403311 -8.8705997 -0.66530234
-2.3931537 -8.8502979 -0.6648441
-2.4511411 -8.8488989 -0.66591328
-2.508929 -8.8461618 -0.66690612
-2.5656636 -8.8392191 -0.66759348
-2.6215551 -8.8290443 -0.66805166
-2.672492 -8.8022985 -0.66721159
-2.7181737 -8.7590714 -0.66507322
-2.7625215 -8.7127657 -0.66270572
-2.8030233 -8.6558123 -0.65949816
-2.8297799 -8.5589333 -0.65308297
-2.8691676 -8.502676 -0.64995176
-2.906673 -8.4424887 -0.64651507
-2.9306593 -8.3454742 -0.64009988
-2.9686971 -8.2907267 -0.63712144
-3.0000179 -8.2189693 -0.63276827
-3.0295272 -8.1443386 -0.62818605
-3.0645969 -8.0864391 -0.62497842
-3.1026626 -8.0377188 -0.62253457
-3.1263804 -7.9535756 -0.61718863
-3.1551127 -7.8842573 -0.61306459
-3.1797266 -7.8065777 -0.60825318
-3.2142003 -7.754684 -0.60558021
-3.2427316 -7.6898007 -0.60183805
-3.2631178 -7.6074514 -0.59664482
-3.2949793 -7.5534735 -0.59381908
-3.3214493 -7.4884558 -0.59007692
-3.3570855 -7.4452124 -0.58816761
-3.3948097 -7.4072528 -0.58671659
-3.4081922 -7.317595 -0.58091241
-3.4257228 -7.2388687 -0.57602465
-3.448035 -7.1718864 -0.57212973
-3.4718432 -7.1093836 -0.56861663
-3.4994466 -7.0557923 -0.5658673
-3.5278695 -7.0048027 -0.56334704
-3.5607939 -6.9634953 -0.56166691
-3.5703685 -6.8778043 -0.5561682
-3.5878608 -6.8090191 -0.55212051
-3.6112292 -6.7525887 -0.54914206
-3.6326134 -6.6935 -0.5459345
-3.6591825 -6.6448851 -0.54364336
-3.6721585 -6.5726967 -0.53929019
-3.6888132 -6.5084076 -0.53562438
-3.709789 -6.4528065 -0.53272229
-3.7322316 -6.4006391 -0.53012568
-3.7597587 -6.3578801 -0.52836913
-3.7715144 -6.2893744 -0.5243215
-3.7872355 -6.228632 -0.52096117
-3.8211954 -6.1984873 -0.52035022
-3.8448853 -6.1520972 -0.5182882
-3.866549 -6.1031241 -0.51599705
-3.8823681 -6.0457287 -0.51294219
-3.9085102 -6.0050817 -0.51141477
-3.9183743 -5.9402075 -0.50767261
-3.9214935 -5.866323 -0.50309032
-3.9518216 -5.8338962 -0.50232667
-3.9779487 -5.7955651 -0.50102836
-4.0009074 -5.7530408 -0.49934816
-3.9930501 -5.6672597 -0.49362034
-4.0092072 -5.6166859 -0.49117649
-4.0295696 -5.5725913 -0.48934358
-4.0489535 -5.5276546 -0.4874343
-4.0370364 -5.4410572 -0.48155373
-4.0433841 -5.3803196 -0.47811705
-4.073905 -5.3522358 -0.47781155
-4.1084957 -5.3295064 -0.47804067
-4.1288447 -5.2884808 -0.47651324
-4.1463718 -5.244278 -0.47468033
-4.1622658 -5.198504 -0.47269469
-4.1764984 -5.1511841 -0.47055632
-4.1922059 -5.1061974 -0.46864703
-4.1954064 -5.0466471 -0.4652867
-4.2205129 -5.0139456 -0.46459937
-4.2363195 -4.9705033 -0.46284285
-4.268693 -4.9466805 -0.46307194
-4.304214 -4.9264011 -0.46368292
-4.3198242 -4.883471 -0.46200275
-4.3177719 -4.8212266 -0.45833695
-4.3231578 -4.768055 -0.4555876
-4.3341241 -4.7216096 -0.45352557
-4.3623347 -4.6941967 -0.45344922
-4.3739719 -4.6491895 -0.45153993
-4.3859091 -4.604939 -0.44970703
-4.4085445 -4.5721993 -0.44909605
-4.4107418 -4.5186682 -0.44627035
-4.4117479 -4.4645734 -0.44336823
-4.4129629 -4.4113426 -0.44054252
-4.4250455 -4.369473 -0.43893874
-4.4432058 -4.3338861 -0.43802226
-4.4603782 -4.2975497 -0.43702945
-4.5003891 -4.2831588 -0.4384805
-4.4866228 -4.2179093 -0.4342801
-4.4919577 -4.1713071 -0.43214169
-4.4792519 -4.1086264 -0.42817041
-4.5162024 -4.091774 -0.42939234
-4.5360222 -4.0593324 -0.42885774
-4.5563612 -4.0274625 -0.42839953
-4.5569482 -3.9784498 -0.42595565
-4.5661688 -3.9373944 -0.42442822
-4.572021 -3.8937907 -0.42259532
-4.5767474 -3.8496222 -0.42068607
-4.5742011 -3.7998104 -0.41808945
-4.5712166 -3.7501752 -0.41549283
-4.5871673 -3.7164087 -0.4148055
-4.6091061 -3.6875696 -0.41472912
-4.6026931 -3.6363549 -0.41190338
-4.5848188 -3.5767746 -0.40800849
-4.597199 -3.5412757 -0.40709203
-4.6299539 -3.5214493 -0.40816122
-4.6203742 -3.46963 -0.40518275
-4.6311626 -3.4334972 -0.40418991
-4.6513381 -3.4044275 -0.40411356
-4.6737566 -3.3769908 -0.4042663
-4.6862707 -3.3424616 -0.40350258
-4.6960907 -3.3061845 -0.40250975
-4.7146511 -3.27617 -0.40235701
-4.7289076 -3.2432332 -0.40182242
-4.7487187 -3.2141562 -0.40182242
-4.7633758 -3.1816363 -0.40136421
-4.7728167 -3.1457663 -0.40044776
-4.7903571 -3.1153347 -0.40029499
-4.7883997 -3.0724261 -0.39838573
-4.803791 -3.0408547 -0.39808023
-4.7961383 -2.9949555 -0.39571273
-4.7847071 -2.9471748 -0.39303976
-4.7856555 -2.9074104 -0.39151233
-4.7657671 -2.8554509 -0.388152
-4.7969346 -2.8342674 -0.38937396
-4.8082037 -2.8012683 -0.38883936
-4.7976308 -2.7558265 -0.38639548
-4.8257303 -2.7327218 -0.38738832
-4.7927761 -2.6753695 -0.38303515
-4.8099751 -2.6463916 -0.38311154
-4.8331356 -2.6206288 -0.38372251
-4.8420882 -2.5871665 -0.38311154
-4.8569894 -2.5569429 -0.38303515
-4.8814392 -2.5316815 -0.38379887
-4.8302803 -2.4676752 -0.37807104
-4.8310781 -2.4308231 -0.37684911
-4.8476896 -2.4020195 -0.37700185
-4.8686104 -2.3752882 -0.37753645
-4.8615198 -2.3350146 -0.37570354
-4.8721499 -2.303437 -0.37539807
-4.8653975 -2.2638288 -0.37364152
-4.8592496 -2.2248054 -0.37196136
-4.8764462 -2.1965847 -0.37226686
-4.896214 -2.1694481 -0.37280145
-4.8948073 -2.1329949 -0.3715795
-4.9142189 -2.1056683 -0.37211412
-4.8985586 -2.0634825 -0.3697466
-4.924026 -2.0387239 -0.37081581
-0.25448841 -0.10473924 0.016308727
-0.2551263 -0.10317576 0.016308727
-0.25575456 -0.1016084 0.016308727
-0.25823402 -0.1007542 0.016155986
-0 -0 -0
-0.26225516 -0.09861885 0.015926873
-0 -0 -0
-0 -0 -0
-0.26214406 -0.0931153 0.016079614
-0.25988159 -0.090533026 0.016308727
-0.26043218 -0.088936724 0.016308727
-0.26191986 -0.08764948 0.016232356
-0.26245275 -0.08604072 0.016232356
-0 -0 -0
-0.26634622 -0.08369834 0.016003244
-0.26971751 -0.082929745 0.015774131
-0.27213332 -0.081839673 0.015621388
-0.26879942 -0.079058945 0.015926873
-0.27503595 -0.079036951 0.015468647
-0 -0 -0
-0 -0 -0
-0.27162293 -0.07269223 0.015850501
-0.27206385 -0.071024217 0.015850501
-0.26669079 -0.067902058 0.016308727
-0.26710239 -0.066264391 0.016308727
-0.26750398 -0.064624235 0.016308727
-0.26498073 -0.062309448 0.016537841
-0 -0 -0
-0.26864818 -0.059689417 0.016308727
-0.27096042 -0.058452189 0.016155986
-0.27326757 -0.057188816 0.016003244
-0.2736133 -0.055511001 0.016003244
-0.2729696 -0.053642944 0.016079614
-0 -0 -0
-0.27655154 -0.050817516 0.015850501
-0 -0 -0
-0.28010479 -0.047912177 0.015621388
-0.27744007 -0.045718499 0.015850501
-0.2787008 -0.04416728 0.015774131
-0 -0 -0
-0.27527294 -0.040184345 0.016079614
-0 -0 -0
-0.26585671 -0.035525735 0.016843325
-0 -0 -0
-0 -0 -0
-0.27241185 -0.03128336 0.016385099
-0.27359039 -0.029714731 0.016308727
-0.27376756 -0.028035454 0.016308727
-0 -0 -0
-0 -0 -0
-0 -0 -0
-0 -0 -0
-0 -0 -0
-0 -0 -0
-0 -0 -0
-0.28278062 -0.014956987 0.015697761
-0 -0 -0
-0.27796078 -0.011304056 0.016079614
-0 -0 -0
-0 -0 -0
-0 -0 -0
-0 -0 -0
-0.28415909 -0.0028068339 0.015621388
-0 0 -0
-0 0 -0
-0.28515962 0.0024366868 0.015545018
-0 0 -0
-0.28510824 0.0059358506 0.015545018
-0 0 -0
-0 0 -0
-0 0 -0
-0 0 -0
-0 0 -0
-0 0 -0
-0 0 -0
-0 -0 -0
-0 -0 -0
-0 -0 -0
-0 -0 -0
-0 -0 -0
-0 0 -0
-0 0 -0
-0 0 -0
-0 0 -0
-0 0 -0
-0 0 -0
-0 0 -0
-0 0 -0
-0 0 -0
-0 0 -0
-0 0 -0
-0 0 -0
-0 0 -0
-0 0 -0
-0 0 -0
-0 0 -0
-0 0 -0
-0 0 -0
-0 0 -0
-0 0 -0
-0 0 -0
-0 0 -0
-0 0 -0
-0 0 -0
-0 0 -0
-0 0 -0
-0 0 -0
-0 0 -0
-0 0 -0
-0 0 -0
-0 0 -0
-0 0 -0
-0 0 -0
-0 0 -0
-0 0 -0
-0 0 -0
-0 0 -0
-0 0 -0
-0 0 -0
-0 0 -0
-0 0 -0
-0 0 -0
-0 0 -0
-0 0 -0
-0 0 -0
-0 0 -0
-0 0 -0
-0 0 -0
-0 0 -0
-0 0 -0
-0 0 -0
-0 0 -0
-0 0 -0
-0 0 -0
-0 0 -0
-0 0 -0
-0 0 -0
-0 0 -0
-0 0 -0
-0 0 -0
-0 0 -0
-0 0 -0
-0 0 -0
-0 0 -0
-0 0 -0
-0 0 -0
-0 0 -0
-0 0 -0
-0 0 -0
-0 0 -0
-0 0 -0
-0 0 -0
-0 0 -0
-0 0 -0
-0 0 -0
-0 0 -0
-0 0 -0
-0 0 -0
-0 0 -0
-0 0 -0
-0 0 -0
-0 0 -0
-0 0 -0
-0 0 -0
-0 0 -0
-0 0 -0
-0 0 -0
-0 0 -0
-0 0 -0
-0 0 -0
-0 0 -0
-0 0 -0
-0 0 -0
-0 0 -0
-0 0 -0
-0 0 -0
-0 0 -0
-0 0 -0
-0 0 -0
-0 0 -0
-0 0 -0
-0 0 -0
-0 0 -0
-0 0 -0
-0 0 -0
-0 0 -0
-0 0 -0
-0 0 -0
-0 0 -0
-0 0 -0
-0 0 -0
-0 0 -0
-0 0 -0
-0 0 -0
-0 0 -0
-0 0 -0
-0 0 -0
-0 0 -0
-0.21801811 0.19560827 0.011595229
-0 0 -0
-0 0 -0
-0 0 -0
-0 0 -0
-0.26170418 0.24958408 0.0054975082
-0.26016784 0.25118518 0.0054975082
-0.25862169 0.2527768 0.0054975082
-0 0 -0
-0.25761378 0.25804397 0.00523239
-0.26652822 0.27024701 0.0039067985
-0.26486501 0.27187732 0.0039067985
-0.2583518 0.26847824 0.0045254081
-0.230593 0.24265094 0.007883573
-0.25776803 0.2745302 0.0041719172
-0.26828474 0.28923991 0.0025812073
-0.23888637 0.26079598 0.0062044905
-0.26404601 0.29177251 0.00266958
-0.25826335 0.28893527 0.0031998167
-0.23734552 0.26887915 0.0057626269
-0.25600904 0.29358298 0.0030230712
-0.25485364 0.29590237 0.0029346985
-0.2420485 0.28457338 0.0044370354
-0.25761822 0.30662772 0.0020509707
-0.2366277 0.28522444 0.0047021536
-0.22349541 0.27281398 0.0062928633
-0.22181726 0.27418017 0.0062928633
-0.21888554 0.27398098 0.0064696088
-0.22584976 0.28625762 0.00523239
-0 0 -0
-0 0 -0
-0 0 -0
-4.699409 6.2533536 -0.65641445
-4.6829123 6.3116679 -0.65968424
-4.6888332 6.4013529 -0.66640055
-4.671648 6.4606738 -0.66975874
-4.6614332 6.5305634 -0.67426574
-4.6361923 6.5802131 -0.67656344
-4.6639791 6.7066665 -0.68716818
-4.626122 6.7400851 -0.68769842
-4.6087012 6.8038049 -0.69149846
-4.611155 6.8982019 -0.69856828
-4.5912299 6.9604554 -0.70219153
-4.5723443 7.0252275 -0.70607996
-4.5566034 7.0958953 -0.71058697
-4.5545607 7.1893516 -0.71748
-4.5388699 7.2627749 -0.72225219
-4.5287218 7.3464494 -0.72808474
-4.5156465 7.4268665 -0.7335639
-4.4884338 7.4851871 -0.7367453
-4.5068159 7.6214738 -0.74796861
-4.4795356 7.6825418 -0.75141519
-4.4263544 7.6995206 -0.75035471
-4.4423895 7.8383222 -0.76175481
-4.4427962 7.9523888 -0.77059203
-4.416501 8.0205088 -0.77474558
-4.3928628 8.0947313 -0.77951771
-4.3971348 8.2225447 -0.7896806
-4.3758545 8.3048868 -0.79524803
-4.3532691 8.3863916 -0.80072719
-4.3697562 8.5459738 -0.81398308
-4.3463612 8.6304502 -0.8197273
-4.3389115 8.7488689 -0.82882971
-4.3139977 8.8344011 -0.83466232
-4.3158193 8.9774084 -0.84615076
-4.3156204 9.1198664 -0.85755086
-4.3007965 9.234663 -0.86621141
-4.3038149 9.3912725 -0.87893707
-4.300158 9.537365 -0.89060229
-4.2791176 9.6482506 -0.89882094
-4.2544866 9.7537556 -0.90650934
-4.2511029 9.9114981 -0.91923505
-4.2378139 10.050287 -0.93010491
-4.2248869 10.193883 -0.94141662
-4.1806707 10.264816 -0.94574684
-4.1934762 10.479856 -0.96386325
-4.1571531 10.576772 -0.97066796
-4.1614079 10.781426 -0.98772395
-4.1537743 10.961377 -1.0023938
-4.1263757 11.09402 -1.0125567
-4.0998945 11.233286 -1.0233382
-4.0594339 11.337942 -1.0308498
-4.0165224 11.438763 -1.038008
-3.9699309 11.531946 -1.0444592
-3.9064226 11.577795 -1.0464919
-3.8209257 11.558043 -1.0424267
-3.7410357 11.553788 -1.0398638
-3.661041 11.54804 -1.0372127
-3.5901146 11.570287 -1.0372127
-3.5167379 11.584473 -1.0365057
-3.4336829 11.565727 -1.032794
-3.3609862 11.580838 -1.0322638
-3.2914951 11.606993 -1.032794
-3.2151618 11.608732 -1.0311149
-3.1360712 11.599395 -1.0284637
-3.0556922 11.583746 -1.0252824
-2.969667 11.544397 -1.01998
-2.8624368 11.417475 -1.0067241
-2.7828734 11.396117 -1.0031892
-2.6946952 11.336421 -0.99620771
-2.6122928 11.297425 -0.99117047
-2.5291598 11.252015 -0.98560297
-2.447108 11.20796 -0.98021227
-2.3450389 11.065879 -0.96598423
-2.2666671 11.029324 -0.96138883
-2.1855252 10.975618 -0.95529115
-2.1045623 10.9184 -0.9489283
-2.0271227 10.875293 -0.94389105
-1.9449955 10.802238 -0.93620259
-1.8658879 10.740366 -0.92957467
-1.7830073 10.650424 -0.92047226
-1.7149299 10.644446 -0.91896993
-1.6360178 10.567161 -0.91110474
-1.5613397 10.510987 -0.90518379
-1.4875534 10.455284 -0.89935118
-1.4171956 10.418813 -0.89528602
-1.3460593 10.371996 -0.89033717
-1.2721304 10.29702 -0.88291383
-1.2043972 10.266049 -0.87946731
-1.1383024 10.245526 -0.87699288
-1.0727129 10.226561 -0.87469518
-1.0046586 10.179422 -0.86992306
-0.9380495 10.140761 -0.86594629
-0.87418097 10.127471 -0.86426717
-0.8106702 10.115765 -0.86276484
-0.74601275 10.085781 -0.85967177
-0.6826303 10.068305 -0.85772759
-0.61949044 10.050431 -0.8557834
-0.55654049 10.031168 -0.85375082
-0.49129635 9.9597788 -0.84712285
-0.42664832 9.8810024 -0.83987629
-0.36483073 9.8515816 -0.83704835
-0.30332869 9.8197842 -0.83404368
-0.24228004 9.7895956 -0.8312158
-0.18181759 9.7699833 -0.82935995
-0.12140556 9.7340631 -0.82609016
-0.061504718 9.7077303 -0.82370406
-0.0019325461 9.6850157 -0.82167149
0.057352677 9.6609392 -0.81955057
0.11634238 9.6365013 -0.8174296
0.17523341 9.6226587 -0.81628078
0.23422521 9.6194105 -0.81610405
0.29291093 9.6068411 -0.8151319
0.35145122 9.5939131 -0.81415981
0.40958869 9.5746574 -0.81265748
0.46730861 9.5510712 -0.81080168
0.52469981 9.5261431 -0.80885744
0.58186352 9.5018663 -0.80700165
0.63734341 9.4563761 -0.80329001
0.69287133 9.4185114 -0.80028528
0.74780041 9.3783369 -0.79710388
0.80268884 9.3428059 -0.79436433
0.85753471 9.3109245 -0.79197824
0.91104567 9.2688084 -0.78870845
0.95465583 9.1362343 -0.77739674
0.81284338 7.3421845 -0.61779559
0.81775659 6.993753 -0.58713019
0.86077577 6.9895921 -0.58721858
0.90530777 6.9970212 -0.5883674
0.94782215 6.9883733 -0.58810234
0.96886426 6.8285761 -0.57431614
0.97703791 6.5948887 -0.55390203
1.017485 6.5887699 -0.55390203
1.0582098 6.5843697 -0.55407882
1.1013793 6.5944548 -0.55558115
1.1421615 6.5895357 -0.55575788
1.1838051 6.5892663 -0.55637652
1.2249422 6.5857959 -0.55672997
1.2679621 6.5918498 -0.55796719
1.3114907 6.5995779 -0.55938119
1.3511598 6.587503 -0.55902767
1.389906 6.5712924 -0.5583207
1.4246874 6.5373354 -0.556023
