# .PCD v0.7 - Point Cloud Data file format
VERSION 0.7
FIELDS x y z
SIZE 4 4 4
TYPE F F F
COUNT 1 1 1
WIDTH 1608
HEIGHT 1
VIEWPOINT 0 0 0 1 0 0 0
POINTS 1608
DATA ascii
5.2072306 -0.90434366 -0.75980318
5.2103419 -0.93785602 -0.76114744
5.205461 -0.96998978 -0.76129681
5.2042656 -1.0028481 -0.7620436
5.2057719 -1.0363082 -0.76323855
5.200284 -1.0684298 -0.76338786
5.1984668 -1.1013439 -0.76413471
5.1848493 -1.1317427 -0.76308918
5.2212176 -1.1733001 -0.7698105
5.1734605 -1.1959523 -0.76353723
5.1919975 -1.2338518 -0.76757002
5.2150655 -1.2731972 -0.77234966
5.2177048 -1.3078189 -0.77399266
5.1597886 -1.326992 -0.76622576
5.1869226 -1.3679643 -0.77175218
5.1249809 -1.3853045 -0.76338786
5.109714 -1.4148761 -0.76234233
5.1180587 -1.4510607 -0.76503086
5.1138062 -1.4838158 -0.76577771
5.0932317 -1.5117868 -0.76398534
5.0952125 -1.5464584 -0.76577771
5.1252894 -1.5900065 -0.77205092
5.0494614 -1.6004969 -0.76159555
5.071528 -1.641811 -0.76667386
5.0913992 -1.6828349 -0.7714535
5.0566196 -1.7058204 -0.76757002
4.9983788 -1.7203928 -0.75995255
5.010118 -1.7588956 -0.76353723
4.9861994 -1.7849356 -0.76144618
4.9965153 -1.8232975 -0.76488149
4.9759669 -1.8504727 -0.76338786
5.0042753 -1.8960427 -0.7698105
4.9750214 -1.9199449 -0.7669726
4.947504 -1.9442834 -0.76443344
4.9933124 -1.9977561 -0.77384329
4.9452486 -2.0138054 -0.76801813
4.9428463 -2.0482769 -0.76966113
4.947495 -2.0858693 -0.77249902
4.910069 -2.1056597 -0.76846623
4.919713 -2.1456347 -0.77220029
4.887475 -2.1673594 -0.76906365
4.8758869 -2.1981208 -0.76936239
4.8793855 -2.235827 -0.77220029
4.8449602 -2.2561195 -0.76876497
4.8185143 -2.2798817 -0.76667386
4.7919593 -2.3034048 -0.76458281
4.799058 -2.3431809 -0.7681675
4.7730756 -2.3668702 -0.76622576
4.742568 -2.3881047 -0.76353723
4.7815237 -2.4446282 -0.77264839
4.7559032 -2.4684527 -0.77085602
4.7292967 -2.4915938 -0.76891428
4.7104321 -2.5186996 -0.76831686
4.6905441 -2.5451961 -0.76757002
4.6410623 -2.5553219 -0.76174492
4.6434212 -2.5938814 -0.76488149
4.6454811 -2.6325655 -0.76801813
4.6309547 -2.6620059 -0.76831686
4.5965977 -2.6799085 -0.76518023
4.6038961 -2.7221584 -0.76936239
4.576932 -2.7442524 -0.76757002
4.5709896 -2.7789643 -0.76951176
4.5807834 -2.8235676 -0.7742914
4.5608568 -2.850049 -0.77384329
4.5449538 -2.879039 -0.77414203
4.5180516 -2.9009933 -0.77249902
4.5449123 -2.9577949 -0.78056461
4.4944916 -2.9643872 -0.77473944
4.4416962 -2.9688241 -0.76846623
4.4766021 -3.0320759 -0.77817482
4.4766612 -3.0723596 -0.78161013
4.4374332 -3.0856531 -0.77787608
4.391746 -3.0940242 -0.77294713
4.3726788 -3.120913 -0.77294713
4.34864 -3.1442075 -0.77205092
4.3380389 -3.1772597 -0.77369392
4.323226 -3.2073536 -0.77459008
4.3121586 -3.240356 -0.77623308
4.2796078 -3.2571697 -0.77384329
4.2571926 -3.2815559 -0.77339518
4.2065854 -3.2838798 -0.76757002
4.1979895 -3.3188298 -0.7698105
4.1706009 -3.3389626 -0.76846623
4.1269965 -3.3458042 -0.76398534
4.1071534 -3.3716915 -0.76413471
4.0939903 -3.4031515 -0.76562834
4.0707626 -3.4262969 -0.76518023
4.0556822 -3.4563425 -0.76637512
4.057601 -3.5011923 -0.77100539
4.0047727 -3.4986939 -0.76473218
4.0150709 -3.5513771 -0.77115476
4.0189805 -3.5990388 -0.77638245
4.029779 -3.6535244 -0.78310376
3.9774253 -3.6507621 -0.77697992
3.9527771 -3.6730785 -0.77653182
3.9265649 -3.6938748 -0.77578497
3.9009624 -3.7151701 -0.77518755
3.875958 -3.7369766 -0.77473944
3.8593225 -3.766906 -0.77608371
3.8129311 -3.767576 -0.77115476
3.804419 -3.805589 -0.7742914
3.8115597 -3.8598239 -0.78086334
3.791256 -3.8866785 -0.78161013
3.7906578 -3.934082 -0.78668851
3.7180579 -3.9064043 -0.77608371
3.6913102 -3.9262621 -0.77548629
3.6698403 -3.9517365 -0.77608371
3.6789358 -4.0106196 -0.78355187
3.6356728 -4.0125971 -0.77936971
3.634057 -4.0606227 -0.7845974
3.6188939 -4.0939589 -0.78683782
3.6190615 -4.1451411 -0.79266298
3.567091 -4.1365623 -0.78653914
3.5403605 -4.1568656 -0.7862404
3.4804261 -4.1376424 -0.77817482
3.4764493 -4.1847844 -0.78325313
3.4519606 -4.2075658 -0.78355187
3.4192331 -4.2202148 -0.78190887
3.4043901 -4.2550154 -0.7845974
3.3598335 -4.2525444 -0.7801165
3.2315261 -4.1420856 -0.7550236
3.171665 -4.1171794 -0.74650991
3.1212087 -4.1035037 -0.74023664
3.0971587 -4.1241593 -0.74053538
3.0747385 -4.1470575 -0.74128222
3.0638306 -4.1857958 -0.74501628
3.0537205 -4.2261591 -0.74904907
3.0300279 -4.2480373 -0.74964648
3.0141482 -4.2811046 -0.75233507
3.045923 -4.3831649 -0.76771939
3.0558705 -4.4555979 -0.77757734
3.0462043 -4.5004711 -0.78235698
3.0059047 -4.5001636 -0.7789216
2.9874833 -4.5325599 -0.78146076
2.9596157 -4.5508051 -0.78146076
2.9316368 -4.5688796 -0.78146076
2.909363 -4.595973 -0.78310376
2.8732548 -4.6011558 -0.78086334
2.8330455 -4.5993333 -0.77742797
2.8129826 -4.6301527 -0.77981782
2.7702949 -4.6235733 -0.77563566
2.7313142 -4.6226053 -0.77249902
2.0132627 -3.4549875 -0.5654822
1.9920255 -3.4672756 -0.5654822
1.9522052 -3.446734 -0.55980641
1.922348 -3.443105 -0.55711788
1.894515 -3.4427054 -0.55502683
1.8709997 -3.4499185 -0.55427998
1.8465357 -3.4552286 -0.55323446
1.818854 -3.4542429 -0.55114341
1.7921644 -3.4548039 -0.54935104
1.7691338 -3.462213 -0.54875356
1.7425258 -3.4624026 -0.54696125
1.7172989 -3.4650545 -0.54561698
1.7094396 -3.503078 -0.55024719
1.6793549 -3.4956729 -0.54725999
1.656607 -3.5032294 -0.54681188
1.6334126 -3.509742 -0.5462144
1.6130809 -3.5223956 -0.54666251
1.59712 -3.5448499 -0.54875356
1.5781417 -3.5609117 -0.54979914
1.5562626 -3.5705278 -0.54979914
1.5351034 -3.5818276 -0.55009782
1.5180844 -3.6030266 -0.55203956
1.5012407 -3.6250646 -0.55413067
0 -0 -0
0 -0 -0
1.4570146 -3.7100725 -0.56354052
1.4175134 -3.6755776 -0.55652046
1.8892685 -4.9909811 -0.76757002
1.8623947 -5.0126758 -0.76921302
0 -0 -0
1.3897759 -3.8852372 -0.58475
1.3590424 -3.8740959 -0.58161342
0 -0 -0
1.3161324 -3.9045377 -0.58385384
1.3042327 -3.9491606 -0.589679
1.2863616 -3.9768472 -0.59281558
1.2768493 -4.0318017 -0.60028374
1.2637857 -4.0773416 -0.60625827
1.2645448 -4.1701875 -0.61970091
1.2521338 -4.2224264 -0.62672096
1.1744939 -4.0514755 -0.59864074
1.2341444 -4.3573542 -0.64554065
1.4114947 -5.1034684 -0.76129681
1.416721 -5.2475948 -0.78250635
1.3902837 -5.278182 -0.78594166
1.3556591 -5.2779937 -0.7845974
1.3203697 -5.2747016 -0.78280503
1.2957021 -5.3144064 -0.78773403
1.2596475 -5.3078251 -0.78549355
1.2210561 -5.2894402 -0.78146076
1.1950663 -5.325778 -0.78594166
1.1627862 -5.3349428 -0.7862404
1.1326873 -5.3545532 -0.78818208
1.0994141 -5.3594651 -0.7878834
1.0561111 -5.3137383 -0.77981782
1.0328161 -5.368669 -0.78728592
0.99895197 -5.3700447 -0.78653914
0.96528453 -5.37218 -0.78594166
0.93280935 -5.3809247 -0.78638977
0.8944059 -5.354362 -0.78146076
0.86764717 -5.3978243 -0.78728592
0.8331539 -5.3942513 -0.78594166
0.79729003 -5.3806772 -0.78310376
0.76287264 -5.3756781 -0.78161013
0.73372227 -5.4086733 -0.78594166
0.70039475 -5.4120927 -0.78579229
0.66717356 -5.4162884 -0.78579229
0.63507378 -5.4301014 -0.78728592
0.59989679 -5.4171882 -0.78474677
0.56562036 -5.4109325 -0.78325313
0.53173304 -5.407413 -0.78220761
0.49863425 -5.4115586 -0.78235698
0.46474442 -5.4066348 -0.78116208
0.43218857 -5.4172702 -0.78235698
0.39937493 -5.4257364 -0.78325313
0.36587673 -5.4251256 -0.78280503
0.3309547 -5.4006209 -0.77877223
0.29819036 -5.409461 -0.77981782
0.26480031 -5.407238 -0.77922034
0.23106998 -5.3959188 -0.7772786
0.1974525 -5.3834014 -0.77518755
0.15674603 -5.1314993 -0.7369507
0.12219768 -5.0058374 -0.71783227
0.09167631 -5.0173678 -0.71947521
0.06090036 -5.0188246 -0.71962458
0.030121386 -5.0220699 -0.72007269
-0.00077653595 -5.2446365 -0.75367934
-0.03369689 -5.3582406 -0.77085602
-0.067698851 -5.4469161 -0.78429866
-0.099986643 -5.3860931 -0.77518755
-0.13340269 -5.4002051 -0.77742797
-0.16601336 -5.382484 -0.77488881
-0.19771315 -5.3457923 -0.76951176
-0.23111013 -5.3583083 -0.77160287
-0.26471698 -5.371603 -0.77384329
-0.29503432 -5.3224897 -0.76667386
-0.32695496 -5.3087363 -0.76488149
-0.35891911 -5.2977514 -0.76353723
-0.39251533 -5.3102407 -0.76577771
-0.42865288 -5.3520846 -0.77249902
-0.46148461 -5.3493538 -0.77249902
-0.49375147 -5.3405142 -0.77160287
-0.53040224 -5.3767433 -0.77757734
-0.56276345 -5.3674874 -0.77668118
-0.5893448 -5.3069358 -0.76801813
-0.62305027 -5.3130403 -0.76951176
-0.65333211 -5.2904725 -0.76667386
-0.68399763 -5.2726364 -0.76458281
-0.71980637 -5.2938137 -0.76846623
-0.75297225 -5.2941918 -0.76921302
-0.78427905 -5.2816477 -0.76801813
-0.81349152 -5.2562165 -0.76488149
-0.8531273 -5.2970061 -0.77190155
-0.85211098 -5.0917587 -0.74128222
-0.87520593 -5.0396748 -0.7341128
-0.90383238 -5.0215592 -0.73217106
-0.93680322 -5.0275831 -0.73396343
-0.97138041 -5.0411582 -0.7369507
-1.0268383 -5.1582561 -0.75591975
-1.0642465 -5.1799455 -0.76025128
-1.0873939 -5.1326923 -0.75397801
-1.1239328 -5.1491075 -0.75756276
-1.147043 -5.1044917 -0.75173759
-1.1848065 -5.1252942 -0.75606912
-1.2091389 -5.0881076 -0.75143886
-1.2405709 -5.0815535 -0.75158823
-1.2765396 -5.0930266 -0.75457549
-1.3062868 -5.0793529 -0.75367934
-1.3409617 -5.0846267 -0.75577039
-1.3979573 -5.1717496 -0.77070665
-1.4325691 -5.1735563 -0.77234966
-1.4599679 -5.1494489 -0.76995987
-1.4920883 -5.142293 -0.77025855
-1.4585704 -4.9140887 -0.7357558
-1.4838097 -4.8889632 -0.73321658
-1.5325433 -4.9402027 -0.7427758
-1.5762806 -4.9731188 -0.74949718
-1.6183456 -4.9990983 -0.75517291
-1.645263 -4.977809 -0.7533806
-1.6688174 -4.9470096 -0.75009459
-1.7258669 -5.0142717 -0.7624917
-1.7684 -5.0371718 -0.76786876
-1.7889371 -4.9973698 -0.76323855
-1.8151577 -4.9742246 -0.76129681
-1.8518521 -4.9796739 -0.76398534
-1.8844751 -4.9737644 -0.76488149
-1.9203011 -4.975944 -0.76712197
-1.9540534 -4.9723492 -0.76846623
-1.976809 -4.940989 -0.7653296
-1.9921645 -4.892139 -0.75935507
-2.0263107 -4.8898702 -0.76099807
-2.0581977 -4.8819003 -0.76174492
-2.0966918 -4.8891702 -0.76503086
-2.1278381 -4.8789315 -0.76547897
-2.1537244 -4.8567457 -0.76398534
-2.1871433 -4.8515511 -0.7653296
-2.2152224 -4.8344445 -0.76473218
-2.235657 -4.801043 -0.76144618
-2.267189 -4.7917037 -0.76219296
-2.2931192 -4.7705736 -0.76099807
-2.3167055 -4.7448635 -0.75905639
-2.3484125 -4.7358737 -0.75995255
-2.3694191 -4.7054806 -0.75726402
-2.3833866 -4.6618037 -0.75233507
-2.3964524 -4.6172562 -0.7472567
-2.4251993 -4.6033397 -0.74740607
-2.4422047 -4.5674477 -0.74382138
-2.4692407 -4.5506387 -0.74352264
-2.4823263 -4.508554 -0.73889238
-2.5046372 -4.4837437 -0.73724937
-2.5282001 -4.46141 -0.73605448
-2.5515838 -4.4389563 -0.73485959
-2.5698049 -4.4078426 -0.73217106
-2.5852234 -4.3724179 -0.72873574
-2.6130207 -4.3581691 -0.72903442
-2.6340604 -4.3327608 -0.72739148
-2.6522918 -4.3030515 -0.72500163
-2.6713066 -4.2749586 -0.72291058
-2.6906059 -4.2476296 -0.72096884
-2.718756 -4.2343683 -0.72156632
-2.7392912 -4.2093205 -0.72007269
-2.7612555 -4.186656 -0.71902716
-2.7764492 -4.1540174 -0.71618927
-2.7902372 -4.1197138 -0.71305263
-2.7941947 -4.0715408 -0.70737684
-2.8202538 -4.0559425 -0.70767558
-2.8411 -4.0329041 -0.70663005
-2.8560238 -4.0017157 -0.70409089
-2.886899 -3.992929 -0.70573384
-2.8815389 -3.9344635 -0.69811636
-2.9003222 -3.9095628 -0.6967721
-2.9177203 -3.8829994 -0.6951291
-2.9199266 -3.8367026 -0.68975204
-2.9355636 -3.8085351 -0.6878103
-2.9588771 -3.7904513 -0.6878103
-2.9544766 -3.7373257 -0.68108898
-2.9829159 -3.7260728 -0.68243325
-2.9982483 -3.6984844 -0.68064094
-3.0064514 -3.6624436 -0.67720556
-2.996623 -3.605155 -0.66958809
-3.0282409 -3.5980453 -0.67182851
-3.0476949 -3.5763872 -0.67123103
-3.0514903 -3.5366621 -0.66704887
-3.0620716 -3.5052156 -0.66450971
-3.0599322 -3.4597034 -0.65913266
-3.0916595 -3.4526463 -0.66152251
-3.114115 -3.435076 -0.66182119
-3.1117263 -3.3904128 -0.6565935
-3.1237187 -3.3618414 -0.65465176
-3.1239579 -3.3210101 -0.65017092
-3.1299529 -3.286746 -0.64703429
-3.1198573 -3.2361655 -0.64046234
-3.1265299 -3.2035201 -0.63762444
-3.1509936 -3.189198 -0.63866997
-3.1670055 -3.1663094 -0.63792318
-3.1941149 -3.154458 -0.63956612
-3.1957111 -3.117543 -0.63583207
-3.2019608 -3.0855291 -0.63314354
-3.1936107 -3.0399258 -0.62746775
-3.2006743 -3.0094388 -0.62507796
-3.1944404 -2.9668715 -0.61999965
-3.2023814 -2.9378595 -0.61790854
-3.2225461 -2.920146 -0.61835665
-3.242614 -2.9022956 -0.61880475
-3.2440598 -2.8679411 -0.61551875
-3.2466965 -2.8349788 -0.61253148
-3.2655282 -2.8162954 -0.61283022
-3.2631719 -2.7795403 -0.6089468
-3.2725971 -2.7531023 -0.60745317
-3.2886677 -2.7323384 -0.6073038
-3.2824337 -2.6932983 -0.6028229
-3.2988977 -2.6731071 -0.6028229
-3.279716 -2.6244071 -0.59595221
-3.2980852 -2.6060722 -0.59640032
-3.3038774 -2.5778821 -0.59445858
-3.3125815 -2.5521321 -0.59311432
-3.3210948 -2.5263724 -0.59177005
-3.3396969 -2.5083215 -0.59236753
-3.3399308 -2.4765966 -0.58952963
-3.347882 -2.4508018 -0.58818537
-3.3524363 -2.4226875 -0.58624363
-3.3616025 -2.3980536 -0.5851981
-3.3487604 -2.3580346 -0.58011979
-3.3542328 -2.3312378 -0.57847679
-3.3643961 -2.3078172 -0.57772994
-3.3809502 -2.2887924 -0.57817805
-3.3842397 -2.2608669 -0.57623631
-3.3864887 -2.2324433 -0.57414526
-3.3943198 -2.2078497 -0.57309973
-3.4044738 -2.1848459 -0.57250226
-3.4136379 -2.1612718 -0.57175547
-3.421802 -2.1371441 -0.57085925
-3.4264309 -2.1109242 -0.56936562
-3.4249511 -2.0811355 -0.56682646
-3.4266284 -2.053477 -0.56488478
-3.4238386 -2.0233624 -0.56219625
-3.4173911 -1.9913695 -0.55891025
-3.416683 -1.9629785 -0.55666983
-3.4329658 -1.9444125 -0.55741662
-3.4292891 -1.9146398 -0.55472809
-3.4513698 -1.8992795 -0.55652046
-3.4603505 -1.8766532 -0.55607235
-3.4561007 -1.8470014 -0.55338383
-3.4603682 -1.822077 -0.55218893
-3.4653382 -1.7976249 -0.55114341
-3.4727805 -1.7745296 -0.55054593
-3.4818368 -1.7522991 -0.55024719
-3.4685988 -1.7190541 -0.5462144
-3.4799702 -1.6981722 -0.54636377
-3.4840848 -1.6737921 -0.54531825
-3.5076995 -1.6587192 -0.54755867
-3.4936035 -1.6259079 -0.54352587
-3.5250931 -1.614315 -0.54711062
-3.5159976 -1.5841312 -0.54397398
-3.5265558 -1.562928 -0.54412335
-3.5233877 -1.5357327 -0.54203224
-3.5418339 -1.5179771 -0.54352587
-3.5182738 -1.4824048 -0.53814882
-3.5519722 -1.4709966 -0.54218161
-3.5581834 -1.4480571 -0.54173356
-3.5706744 -1.4276645 -0.54233098
-3.593174 -1.4111459 -0.5445714
-0.24328685 -0.094994806 -0.00089094351
-0.26143676 -0.10014734 -0.0037288361
-0.26390025 -0.099229649 -0.0040275618
-0.26450413 -0.097608514 -0.0040275618
-0.26509807 -0.095983714 -0.0040275618
-0.26754829 -0.095009387 -0.0043262872
-0.26906136 -0.093687266 -0.0044756499
-0.27056819 -0.092350148 -0.0046250126
-0.27019078 -0.090378419 -0.0044756499
-0.27262199 -0.089326948 -0.0047743754
-0.27316496 -0.08765249 -0.0047743754
-0.27464217 -0.086267211 -0.0049237381
-0.27516633 -0.084580414 -0.0049237381
-0.27283597 -0.082047835 -0.0044756499
-0.27618355 -0.081197329 -0.0049237381
-0.27762797 -0.079770386 -0.0050731013
-0.27715915 -0.077802017 -0.0049237381
-0.27954066 -0.076614968 -0.005222464
-0.28096172 -0.075149946 -0.0053718267
-0.27950203 -0.072933026 -0.0050731013
-0.28186277 -0.07169646 -0.0053718267
-0 -0 -0
-0.27887291 -0.067319736 -0.0047743754
-0 -0 -0
-0.27485386 -0.062811032 -0.0040275618
-0.27330178 -0.060702659 -0.0037288361
-0.27366909 -0.059024569 -0.0037288361
-0 -0 -0
-0.27534267 -0.055854324 -0.0038781988
-0.27373818 -0.053790629 -0.0035794734
-0.27406308 -0.05210999 -0.0035794734
-0 -0 -0
-0.27760476 -0.049248938 -0.0040275618
-0.27790174 -0.047544658 -0.0040275618
-0.27916452 -0.045995306 -0.0041769245
-0.27944148 -0.04428152 -0.0041769245
-0.27970791 -0.042566065 -0.0041769245
-0 -0 -0
-0 -0 -0
-0.27063772 -0.036143415 -0.0026832968
-0 -0 -0
-0 -0 -0
-0.27420554 -0.031481601 -0.003131385
-0 -0 -0
-0.28736395 -0.02936949 -0.0050731013
-0.28655413 -0.027515193 -0.0049237381
-0.29065824 -0.026094289 -0.0055211894
-0.28884155 -0.024153508 -0.005222464
-0.28799817 -0.022308381 -0.0050731013
-0 -0 -0
-0.27739388 -0.018109584 -0.0034301106
-0 -0 -0
-0.27561998 -0.01460787 -0.003131385
-0.27570444 -0.012916422 -0.003131385
-0.27281412 -0.011116405 -0.0026832968
-0.27584219 -0.0095321322 -0.003131385
-0 -0 -0
-0 -0 -0
-0.28486931 -0.0045590699 -0.0044756499
-0 -0 -0
-0 0 -0
-0.28490496 0.000685215 -0.0044756499
-0.28192928 0.0023958443 -0.0040275618
-0 0 -0
-0 0 -0
-0.27491927 0.0073699541 -0.0029820222
-0.2699284 0.0088728843 -0.0022352084
-0 0 -0
-0.26881161 0.012135769 -0.0020858457
-0.26675758 0.013675054 -0.0017871201
-0.26666865 0.015311589 -0.0017871201
-0.26656967 0.016947549 -0.0017871201
-0 -0 -0
-0 -0 -0
-0 -0 -0
-0 -0 -0
-0 -0 -0
-0 0 -0
-0 0 -0
-0 0 -0
-0 0 -0
-0 0 -0
-0 0 -0
-0 0 -0
-0 0 -0
-0 0 -0
-0 0 -0
-0 0 -0
-0 0 -0
-0 0 -0
-0 0 -0
-0 0 -0
-0 0 -0
-0 0 -0
-0 0 -0
-0 0 -0
-0 0 -0
-0 0 -0
-0 0 -0
-0 0 -0
-0 0 -0
-0 0 -0
-0 0 -0
-0 0 -0
-0 0 -0
-0 0 -0
-0 0 -0
-0 0 -0
-0 0 -0
-0 0 -0
-0 0 -0
-0 0 -0
-0 0 -0
-0 0 -0
-0 0 -0
-0 0 -0
-0 0 -0
-0 0 -0
-0 0 -0
-0 0 -0
-0 0 -0
-0 0 -0
-0 0 -0
-0 0 -0
-0 0 -0
-0 0 -0
-0 0 -0
-0 0 -0
-0 0 -0
-0 0 -0
-0 0 -0
-0 0 -0
-0 0 -0
-0 0 -0
-0 0 -0
-0 0 -0
-0 0 -0
-0 0 -0
-0 0 -0
-0 0 -0
-0 0 -0
-0 0 -0
-0 0 -0
-0 0 -0
-0 0 -0
-0 0 -0
-0 0 -0
-0 0 -0
-0 0 -0
-0 0 -0
-0 0 -0
-0 0 -0
-0 0 -0
-0 0 -0
-0 0 -0
-0 0 -0
-0 0 -0
-0 0 -0
-0 0 -0
-0 0 -0
-0 0 -0
-0 0 -0
-0 0 -0
-0 0 -0
-0 0 -0
-0 0 -0
-0 0 -0
-0 0 -0
-0 0 -0
-0 0 -0
-0 0 -0
-0 0 -0
-0 0 -0
-0 0 -0
-0 0 -0
-0 0 -0
-0 0 -0
-0 0 -0
-0 0 -0
-0 0 -0
-0 0 -0
-0 0 -0
-0 0 -0
-0 0 -0
-0 0 -0
-0 0 -0
-0 0 -0
-0.2530252 0.20540105 -0.014378473
-0.27007684 0.22196916 -0.018240429
-0.25959769 0.21605636 -0.016309451
-0.26808807 0.22590183 -0.018401343
-0.2569268 0.21922576 -0.016309451
-0.25109115 0.216932 -0.015343962
-0.26537183 0.23209603 -0.018723173
-0.22696047 0.20104611 -0.010677432
-0.2529406 0.22678104 -0.016631281
-0.25008118 0.22700377 -0.016309451
-0.26614338 0.24454151 -0.020171408
-0.26680806 0.24818422 -0.020654151
-0 0 -0
-0.24014436 0.22899115 -0.015343962
-0.26717091 0.25784567 -0.021780554
-0.25357005 0.24776745 -0.019045003
-0.25274745 0.25001195 -0.019205919
-0.2763432 0.2766718 -0.024998851
-0.24549708 0.2488835 -0.018240429
-0.2708585 0.27792376 -0.024516108
-0.27600029 0.28668383 -0.026125256
-0.26742753 0.28122666 -0.024516108
-0.25690302 0.27351931 -0.022424214
-0.23640303 0.25485131 -0.0179186
-0.27555743 0.30064026 -0.027734404
-0.23060536 0.25480905 -0.01727494
-0.25077176 0.28047672 -0.022585129
-0.24119699 0.27314091 -0.020654151
-0.25315687 0.29022089 -0.024033362
-0 0 -0
-0 0 -0
-0 0 -0
-0 0 -0
-0 0 -0
-0 0 -0
-0 0 -0
-0 0 -0
-0 0 -0
-2.9520922 3.8283551 -0.74943739
-2.921371 3.8369741 -0.74750644
-2.9025176 3.8611381 -0.74879372
-2.8923016 3.8971024 -0.75249481
-2.8660014 3.9115913 -0.75185114
-2.8488882 3.938699 -0.75378209
-2.8349917 3.9705627 -0.75667858
-2.8191049 3.9999835 -0.75909227
-2.7961996 4.0196366 -0.75957501
-2.780422 4.049736 -0.76214969
-2.7721317 4.0912309 -0.76697713
-2.733808 4.0884733 -0.76311517
-2.7282407 4.1348262 -0.76890808
-2.710897 4.1638947 -0.77132183
-2.6650248 4.1488962 -0.76520705
-2.6421592 4.1693382 -0.76601166
-2.6290848 4.2055564 -0.76987356
-2.6167011 4.2434502 -0.77405739
-2.6095934 4.2906246 -0.78001124
-2.5710313 4.2862439 -0.77614927
-2.5466933 4.3053365 -0.77679294
-2.5212228 4.3225865 -0.77711475
-2.5128598 4.3696303 -0.7830686
-2.4675014 4.3523421 -0.77695382
-2.4590485 4.4001379 -0.7830686
-2.4315274 4.414279 -0.78290766
-2.3719008 4.3692675 -0.77180457
-2.3604121 4.412457 -0.77711475
-2.341578 4.4425721 -0.78001124
-2.3210983 4.4699945 -0.78242493
-2.2909303 4.4788804 -0.78145945
-2.2727318 4.5113626 -0.78483868
-2.2423756 4.519918 -0.7838732
-2.2384293 4.582365 -0.79272348
-2.2021418 4.5791144 -0.78966612
-2.1883633 4.6228695 -0.79513723
-2.1370289 4.5870066 -0.78628689
-2.112957 4.6090045 -0.78789604
-2.0927541 4.6398754 -0.79111433
-2.0622435 4.6481185 -0.79030979
-2.0163133 4.6208835 -0.78322953
-1.9855869 4.6277266 -0.78226405
-1.955236 4.6352763 -0.78145945
-1.923355 4.6389809 -0.78001124
-1.901559 4.6671467 -0.78290766
-1.8787559 4.6933866 -0.78548235
-1.8513674 4.7084999 -0.78612596
-1.8345317 4.7510748 -0.79159707
-1.7881985 4.7170219 -0.78371227
-1.7564676 4.7205052 -0.78242493
-1.7430447 4.7738395 -0.78982705
-1.6977417 4.7398462 -0.78210312
-1.6660092 4.7427249 -0.78081578
-1.6449134 4.7761869 -0.78483868
-1.6133662 4.779644 -0.78371227
-1.6007476 4.8400531 -0.79240167
-1.5628053 4.8244333 -0.78805697
-1.5543644 4.9007258 -0.79948193
-1.5037771 4.8441906 -0.7882179
-1.4955424 4.9241529 -0.80028647
-1.4771061 4.9729724 -0.80704492
-1.4531715 5.0046892 -0.81090689
-1.4216276 5.0106635 -0.81042415
-1.3832107 4.9917097 -0.80575758
-1.3517827 4.9972448 -0.80527484
-1.3072381 4.9529605 -0.79642451
-1.2751001 4.9541974 -0.7952981
-1.2535655 4.9973478 -0.80125195
-1.2160832 4.9771419 -0.79658544
-1.1830082 4.973948 -0.79481536
-1.1509085 4.9743824 -0.79368895
-1.1240475 4.9977198 -0.79642451
-1.0910429 4.9939165 -0.79465449
-1.0413327 4.910727 -0.77968937
-1.0257 4.9875951 -0.7914362
-0.98272866 4.9318476 -0.78113765
-0.95637602 4.9581356 -0.78451681
-0.92883241 4.979434 -0.78709149
-0.89826167 4.9850392 -0.78709149
-0.86630404 4.9826779 -0.78580415
-0.83701992 4.995687 -0.78709149
-0.80918068 5.0182676 -0.78998792
-0.77882755 5.0260639 -0.79047066
-0.74811876 5.0317245 -0.79063159
-0.7130537 5.006907 -0.78580415
-0.68591577 5.0375924 -0.79014885
-0.64774066 4.9859185 -0.78097671
-0.61458981 4.9692297 -0.77759749
-0.58800471 5.0062346 -0.7830686
-0.56459188 5.075469 -0.79384989
-0.52951825 5.0415387 -0.7877351
-0.50080836 5.0672827 -0.7914362
-0.46332836 5.0014677 -0.78017211
-0.43271628 5.0051994 -0.78033304
-0.39780706 4.9556193 -0.77180457
-0.37038603 4.9983215 -0.77840209
-0.33837047 4.9808064 -0.7751838
-0.3074978 4.9778633 -0.77437919
-0.27777168 4.9944382 -0.77679294
-0.24560723 4.9654899 -0.77180457
-0.21368016 4.9333782 -0.76633346
-0.18491168 4.9750338 -0.77293098
-0.15481155 4.9898858 -0.7751838
-0.12315679 4.9493022 -0.76842535
-0.093622044 4.99437 -0.77566653
-0.062862717 4.9859686 -0.77421826
-0.032190625 4.9744172 -0.77228731
-0.0016638866 4.9656382 -0.7708391
0.028646618 4.9379206 -0.76633346
0.059049912 4.9465337 -0.76778167
0.087819718 4.8582525 -0.75346029
0.11874692 4.903996 -0.76102328
0.1493129 4.9189591 -0.76359791
0.17848653 4.8903337 -0.75909227
0.20928712 4.9078822 -0.76214969
0.23593996 4.8355279 -0.7505638
0.26565984 4.8349748 -0.75072473
0.29844758 4.8844805 -0.75909227
0.32940492 4.8973289 -0.76150602
0.35923156 4.8922625 -0.76102328
0.38760021 4.8693051 -0.75764406
0.41730186 4.8648682 -0.75732225
0.44849882 4.8769584 -0.75973594
0.47629553 4.8525052 -0.75619584
0.4999195 4.7905927 -0.7465409
0.532556 4.816865 -0.7513684
0.55775464 4.7762547 -0.74525362
0.58741188 4.775681 -0.74573636
0.61708313 4.7749233 -0.7462191
0.64345664 4.7495303 -0.742679
0.67120284 4.7357206 -0.74106985
0.70024806 4.731513 -0.74106985
0.73392934 4.7573657 -0.74605817
0.75950933 4.7303596 -0.74235713
0.78770816 4.7207427 -0.74155259
0.8151443 4.707068 -0.74010432
0.84331381 4.698092 -0.73946071
0.86996186 4.6811843 -0.7375297
0.89755148 4.6699429 -0.73656422
0.93618041 4.7146883 -0.74493176
0.96964753 4.7310934 -0.74863285
0.98580593 4.6642184 -0.73849517
1.0078986 4.6281862 -0.73350686
1.0179306 4.5400534 -0.71982908
1.0247023 4.4423571 -0.70454216
1.0407859 4.3889284 -0.69665736
1.0599896 4.3508148 -0.69134712
1.0763708 4.3030567 -0.6844278
1.0968667 4.2734275 -0.68056583
1.1162863 4.2408457 -0.67622113
1.1353476 4.2081876 -0.67187643
1.1545762 4.1773586 -0.66785359
1.1788428 4.1654472 -0.66704899
1.2016344 4.1486554 -0.66543984
1.2206203 4.1194386 -0.66173881
1.2407237 4.0948691 -0.65884233
1.2646585 4.0834079 -0.65819871
1.2870108 4.067102 -0.65675044
1.316797 4.0741549 -0.65932512
1.3352774 4.0463157 -0.6559459
1.360395 4.0389819 -0.65610683
1.3784177 4.0109568 -0.6527276
1.4003913 3.994972 -0.65144026
1.4162427 3.9621394 -0.64725649
1.4455944 3.9672854 -0.64967018
1.4843369 3.9972019 -0.65642864
1.5109302 3.9935577 -0.65739411
1.5499536 4.0219717 -0.66399163
1.5789284 4.0234113 -0.66592258
1.6050502 4.0173135 -0.66656625
1.6263243 3.999161 -0.66511804
1.6497002 3.9863708 -0.6646353
1.6771922 3.9834507 -0.66592258
1.704322 3.9794357 -0.66704899
1.7058529 3.9164193 -0.65771598
1.7310503 3.908586 -0.65819871
1.7554054 3.8987908 -0.65835959
1.7727247 3.8735867 -0.65578496
1.7968755 3.8635316 -0.6559459
1.8281368 3.8684962 -0.65884233
1.8778911 3.9114828 -0.66865814
1.9070464 3.9105322 -0.67058915
1.919618 3.875761 -0.66640538
1.9296181 3.8365748 -0.66141701
1.9634447 3.8448803 -0.66511804
1.9869995 3.8327603 -0.66511804
2.0123177 3.8239901 -0.66576171
2.0422518 3.8237596 -0.66801453
2.0764906 3.8311148 -0.67171556
2.0961545 3.8113828 -0.67042822
2.1161354 3.7924159 -0.66930181
2.137907 3.7767832 -0.66881907
2.1630063 3.7670178 -0.66946274
2.192039 3.7639101 -0.67139369
2.2346647 3.7835336 -0.67766941
2.2745707 3.7976937 -0.68297958
2.3121727 3.8072877 -0.68748522
2.3473907 3.8123596 -0.69118625
2.3764865 3.8070946 -0.69295627
2.4093001 3.8074543 -0.69585276
2.4374118 3.8000767 -0.69730097
2.4660616 3.7933247 -0.69891012
2.49472 3.7863638 -0.70051926
2.5250297 3.7816565 -0.70261121
2.557034 3.7791717 -0.70518583
2.590219 3.7780643 -0.70808232
2.6240492 3.7775021 -0.71113968
2.6602414 3.7798948 -0.71484071
2.6965611 3.781985 -0.71854174
2.7324286 3.7829711 -0.7220819
2.7596681 3.7717099 -0.72320831
2.791573 3.7666008 -0.725622
2.8318133 3.7722926 -0.73028857
2.8746171 3.7807744 -0.73559874
2.9025784 3.7693212 -0.73688602
2.9353621 3.7638936 -0.73946071
2.8966243 3.6675785 -0.72320831
2.9196901 3.650507 -0.72336918
2.9414129 3.6317563 -0.72320831
2.9630158 3.6128767 -0.72304738
2.9763017 3.583997 -0.72079456
3.0045879 3.5732219 -0.72240371
3.0283754 3.5569735 -0.72288644
3.0546541 3.5435581 -0.72401285
3.0795841 3.5284665 -0.72481745
3.1148994 3.5250366 -0.72819662
3.139102 3.5088 -0.72884029
3.1486473 3.4763048 -0.72594386
3.2152729 3.5063889 -0.73688602
3.2051699 3.4525952 -0.72932303
3.2553561 3.4637916 -0.73624241
3.2343724 3.3994162 -0.72626567
3.2462697 3.3702648 -0.72417378
3.2848017 3.3686564 -0.72835755
3.2950099 3.3379011 -0.72594386
3.3049648 3.3071477 -0.72353011
3.3736241 3.3346848 -0.73463321
3.3650711 3.2856498 -0.72803575
3.3901403 3.2697368 -0.72916216
3.4315751 3.269299 -0.7339896
3.4630697 3.2590051 -0.73656422
3.4895067 3.2437429 -0.73801243
3.5144329 3.226944 -0.73913884
3.5202775 3.1927199 -0.73608148
3.5589132 3.1881838 -0.74026525
3.5998425 3.1852553 -0.74493176
3.6156037 3.1598592 -0.74412721
3.6147532 3.1202006 -0.73978251
3.6428425 3.1056466 -0.74171346
3.6459763 3.0698853 -0.7383343
3.6601913 3.0436697 -0.73736876
3.6810858 3.0230331 -0.73785156
3.7263935 3.0221508 -0.74348354
3.7140546 2.9745476 -0.73704696
3.7407508 2.9584379 -0.73881704
3.7596109 2.9360371 -0.73897791
3.7791185 2.9141188 -0.73929977
3.8047802 2.8968551 -0.74090892
3.8863819 2.9214973 -0.75394303
3.9359345 2.9211266 -0.76037961
3.8264096 2.8035784 -0.73463321
3.91311 2.8303764 -0.74863285
3.9352224 2.8097541 -0.74959832
3.9096339 2.7554173 -0.74106985
3.935379 2.737577 -0.74283987
3.9521024 2.7133784 -0.74283987
3.9735792 2.6923997 -0.74380541
3.994947 2.6712596 -0.74477088
4.005496 2.6428914 -0.74364448
4.0323892 2.6252658 -0.74573636
4.0658593 2.6116772 -0.74911559
4.0492964 2.5660739 -0.74283987
4.0875602 2.5553071 -0.74718457
4.093082 2.5239611 -0.74525362
4.1236691 2.5080316 -0.74815011
4.1025882 2.4608488 -0.74123073
4.1396956 2.4486957 -0.74541456
4.158905 2.4257355 -0.7462191
4.1685777 2.3972187 -0.74525362
4.1540174 2.3550434 -0.73978251
4.2088809 2.3521435 -0.74734551
4.1990294 2.3129389 -0.74283987
4.2339592 2.2984333 -0.74670184
4.2140431 2.254252 -0.74042618
4.2932763 2.2628727 -0.75249481
4.293942 2.2296634 -0.75008106
4.3312659 2.2154114 -0.75442576
4.3359637 2.1843524 -0.75281662
4.3448648 2.1555128 -0.75201201
4.3207641 2.1106153 -0.74525362
4.3407483 2.0874865 -0.7465409
4.3597198 2.0637693 -0.74766731
4.3535137 2.0282254 -0.74428815
4.4107342 2.0220432 -0.75233388
4.4149613 1.9912887 -0.75088561
4.3666539 1.9373391 -0.74010432
4.4797707 1.954726 -0.7581268
4.4027967 1.8890569 -0.74235713
4.4261265 1.8669939 -0.74444902
4.4912882 1.8621069 -0.75394303
4.5017152 1.8341414 -0.75378209
4.4973083 1.8002483 -0.75104654
4.4660192 1.7560029 -0.74364448
4.4978857 1.7367454 -0.74734551
4.5241461 1.715063 -0.75008106
4.533659 1.6869267 -0.74992013
4.5504141 1.661447 -0.75104654
4.5159245 1.6175165 -0.74332261
4.5667353 1.6041727 -0.75040287
4.5718269 1.5745142 -0.74959832
4.5851421 1.5476953 -0.75024199
4.5861192 1.5167423 -0.74879372
4.5953393 1.4885739 -0.74879372
4.5733414 1.4505002 -0.74348354
4.5991216 1.4276798 -0.74638003
4.6011848 1.3974249 -0.74525362
4.5888586 1.3629823 -0.74171346
4.5952396 1.3342493 -0.74139166
4.6508136 1.3195014 -0.74943739
4.6084137 1.2769673 -0.74090892
4.6904736 1.2687742 -0.75346029
4.6265998 1.2210746 -0.74139166
4.63974 1.1941398 -0.74235713
4.7111182 1.1817425 -0.75313842
4.7096519 1.1507044 -0.75169021
4.7339067 1.1258969 -0.7545867
4.7080331 1.0892624 -0.74911559
4.6809268 1.0527713 -0.74348354
4.7056184 1.0280337 -0.7465409
4.7504568 1.0073338 -0.75297755
4.771049 0.98114985 -0.75539124
4.7885947 0.95417213 -0.75732225
4.7333064 0.91299051 -0.74718457
4.7562833 0.88718933 -0.75008106
4.8004899 0.86499262 -0.75651765
4.7755637 0.83027786 -0.75152928
4.7922492 0.8029179 -0.75346029
4.7931881 0.77286935 -0.75281662
4.8124695 0.74571252 -0.75523031
4.778882 0.71050602 -0.74895465
4.7636094 0.67838538 -0.74573636
4.8478732 0.66006869 -0.7589314
4.7960439 0.6230582 -0.74975926
4.8458133 0.59931588 -0.75732225
4.867043 0.57164502 -0.76021868
4.8635926 0.54100633 -0.75909227
4.8471894 0.50909024 -0.75587398
4.8040595 0.47477296 -0.74831098
4.8402963 0.44838491 -0.75378209
4.8645887 0.42054889 -0.75732225
4.8611746 0.39021811 -0.75635672
4.8693833 0.36082122 -0.75732225
4.8311329 0.32819057 -0.75072473
4.8409367 0.29902855 -0.75201201
4.8633742 0.27047205 -0.75539124
4.847199 0.23974681 -0.75249481
4.8446345 0.20982929 -0.75185114
4.885282 0.18156868 -0.75828773
4.8902502 0.15171246 -0.7589314
4.885169 0.12155582 -0.75796586
4.8799024 0.091467239 -0.75700039
4.8428698 0.061047215 -0.75088561
4.8165054 0.03115622 -0.7465409
4.850163 0.0016160203 -0.75201201
4.8500814 -0.02814405 -0.75201201
4.8567257 -0.057984982 -0.75313842
4.8770018 -0.08815711 -0.75651765
4.8625555 -0.1177468 -0.75426483
4.8735795 -0.14793906 -0.75619584
4.849895 -0.17701386 -0.75249481
4.881258 -0.20815393 -0.75780499
4.8739738 -0.23781273 -0.75683945
4.8566551 -0.26684931 -0.75426483
4.8825102 -0.29832736 -0.75877047
4.8687711 -0.32748637 -0.75683945
4.8430462 -0.35562167 -0.75297755
4.8122411 -0.38306251 -0.74831098
0 -0 -0
4.7531223 -0.43712053 -0.73946071
4.8141971 -0.47253853 -0.74992013
4.8534179 -0.50647038 -0.75683945
4.8384471 -0.5349403 -0.7549085
4.8742862 -0.56919426 -0.76134509
4.8638449 -0.59824872 -0.76021868
4.863019 -0.62846071 -0.76070142
4.8668957 -0.65934718 -0.76198876
4.8500543 -0.68739802 -0.75989687
4.8525796 -0.71815532 -0.76102328
4.8402786 -0.74671352 -0.75973594
4.8131919 -0.772802 -0.75603491
4.8132272 -0.80313241 -0.75683945
0 -0 -0
4.7894087 -0.85969752 -0.7545867
4.7830734 -0.88888836 -0.75442576
4.7881908 -0.92026824 -0.75619584
4.8173051 -0.95654798 -0.76198876
4.7804046 -0.97974974 -0.75683945
4.7916846 -1.0127355 -0.75973594
4.8229914 -1.0503051 -0.76601166
4.8000836 -1.0762093 -0.7632761
4.7847342 -1.103646 -0.76182783
4.7749915 -1.1323009 -0.76134509
4.7717896 -1.1625124 -0.76198876
4.7722268 -1.1936851 -0.7632761
4.7256165 -1.2128876 -0.75667858
4.7304935 -1.2451255 -0.75877047
4.7208586 -1.2736139 -0.75844866
4.7101011 -1.3017681 -0.75796586
4.6953769 -1.3287635 -0.75683945
4.6880836 -1.3578233 -0.75700039
4.6351867 -1.3733886 -0.74943739
4.6625667 -1.412676 -0.75555217
4.6358976 -1.4357122 -0.75249481
4.5921836 -1.4531164 -0.7465409
4.6216865 -1.4937075 -0.75313842
4.5871277 -1.513689 -0.74879372
4.5758829 -1.5411767 -0.74847192
4.5952764 -1.5791659 -0.75346029
4.5994716 -1.6122284 -0.75587398
4.5393043 -1.6224858 -0.74718457
4.5274086 -1.6496322 -0.74686277
4.5856714 -1.7027994 -0.75877047
4.5382109 -1.7169379 -0.75233388
4.5018034 -1.7348164 -0.74782825
4.4910741 -1.7624063 -0.74782825
4.4820085 -1.7906621 -0.74815011
4.5285373 -1.8415475 -0.75828773
4.5071206 -1.8651489 -0.75651765
4.5028687 -1.8958323 -0.75780499
4.4902439 -1.9230372 -0.75764406
4.4837894 -1.9529169 -0.75860953
4.4545755 -1.9727999 -0.75555217
4.4252868 -1.9923984 -0.75249481
4.4102859 -2.0182819 -0.75201201
4.4515162 -2.0702729 -0.76166695
4.3878636 -2.0735159 -0.75249481
4.4186573 -2.1213272 -0.76037961
4.4153166 -2.1531575 -0.76214969
4.3861012 -2.1723254 -0.7592532
4.4097238 -2.2178195 -0.76601166
4.3670244 -2.2300253 -0.76070142
4.3874335 -2.2744915 -0.76697713
4.3288484 -2.2779329 -0.75877047
4.351356 -2.3239768 -0.76552886
4.323998 -2.3435791 -0.76311517
4.2887802 -2.3586535 -0.7592532
4.2957749 -2.3969455 -0.7632761
4.2646666 -2.4140227 -0.76021868
4.2643256 -2.448498 -0.76295424
4.220222 -2.4577322 -0.75748312
4.2382069 -2.5031528 -0.76375884
4.173656 -2.4997017 -0.75442576
4.2189808 -2.562145 -0.76601166
4.2183089 -2.5972972 -0.76890808
4.1922455 -2.6168606 -0.76697713
4.1777782 -2.64359 -0.76729894
4.1540012 -2.6643794 -0.76585072
4.1359196 -2.6887422 -0.76552886
4.0987387 -2.7004955 -0.76150602
4.0886588 -2.7299778 -0.7627933
4.0195122 -2.7196209 -0.75249481
4.0068192 -2.7470231 -0.75329936
4.0369053 -2.8042111 -0.76263243
4.0042868 -2.8181369 -0.75957501
4.0013857 -2.8529661 -0.7624715
3.9558003 -2.8572404 -0.75683945
3.9573119 -2.8954444 -0.76070142
3.8847554 -2.8791265 -0.74959832
3.8646481 -2.9011314 -0.74911559
3.8868458 -2.9552519 -0.75732225
3.8483067 -2.9633908 -0.75313842
3.8736374 -3.0209336 -0.76214969
3.857352 -3.0464799 -0.76263243
3.857857 -3.0855007 -0.76665527
3.8357842 -3.1066296 -0.76601166
3.8158867 -3.1294813 -0.76585072
3.7791479 -3.1383352 -0.76214969
3.7175145 -3.1258974 -0.75313842
3.735842 -3.1806364 -0.76118416
3.7416742 -3.2254071 -0.76665527
3.7106586 -3.2385709 -0.76424158
3.6936758 -3.2638919 -0.76488525
3.6816711 -3.2937326 -0.76665527
3.6606603 -3.3155985 -0.76649439
3.6453397 -3.3426661 -0.7676208
3.6262076 -3.3663135 -0.76794261
3.5515401 -3.3378108 -0.75587398
3.5274174 -3.3561385 -0.75506943
3.5323508 -3.4023659 -0.76086235
3.48314 -3.3964167 -0.75442576
3.4629369 -3.4184182 -0.7545867
3.4481804 -3.4458804 -0.75603491
3.4248903 -3.4648676 -0.75555217
3.4035659 -3.4858172 -0.75555217
3.3704643 -3.4945598 -0.75281662
3.3578098 -3.5244637 -0.7549085
3.3347681 -3.5435629 -0.7545867
3.4050305 -3.6629856 -0.77663201
3.3384304 -3.6358316 -0.76601166
3.3160584 -3.6562474 -0.76601166
3.301465 -3.6853464 -0.76794261
3.2794442 -3.7062733 -0.76810354
3.2559915 -3.7255828 -0.76794261
3.2279108 -3.7395146 -0.76665527
3.1985011 -3.75174 -0.76504612
3.1582551 -3.750912 -0.76070142
3.235527 -3.8908722 -0.78628689
3.187161 -3.8809073 -0.78001124
3.1800754 -3.9210861 -0.78435594
3.1405303 -3.921267 -0.78033304
3.1029403 -3.9234335 -0.77679294
3.06848 -3.9291759 -0.77405739
3.0262306 -3.9244838 -0.76922995
2.9919286 -3.9296298 -0.76649439
2.9594567 -3.9368699 -0.76424158
2.9464219 -3.9700119 -0.76729894
2.9354248 -4.0063262 -0.77099997
2.9026883 -4.0130672 -0.76874715
2.8894815 -4.0468659 -0.7719655
2.858341 -4.0556455 -0.77019542
2.8018363 -4.0277381 -0.76118416
2.7770698 -4.0448542 -0.76118416
2.7732391 -4.092865 -0.76729894
2.7579496 -4.1245713 -0.77019542
2.7233481 -4.1274123 -0.76745987
2.6995873 -4.1465259 -0.76794261
2.6778281 -4.1688247 -0.76906902
2.6733332 -4.2185221 -0.7755056
2.6243756 -4.1980247 -0.76842535
2.6021943 -4.2199287 -0.76955175
2.5957439 -4.267858 -0.77566653
2.5415816 -4.2371559 -0.7668162
2.5039763 -4.2331343 -0.76311517
2.5256989 -4.3302593 -0.77856296
2.4493804 -4.2592654 -0.76231056
2.4694488 -4.3557763 -0.77759749
2.3892233 -4.275218 -0.75973594
2.3610411 -4.2863398 -0.75909227
2.3855581 -4.3944211 -0.77647108
2.3650682 -4.4211593 -0.7787239
2.3291509 -4.4189992 -0.77566653
2.3065417 -4.4419665 -0.77727568
2.268904 -4.4358263 -0.77357465
2.2407553 -4.4479017 -0.77325279
2.2055247 -4.445653 -0.77035636
2.1795049 -4.4617624 -0.7708391
2.1460974 -4.4625998 -0.76858628
2.1300786 -4.4997687 -0.77293098
0 -0 -0
0 -0 -0
0 -0 -0
2.017406 -4.54708 -0.77228731
2.0017061 -4.5874143 -0.77727568
1.9419926 -4.5261455 -0.76424158
1.9226247 -4.5579815 -0.76778167
1.8870598 -4.5514593 -0.76456338
0 -0 -0
0 -0 -0
0 -0 -0
1.7705261 -4.585351 -0.76263243
1.7371086 -4.5822854 -0.76021868
1.7454512 -4.690906 -0.77727568
1.6607699 -4.5485601 -0.75072473
0 -0 -0
0 -0 -0
1.370067 -3.9783425 -0.64725649
1.3459463 -3.9876094 -0.64741743
1.3230034 -4.0004778 -0.64822197
0 -0 -0
1.2729164 -4.0135899 -0.64773923
0 -0 -0
0 -0 -0
0 -0 -0
0 -0 -0
0 -0 -0
1.3204664 -4.7653465 -0.76745987
1.2917175 -4.7752643 -0.76778167
1.2611331 -4.7783289 -0.76697713
1.2283449 -4.7725959 -0.76472431
1.2009594 -4.7877011 -0.76601166
1.1776526 -4.8199077 -0.77019542
1.1478276 -4.8260827 -0.77003449
1.1155231 -4.821496 -0.76810354
1.0906842 -4.8494339 -0.77164364
1.0573256 -4.8396435 -0.76890808
1.0288391 -4.8518329 -0.76987356
0.99407732 -4.8338861 -0.76585072
0.96922219 -4.8640928 -0.76987356
0.9384234 -4.8651028 -0.76906902
0.9123562 -4.8911438 -0.77244824
0.88232756 -4.8966498 -0.77244824
0.85970771 -4.9447556 -0.7795285
0.83049321 -4.9567513 -0.78065485
0.78434438 -4.8643169 -0.76456338
0.76627707 -4.9451127 -0.77711475
0.72357607 -4.8667421 -0.76343697
0.70344681 -4.9394875 -0.774701
0.66086805 -4.8537407 -0.75989687
0.64354211 -4.95362 -0.77566653
0.61228663 -4.9506192 -0.77454013
0.58201385 -4.9552631 -0.774701
0.54526484 -4.9018483 -0.76536798
0.52126449 -4.9630136 -0.77486193
0.49274516 -4.9857621 -0.77808022
0.46013921 -4.9670711 -0.77454013
0.42327166 -4.8960538 -0.7624715
0.39638415 -4.937911 -0.76890808
0.36622426 -4.9422188 -0.76922995
0.33441907 -4.9227095 -0.76568979
0.30542618 -4.9443703 -0.76890808
0.27486283 -4.9422097 -0.76826441
0.24463049 -4.9457746 -0.76858628
0.21278162 -4.9126711 -0.76295424
0.18278098 -4.9178295 -0.76359791
0.15297051 -4.9306965 -0.76552886
0.12234399 -4.9167423 -0.76311517
0.092043094 -4.9104929 -0.76198876
0.062073912 -4.9237947 -0.76408064
0.031731606 -4.9043441 -0.76086235
0.0016430218 -4.9153028 -0.76263243
-0.028618384 -4.9329858 -0.76552886
-0.058534998 -4.90311 -0.76070142
-0.088441238 -4.8927908 -0.75909227
-0.11905649 -4.9168229 -0.76311517
-0.14799879 -4.8755527 -0.75651765
-0.17776816 -4.8706074 -0.75587398
-0.2084897 -4.8891463 -0.75909227
-0.23810086 -4.879889 -0.75780499
-0.26609239 -4.8428583 -0.75201201
-0.29850769 -4.8854656 -0.7592532
-0.32847872 -4.8835421 -0.7592532
-0.35785982 -4.87356 -0.75796586
-0.38681784 -4.8594661 -0.75603491
-0.41730186 -4.8648682 -0.75732225
-0.44073269 -4.7924352 -0.74589729
-0.47350186 -4.8240199 -0.75152928
-0.50401384 -4.8298583 -0.75297755
-0.53754145 -4.8619909 -0.75877047
-0.56667757 -4.8527193 -0.75780499
-0.59620178 -4.8471918 -0.75748312
-0.62580597 -4.8424635 -0.75732225
-0.6568312 -4.8483129 -0.7589314
-0.68296856 -4.8187838 -0.75474757
-0.71223438 -4.8125496 -0.75442576
-0.74340463 -4.8188186 -0.75619584
-0.76717216 -4.77811 -0.75024199
-0.80232066 -4.8083596 -0.75603491
-0.83517569 -4.8227963 -0.7592532
-0.86213768 -4.803009 -0.75683945
-0.89213288 -4.80054 -0.75732225
-0.92380613 -4.8066063 -0.7592532
-0.95020717 -4.785358 -0.75667858
-0.97836316 -4.7736363 -0.75571311
-1.0086553 -4.7723718 -0.75651765
-1.0364496 -4.7593422 -0.75539124
-1.0585098 -4.7211113 -0.75008106
-1.0887886 -4.7202983 -0.75104654
-1.1168207 -4.7096872 -0.75040287
-1.1412606 -4.684526 -0.74734551
-1.1750106 -4.6975427 -0.75072473
-1.1984156 -4.6692123 -0.74718457
-1.2338239 -4.687542 -0.75152928
-1.2592219 -4.6674953 -0.74943739
-1.286786 -4.6558757 -0.74879372
-1.3185538 -4.6592889 -0.75072473
-1.3487648 -4.6567988 -0.75169021
-1.377313 -4.6484351 -0.75169021
-1.4012315 -4.624783 -0.74911559
-1.4339608 -4.6302404 -0.75152928
-1.4563909 -4.6025348 -0.74831098
-1.4937075 -4.6216865 -0.75313842
-1.5245112 -4.6199327 -0.75442576
-1.5499953 -4.6020732 -0.75297755
-1.5772419 -4.5896754 -0.75249481
-1.6053739 -4.5799112 -0.75249481
-1.6404198 -4.5894923 -0.75587398
-1.6594287 -4.5543022 -0.75152928
-1.6973035 -4.5708671 -0.75619584
-1.7225245 -4.5529814 -0.7549085
-1.7624927 -4.5736399 -0.76037961
-1.7959298 -4.5765209 -0.7627933
-1.8001807 -4.5058389 -0.75233388
-1.8515838 -4.5532231 -0.76263243
-1.8851469 -4.5554566 -0.76504612
-1.9145947 -4.5474424 -0.76568979
-1.9525617 -4.5591989 -0.76987356
-1.9875925 -4.5634203 -0.77277005
-1.995976 -4.506918 -0.76488525
-1.9972597 -4.4360867 -0.75442576
-2.0236201 -4.4219532 -0.75410396
-2.0490501 -4.4058733 -0.75346029
-2.0836346 -4.4092808 -0.75635672
-2.0965564 -4.3670502 -0.75104654
-2.1371539 -4.3824921 -0.75619584
-2.1832747 -4.4082131 -0.7632761
-2.1850088 -4.3444729 -0.75410396
-2.1977124 -4.3037343 -0.74911559
-2.2399743 -4.3208375 -0.75474757
-2.2779329 -4.3288484 -0.75877047
-2.2760928 -4.261682 -0.74895465
-2.3003182 -4.2441649 -0.74831098
-2.3234634 -4.2247815 -0.74734551
-2.3604019 -4.2302694 -0.75104654
-2.4023557 -4.2440519 -0.75635672
-2.4091878 -4.1958494 -0.75008106
-2.4443233 -4.1971931 -0.75313842
-2.4655142 -4.1744676 -0.75169021
-2.4920959 -4.1609545 -0.75201201
-2.5175803 -4.1455851 -0.75201201
-2.5398653 -4.1250162 -0.75104654
-2.5661731 -4.1110291 -0.7513684
-2.5813236 -4.0793586 -0.74831098
-2.59565 -4.0468268 -0.74509269
-2.6177425 -4.0266867 -0.74428815
-2.6228545 -3.9808772 -0.73849517
-2.6592872 -3.9827676 -0.74203533
-2.6626604 -3.9353111 -0.73592055
-2.6761544 -3.9034319 -0.73286319
-2.697803 -3.8836954 -0.73221952
-2.7005672 -3.8372035 -0.72626567
-2.717186 -3.8109171 -0.72433472
-2.7324286 -3.7829711 -0.7220819
-2.7433517 -3.7494059 -0.71870267
-2.758667 -3.7221937 -0.71661079
-2.7630877 -3.6807265 -0.71162242
-2.7802446 -3.6566317 -0.7101742
-2.7935975 -3.627773 -0.70776045
-2.8188388 -3.6144552 -0.70856506
-2.8036525 -3.5498414 -0.69874924
-2.83586 -3.5456755 -0.7014848
-2.8457613 -3.5136349 -0.69842738
-2.8591316 -3.486186 -0.69633549
-2.8552492 -3.4382033 -0.68989891
-2.8712108 -3.4145756 -0.68861157
-2.8786736 -3.3811114 -0.6852324
-2.9128969 -3.3790841 -0.68861157
-2.9030762 -3.3261962 -0.68104857
-2.929312 -3.3149776 -0.68249685
-2.9357791 -3.2814932 -0.67911762
-2.9465835 -3.2531757 -0.6768648
-2.9651551 -3.2335796 -0.676543
-2.9795687 -3.209538 -0.67525566
-2.9910958 -3.1825643 -0.6733247
-3.0003633 -3.153425 -0.67091095
-3.0134943 -3.1285574 -0.66946274
-3.0078306 -3.0845673 -0.66366982
-3.0017416 -3.0407655 -0.65787685
-3.0056932 -3.007628 -0.65449762
-2.9995255 -2.9648428 -0.64886564
-3.0169549 -2.9456925 -0.64870471
-3.0108211 -2.9038279 -0.6432336
-3.0121479 -2.8696396 -0.63953257
-3.0282617 -2.8497505 -0.63921076
-3.0319567 -2.8183472 -0.63615334
-3.045558 -2.7963526 -0.6353488
-3.0553484 -2.7709816 -0.63373965
-3.0700881 -2.7502062 -0.63325691
-3.0765579 -2.7221596 -0.6310041
-3.0657079 -2.6791978 -0.62505025
-3.0977781 -2.6738811 -0.62842947
-3.0983551 -2.6413753 -0.62505025
-3.1099744 -2.6184998 -0.62408477
-3.0956297 -2.5741236 -0.61764818
-3.1151795 -2.558213 -0.61845273
-3.125452 -2.5346982 -0.61732632
-3.1447976 -2.5185583 -0.61813092
-3.1470325 -2.4888055 -0.61539537
-3.1692448 -2.4749167 -0.61684358
-3.1843708 -2.4554241 -0.61684358
-3.1781762 -2.4196944 -0.61249888
-3.1929634 -2.4001479 -0.61249888
-3.1925728 -2.369334 -0.60944152
-3.2006819 -2.3450332 -0.60815418
-3.2102127 -2.3218789 -0.6071887
-3.2139575 -2.2946813 -0.60509682
-3.2239435 -2.2720745 -0.60429221
-3.2305324 -2.2471766 -0.602844
-3.2353103 -2.2211666 -0.60107392
-3.2398908 -2.1951826 -0.59930384
-3.2393525 -2.1659343 -0.59656829
-3.2591715 -2.1503663 -0.59785563
-3.2524545 -2.1174023 -0.59399366
-3.2612336 -2.0947385 -0.59318912
-3.281528 -2.0794439 -0.59463733
-3.2783253 -2.0493279 -0.59157997
-3.2849576 -2.0255473 -0.59045357
-3.2855194 -1.9981718 -0.58820075
-3.2884083 -1.9723893 -0.58643067
-3.2902555 -1.9461443 -0.58449972
-3.29702 -1.9229351 -0.58353424
-3.30619 -1.9011925 -0.58305144
-3.2894614 -1.8648049 -0.57774127
-3.2956724 -1.8416967 -0.57677579
-3.3207421 -1.8290603 -0.57935041
-3.3301678 -1.8077083 -0.57902861
-3.3229222 -1.7774628 -0.57564938
-3.3451159 -1.7630237 -0.57774127
-3.3523672 -1.7406458 -0.57709759
-3.3480473 -1.7124014 -0.57436204
-3.3558471 -1.6904936 -0.5738793
-3.3555472 -1.6646063 -0.57194835
-3.3488491 -1.6357536 -0.56889099
-3.361491 -1.6164582 -0.56937373
-3.3713462 -1.5958019 -0.56937373
-3.3703392 -1.5700833 -0.56744272
-3.3915725 -1.5547216 -0.5695346
-3.3848543 -1.5265765 -0.56663817
-0.28180838 -0.12462532 -0.011482006
-0.26809466 -0.11657716 -0.0089073693
-0.26427004 -0.1129838 -0.0081027951
-0.24040598 -0.10100129 -0.0037580945
-0.23919781 -0.098768137 -0.0034362648
-0.25259513 -0.10251322 -0.0056890724
-0.2532194 -0.10096139 -0.0056890724
-0.27587783 -0.10807527 -0.0095510278
-0.26548752 -0.10211343 -0.0076200501
-0 -0 -0
-0 -0 -0
-0 -0 -0
-0 -0 -0
-0 -0 -0
-0 -0 -0
-0 -0 -0
-0 -0 -0
-0 -0 -0
-0 -0 -0
-0 -0 -0
-0 -0 -0
-0 -0 -0
-0 -0 -0
-0 -0 -0
-0 -0 -0
-0 -0 -0
-0 -0 -0
-0 -0 -0
-0 -0 -0
-0 -0 -0
-0 -0 -0
-0 -0 -0
-0 -0 -0
-0 -0 -0
-0 -0 -0
-0 -0 -0
-0 -0 -0
-0 -0 -0
-0 -0 -0
-0 -0 -0
-0 -0 -0
-0 -0 -0
-0 -0 -0
-0 -0 -0
-0 -0 -0
-0 -0 -0
-0 -0 -0
-0 -0 -0
-0 -0 -0
-0 -0 -0
-0 -0 -0
-0 -0 -0
-0 -0 -0
-0 -0 -0
-0 -0 -0
-0 -0 -0
-0 -0 -0
-0 -0 -0
-0 -0 -0
-0 -0 -0
-0 -0 -0
-0 -0 -0
-0 -0 -0
-0 -0 -0
-0 0 -0
-0.27518287 0.020927532 -0.0095151551
-0.274068 0.022530759 -0.0093421945
-0 0 -0
-0.27083042 0.025601588 -0.0088233128
-0 0 -0
-0.26951697 0.028814243 -0.0086503522
-0 0 -0
-0.26621068 0.031756677 -0.0081314705
-0 0 -0
-0.26970458 0.035552755 -0.0088233128
-0 0 -0
-0 0 -0
-0 0 -0
-0.2755574 0.043258704 -0.010034037
-0 0 -0
-0 0 -0
-0.27083722 0.0476247 -0.0093421945
-0.27053988 0.049285632 -0.0093421945
-0 0 -0
-0 0 -0
-0.27634001 0.055646054 -0.010552919
-0.27792037 0.057749294 -0.010898841
-0.27756077 0.059453495 -0.010898841
-0.27719074 0.061155453 -0.010898841
-0 0 -0
-0.27354485 0.063868612 -0.010379958
-0 0 -0
-0.26700854 0.065782584 -0.0093421945
-0 0 -0
-0 0 -0
-0.26575246 0.070686191 -0.0093421945
-0.26721203 0.072841577 -0.0096881157
-0.26770759 0.074748658 -0.0098610763
-0 0 -0
-0.26677015 0.07802821 -0.0098610763
-0.26534393 0.079377353 -0.0096881157
-0.26297063 0.080419905 -0.0093421945
-0.26247221 0.08203195 -0.0093421945
-0 0 -0
-0.25583518 0.083390906 -0.0083044311
-0.25718507 0.085589178 -0.0086503522
-0.2575863 0.087486379 -0.0088233128
-0.25704464 0.089065246 -0.0088233128
-0.25927499 0.091637239 -0.0093421945
-0 0 -0
-0.26274636 0.096529588 -0.010206997
-0.26307008 0.098489121 -0.010379958
-0.26154202 0.099746622 -0.010206997
-0.26367489 0.10243087 -0.01072588
-0 0 -0
-0.26513436 0.10677384 -0.011244762
-0.26538405 0.10877592 -0.011417722
-0.26471162 0.11040223 -0.011417722
-0.26131386 0.11085923 -0.010898841
-0.25972602 0.1120666 -0.01072588
-0 0 -0
-0.25653559 0.11443543 -0.010379958
-0.25851455 0.1172388 -0.010898841
-0.26046863 0.12007073 -0.011417722
-0.26239762 0.122931 -0.011936604
-0.26518881 0.1262463 -0.012628446
-0.26794907 0.12960044 -0.013320289
-0.26803112 0.13167985 -0.013493249
-0.26721811 0.13332199 -0.013493249
-0.26902562 0.13630475 -0.014012131
-0.27080649 0.13931465 -0.014531013
-0.2664614 0.13913657 -0.01383917
-0.26647112 0.14123353 -0.014012131
-0.26386833 0.14192604 -0.01366621
-0.26212981 0.1430672 -0.013493249
-0.25866777 0.14323135 -0.012974367
-0.25264329 0.14190108 -0.011936604
-0.25091404 0.14295755 -0.011763643
-0.25088292 0.14499071 -0.011936604
-0.25083625 0.14702885 -0.012109565
-0.25330785 0.15059185 -0.012801407
-0.25322053 0.15265512 -0.012974367
-0.25479409 0.15575697 -0.013493249
-0.25633904 0.15888381 -0.014012131
-0.25619122 0.16098092 -0.014185091
-0.25685599 0.16361453 -0.014531013
-0.25832343 0.16679972 -0.015049895
-0.2572951 0.16838163 -0.015049895
-0.25953203 0.1721472 -0.015741738
-0.25847086 0.17373642 -0.015741738
-0.25739998 0.17531909 -0.015741738
-0.25551087 0.1763327 -0.015568777
