# .PCD v0.7 - Point Cloud Data file format
VERSION 0.7
FIELDS x y z
SIZE 4 4 4
TYPE F F F
COUNT 1 1 1
WIDTH 1588
HEIGHT 1
VIEWPOINT 0 0 0 1 0 0 0
POINTS 1588
DATA ascii
3.387439 -1.0270764 -0.75733209
3.3810732 -1.047842 -0.75733209
3.3624907 -1.0647357 -0.75447631
3.3531098 -1.0844458 -0.75381732
0 -0 -0
3.3340034 -1.1236408 -0.75249922
3.328891 -1.1447117 -0.75293857
3.3135202 -1.1622071 -0.75096148
3.307245 -1.1828455 -0.75118119
3.3072567 -1.2057918 -0.75293857
3.2851658 -1.2206206 -0.74942374
3.2885616 -1.2449034 -0.75205988
3.2726698 -1.2618966 -0.75008279
3.2757609 -1.2862359 -0.75271893
3.2696185 -1.3070363 -0.75315827
3.2588267 -1.3259697 -0.75249922
3.2515306 -1.3463141 -0.75271893
3.2423096 -1.3658607 -0.75249922
3.2284882 -1.3834221 -0.75118119
3.2172563 -1.4020357 -0.75052214
3.2112684 -1.4229366 -0.75118119
3.2015877 -1.4422127 -0.75096148
3.1953387 -1.4630494 -0.75162053
3.187186 -1.48304 -0.75184023
3.1744988 -1.5008992 -0.75096148
3.1713846 -1.523308 -0.75249922
3.161978 -1.5427387 -0.75249922
3.1550744 -1.5634115 -0.75315827
3.1445508 -1.5823025 -0.75293857
3.1304398 -1.5993465 -0.75184023
3.1214333 -1.6189739 -0.75205988
3.1053989 -1.6349128 -0.75052214
3.0935884 -1.6530163 -0.75008279
3.0902469 -1.6756897 -0.75184023
3.075634 -1.6922667 -0.75074184
3.0694509 -1.7134856 -0.75184023
3.0665181 -1.7366164 -0.75381732
3.0321231 -1.7417852 -0.74766636
3.0340202 -1.7677282 -0.75096148
3.0239563 -1.7868079 -0.75118119
3.0028956 -1.7993084 -0.74854505
3.0059695 -1.8263161 -0.75227958
2.9971983 -1.8462619 -0.75293857
2.9907773 -1.8677197 -0.75425667
2.9825573 -1.888124 -0.75513536
2.9709158 -1.9063891 -0.75513536
2.9567096 -1.9229859 -0.75447631
2.952184 -1.9459263 -0.75645339
2.9409995 -1.9645461 -0.7566731
2.9280822 -1.9820076 -0.75645339
2.9190829 -2.0021448 -0.75733209
2.9059422 -2.0194614 -0.75711244
2.8934963 -2.0372539 -0.75711244
2.8888819 -2.0606375 -0.75930917
2.8706498 -2.0743232 -0.75777143
2.8633771 -2.0959334 -0.75930917
2.8543801 -2.1163697 -0.76040757
2.8390009 -2.1320858 -0.75974852
2.8258653 -2.1494656 -0.75974852
2.8110781 -2.1655729 -0.75930917
2.7892787 -2.1761768 -0.75689274
2.7766387 -2.1938555 -0.75711244
2.7532251 -2.2029247 -0.75425667
2.7320783 -2.2136326 -0.75205988
2.7131662 -2.2260213 -0.75052214
2.696456 -2.2401323 -0.74964345
2.6834064 -2.2572637 -0.74986315
2.6739604 -2.2774832 -0.75118119
2.6562426 -2.2906606 -0.75008279
2.6524227 -2.3159022 -0.75315827
2.6462007 -2.3392437 -0.7555747
2.6368845 -2.3599925 -0.75711244
2.6245224 -2.3780935 -0.75777143
2.6091626 -2.3934927 -0.75755179
2.5915687 -2.4068007 -0.7566731
2.5717783 -2.4179776 -0.75513536
2.5561872 -2.4330394 -0.75491565
2.5447216 -2.4520638 -0.75601405
2.5289299 -2.4669504 -0.75579435
2.5095818 -2.4783068 -0.75447631
2.5039837 -2.5033183 -0.75755179
2.4878912 -2.517941 -0.75733209
2.466264 -2.5268736 -0.755355
2.4534204 -2.544769 -0.75623375
2.4377599 -2.5597751 -0.75623375
2.4213393 -2.5739739 -0.75601405
2.4074914 -2.5909271 -0.7566731
2.3882515 -2.6020558 -0.7555747
2.3696206 -2.6137688 -0.75469601
2.3528876 -2.6275322 -0.75447631
2.3341367 -2.6389961 -0.75359762
2.3134091 -2.648124 -0.75205988
2.2971168 -2.6622689 -0.75205988
2.2794731 -2.6748283 -0.75162053
2.2592502 -2.6842849 -0.75030249
2.2433605 -2.6988473 -0.75052214
2.2292335 -2.7155783 -0.75140083
2.2119148 -2.7284477 -0.75118119
2.2006168 -2.7488244 -0.75315827
2.1837089 -2.7622755 -0.75315827
2.1667187 -2.7756224 -0.75315827
2.149647 -2.7888649 -0.75315827
2.1342661 -2.8043318 -0.75381732
2.1217053 -2.8236156 -0.7555747
2.1055019 -2.8381484 -0.75601405
2.0868955 -2.8494396 -0.7555747
2.0767996 -2.8724709 -0.75843048
2.0625341 -2.8899255 -0.75974852
2.0425167 -2.8993356 -0.75886983
2.0241318 -2.9110126 -0.75865018
2.0018179 -2.9169412 -0.75689274
1.9822417 -2.9267454 -0.75623375
1.9664136 -2.9420981 -0.75711244
1.9461769 -2.9508502 -0.75623375
1.928566 -2.9635539 -0.75645339
1.9124529 -2.978616 -0.75733209
1.8946623 -2.9911189 -0.75755179
1.8798903 -3.0084805 -0.75908953
1.8598604 -3.0174668 -0.75843048
1.8443496 -3.0338244 -0.75974852
1.8236941 -3.0417366 -0.75886983
1.8109509 -3.0629485 -0.76150596
1.7872121 -3.065573 -0.75930917
1.775171 -3.088325 -0.76238465
1.7629176 -3.1110439 -0.76546013
1.7428446 -3.1200988 -0.76502079
1.7231969 -3.1298792 -0.76480108
1.7058198 -3.1438241 -0.76567978
1.6773033 -3.1370223 -0.76128626
1.6589322 -3.1489816 -0.7617256
1.6270038 -3.1348519 -0.7555747
1.6214958 -3.1717083 -0.76238465
1.5809581 -3.1397665 -0.75184023
1.5543003 -3.134547 -0.7481057
1.5405984 -3.1554236 -0.75096148
1.5228974 -3.1683347 -0.75184023
1.5130178 -3.1979053 -0.75689274
1.497071 -3.2150896 -0.75886983
1.4817823 -3.2339723 -0.76128626
1.4635136 -3.2465615 -0.76216495
1.4388236 -3.244777 -0.75952888
1.4126519 -3.2392344 -0.75601405
1.3939023 -3.2505314 -0.7566731
1.3724165 -3.2554269 -0.75579435
1.3546547 -3.2691948 -0.75711244
0 -0 -0
0 -0 -0
1.29425 -3.2935758 -0.75711244
1.2691036 -3.2887113 -0.75403696
1.2457926 -3.2882247 -0.75205988
1.2286506 -3.3040376 -0.75403696
1.2036767 -3.2986822 -0.75096148
0 -0 -0
0 -0 -0
0 -0 -0
0 -0 -0
1.1153806 -3.3748138 -0.76062727
1.0943521 -3.3806658 -0.76040757
1.0712326 -3.3798764 -0.75865018
1.0484527 -3.3798625 -0.75711244
1.0319396 -3.4002364 -0.76040757
0 -0 -0
0 -0 -0
0 -0 -0
0.93726236 -3.3850455 -0.75118119
0.91571176 -3.387907 -0.75052214
0.89614898 -3.3981791 -0.75162053
0.87697989 -3.410228 -0.75315827
0.8584072 -3.4250088 -0.755355
0.83899289 -3.4368463 -0.75689274
0.8174386 -3.4400311 -0.75645339
0.79587674 -3.4430807 -0.75601405
0.77259982 -3.4383802 -0.75381732
0.7506569 -3.4392433 -0.75293857
0.7275213 -3.4342399 -0.75074184
0.70761156 -3.4443734 -0.75205988
0.68494284 -3.4409955 -0.75030249
0.66381639 -3.4451334 -0.75030249
0.6432001 -3.452019 -0.75096148
0.62252426 -3.4587812 -0.75162053
0.60195625 -3.4663808 -0.75249922
0.5806756 -3.4700091 -0.75249922
0.56138539 -3.4860284 -0.755355
0.53938943 -3.4855509 -0.75447631
0.51842123 -3.4916899 -0.75513536
0.49780905 -3.5006006 -0.75645339
0.47330502 -3.4813547 -0.75140083
0.45368728 -3.4977384 -0.75447631
0.43150163 -3.4946468 -0.75315827
0.41084376 -3.5040114 -0.75469601
0.38997987 -3.5122843 -0.75601405
0.36862433 -3.5165515 -0.75645339
0.34789914 -3.5274854 -0.75843048
0.32615885 -3.5285821 -0.75821084
0.30466875 -3.5324609 -0.75865018
0.28399634 -3.5469062 -0.76150596
0.26165497 -3.5407984 -0.75974852
0.23992412 -3.5423372 -0.75974852
0.2181246 -3.542769 -0.75952888
0.19547033 -3.5274811 -0.75579435
0.17387012 -3.5295885 -0.75601405
0.15195951 -3.5247407 -0.75469601
0.13004351 -3.5178075 -0.75293857
0.10875354 -3.5282903 -0.75513536
0.087126061 -3.5298665 -0.755355
0.065536626 -3.5342362 -0.75623375
0.043932188 -3.5414004 -0.75777143
0 -0 -0
0.00047217472 -3.5328927 -0.75579435
-0.021192901 -3.5308781 -0.755355
-0.042881887 -3.5326324 -0.75579435
-0.064629503 -3.5362043 -0.7566731
-0.086229496 -3.5318403 -0.75579435
-0.10826024 -3.5429459 -0.75843048
-0.12985291 -3.5383153 -0.75755179
-0.15151908 -3.5364773 -0.75733209
-0.17345594 -3.5403531 -0.75843048
-0.19447339 -3.5265591 -0.7555747
-0.21586822 -3.5214045 -0.75469601
-0.23780103 -3.5248804 -0.75579435
-0.25935286 -3.522382 -0.7555747
-0.28111675 -3.5226693 -0.75601405
-0.30230668 -3.5160182 -0.75491565
-0.32396474 -3.5150685 -0.75513536
-0.34581414 -3.5159271 -0.75579435
-0.36738095 -3.5137391 -0.75579435
-0.38764128 -3.4997835 -0.75315827
-0.41058594 -3.5099351 -0.75601405
-0.43103826 -3.4986358 -0.75403696
-0.45274848 -3.49786 -0.75447631
-0.47472835 -3.4988828 -0.755355
-0.49522626 -3.4891431 -0.75381732
-0.51619595 -3.4831438 -0.75315827
-0.53800613 -3.4828033 -0.75381732
-0.55750412 -3.4678788 -0.75118119
-0.57796675 -3.4595819 -0.75008279
-0.60001832 -3.4607761 -0.75118119
-0.62072331 -3.454149 -0.75052214
-0.64083338 -3.444521 -0.7492041
-0.66472608 -3.4548931 -0.75249922
-0.68648392 -3.4536197 -0.75315827
-0.70687646 -3.4455202 -0.75227958
-0.72982466 -3.4497075 -0.75425667
-0.74972939 -3.4394455 -0.75293857
-0.77210289 -3.4404917 -0.75425667
-0.7927593 -3.4337883 -0.75381732
-0.81291127 -3.4250629 -0.75293857
-0.83553171 -3.4266446 -0.75447631
-0.85725319 -3.4242921 -0.75513536
-0.87970632 -3.4246366 -0.75645339
-0.90219587 -3.4248343 -0.75777143
-0.92166561 -3.4135833 -0.75645339
-0.93946904 -3.3965816 -0.75381732
-0.96135694 -3.3945076 -0.75469601
-0.98080766 -3.3838603 -0.75359762
-1.0001639 -3.3731024 -0.75249922
-1.0233926 -3.3753035 -0.75447631
-1.0400363 -3.355916 -0.75140083
-1.0611979 -3.3513312 -0.75184023
-1.0802387 -3.340116 -0.75074184
-1.0985695 -3.326941 -0.7492041
-1.1189625 -3.3201377 -0.7492041
-1.1297872 -3.2855361 -0.74261379
-1.1534808 -3.2886672 -0.74503022
-1.1710072 -3.2741799 -0.74327284
-1.192413 -3.2705989 -0.74415153
-1.2117784 -3.2613919 -0.74371219
-1.2407551 -3.2776144 -0.74942374
-1.2633017 -3.2763104 -0.75096148
-1.2873065 -3.2784848 -0.75337791
-1.3092108 -3.275053 -0.75447631
-1.3211861 -3.247081 -0.74964345
-1.3451935 -3.248827 -0.75205988
-1.3711672 -3.2548947 -0.7555747
-1.386114 -3.2347643 -0.75271893
-1.4063261 -3.2270927 -0.75293857
-1.4221455 -3.2094848 -0.75074184
-1.4442177 -3.2060344 -0.75205988
-1.466301 -3.2024338 -0.75337791
-1.489218 -3.2004514 -0.75513536
-1.510914 -3.1956627 -0.75623375
-1.5338752 -3.1933658 -0.75799114
-1.5568651 -3.190907 -0.75974852
-1.5803158 -3.1891601 -0.7617256
-1.6002932 -3.1802747 -0.76194531
-1.6206652 -3.172133 -0.76238465
-1.6409974 -3.1638608 -0.762824
-1.6594701 -3.1520061 -0.76238465
-1.6801593 -3.1443453 -0.7630437
-1.6966292 -3.1288321 -0.7617256
-1.7167364 -3.1200721 -0.76216495
-1.7329937 -3.1043696 -0.76084691
-1.7548953 -3.0987701 -0.76216495
-1.7743622 -3.0887897 -0.76238465
-1.7947555 -3.0803726 -0.7630437
-1.8180915 -3.07686 -0.76502079
-1.83794 -3.0673196 -0.76546013
-1.863315 -3.0668211 -0.76831591
-1.8826095 -3.0561609 -0.76853555
-1.9023603 -3.0462065 -0.76897496
-1.9194494 -3.0320041 -0.76831591
-1.944343 -3.0300202 -0.77095199
-1.9586409 -3.0114918 -0.7691946
-1.9776194 -3.0002315 -0.76941431
-1.9905696 -2.9799299 -0.76721752
-2.0153823 -2.9773524 -0.76985365
-2.0303006 -2.9601042 -0.76853555
-2.0495391 -2.9491928 -0.76897496
-2.0675964 -2.9365616 -0.76897496
-2.0867095 -2.9254076 -0.76941431
-2.1017621 -2.908596 -0.76831591
-2.1195693 -2.8956451 -0.76831591
-2.130321 -2.8731835 -0.76567978
-2.1443939 -2.8553786 -0.76436174
-2.1565559 -2.8351808 -0.76238465
-2.1709335 -2.8180318 -0.76128626
-2.1887841 -2.8054271 -0.76150596
-2.2005112 -2.7850566 -0.75952888
-2.2212169 -2.7760715 -0.76084691
-2.2363656 -2.7601166 -0.76018786
-2.2532592 -2.7463427 -0.76018786
-2.2713153 -2.7339656 -0.76062727
-2.2823937 -2.7132604 -0.75865018
-2.2939365 -2.693265 -0.75689274
-2.3046825 -2.6724916 -0.75491565
-2.3152604 -2.6516881 -0.75293857
-2.3250234 -2.6301248 -0.75074184
-2.3372128 -2.611449 -0.74942374
-2.3505712 -2.5941679 -0.74854505
-2.3644652 -2.5775404 -0.74788606
-2.3802361 -2.5629838 -0.74788606
-2.3939121 -2.5461991 -0.74722701
-2.4067988 -2.5286365 -0.74634832
-2.4168518 -2.5082028 -0.74459088
-2.4281075 -2.4891374 -0.74327284
-2.435106 -2.4658649 -0.74063671
-2.4474306 -2.4481182 -0.73975801
-2.4547698 -2.4255149 -0.73734158
-2.4605274 -2.4015517 -0.73448581
-2.471704 -2.3830247 -0.73338741
-2.4777992 -2.3597431 -0.73075134
-2.4858344 -2.3384812 -0.72877425
-2.4951322 -2.3185377 -0.72723651
-2.5035598 -2.2979085 -0.72547907
-2.5139976 -2.2792287 -0.72438073
-2.5264814 -2.262459 -0.72394139
-2.5373921 -2.2443299 -0.72306263
-2.5489106 -2.2267938 -0.72240365
-2.5617871 -2.210475 -0.72218394
-2.5708456 -2.1909194 -0.72086591
-2.5827472 -2.1738477 -0.72042656
-2.5915344 -2.1542192 -0.71910852
-2.6001782 -2.1345649 -0.71779042
-2.6101947 -2.1161139 -0.71691173
-2.6139882 -2.0927448 -0.7142756
-2.6221869 -2.0730376 -0.71295756
-2.6287038 -2.0521088 -0.71120018
-2.6358356 -2.0317736 -0.70966244
-2.6435938 -2.0120187 -0.7083444
-2.6473081 -1.9893163 -0.70592791
-2.6563296 -1.9707114 -0.70504922
-2.6620736 -1.9497659 -0.70329183
-2.6684518 -1.9293957 -0.70175409
-2.6730917 -1.9078878 -0.69977701
-2.6799617 -1.8880806 -0.69845897
-2.6866891 -1.868261 -0.69714087
-2.6916656 -1.8473266 -0.69538349
-2.6989102 -1.828042 -0.69428509
-2.7060199 -1.8087382 -0.69318676
-2.7129943 -1.7894161 -0.69208837
-2.7190158 -1.7695447 -0.69077027
-2.7265379 -1.7507206 -0.68989158
-2.7372286 -1.7339579 -0.68989158
-2.7453341 -1.7155799 -0.68923259
-2.7566397 -1.6992141 -0.68945223
-2.7536733 -1.6741636 -0.6859374
-2.7613835 -1.6557317 -0.68527842
-2.7656112 -1.6352834 -0.68374068
-2.775593 -1.6182832 -0.68374068
-2.773627 -1.5944195 -0.68066519
-2.7791133 -1.5749673 -0.6795668
-2.7870212 -1.5569344 -0.67912745
-2.7896836 -1.5360423 -0.67737007
-2.7956257 -1.5170363 -0.67649138
-2.7979977 -1.4961765 -0.67473394
-2.8079886 -1.4794345 -0.67495364
-2.8092189 -1.4581351 -0.67297655
-2.821588 -1.4426458 -0.67385525
-2.828644 -1.4244287 -0.6734159
-2.8355825 -1.4061795 -0.67297655
-2.8432806 -1.3883265 -0.67275685
-2.8464692 -1.3683202 -0.67143881
-2.8530474 -1.349995 -0.67099947
-2.8524318 -1.3283485 -0.66880268
-2.8552065 -1.3083848 -0.66748464
-2.8596227 -1.2892383 -0.66660595
-2.8585598 -1.2677162 -0.66440916
-2.8653903 -1.2497628 -0.66418952
-2.8649342 -1.2286998 -0.66221243
-2.8706212 -1.2103404 -0.66177309
-2.8779936 -1.1927038 -0.66177309
-2.8879688 -1.1761252 -0.66243207
-2.8969429 -1.159107 -0.66287148
-2.910357 -1.1438054 -0.66440916
-2.9164102 -1.1255753 -0.66418952
-2.8940647 -1.0966086 -0.65715986
-0.2687813 -0.10109245 -0.024932528
-0.27031311 -0.099775448 -0.025152205
-0.27826911 -0.1007428 -0.026909612
-0.27980262 -0.099356316 -0.027129287
-0.27763927 -0.096686058 -0.026470259
-0.2782273 -0.094980679 -0.026470259
-0.27880487 -0.093271717 -0.026470259
-0.27844366 -0.0912591 -0.026250584
-0.28085852 -0.09013778 -0.026689935
-0.2795426 -0.087835297 -0.026250584
-0.2819435 -0.086684421 -0.026689935
-0.28434077 -0.085507371 -0.027129287
-0.282049 -0.082946487 -0.026470259
-0.28161398 -0.080948524 -0.026250584
-0.27928451 -0.078439012 -0.025591556
-0.27505124 -0.075452685 -0.024493176
-0.26607499 -0.071279034 -0.022296418
-0.26650733 -0.069645084 -0.022296418
-0.26125136 -0.066587359 -0.020978361
-0 -0 -0
-0.25825194 -0.06247548 -0.020099657
-0 -0 -0
-0 -0 -0
-0.26031137 -0.05791904 -0.020319333
-0 -0 -0
-0 -0 -0
-0.26420394 -0.053688157 -0.020978361
-0 -0 -0
-0 -0 -0
-0 -0 -0
-0 -0 -0
-0 -0 -0
-0 -0 -0
-0 -0 -0
-0 -0 -0
-0 -0 -0
-0 -0 -0
-0 -0 -0
-0 -0 -0
-0 -0 -0
-0 -0 -0
-0 -0 -0
-0.26819408 -0.027533118 -0.020978361
-0 -0 -0
-0.28309166 -0.025492551 -0.0242735
-0.28324273 -0.023755053 -0.0242735
-0.28338316 -0.022016661 -0.0242735
-0 -0 -0
-0.28071076 -0.018358562 -0.023614472
-0 -0 -0
-0.27506846 -0.01462636 -0.022296418
-0 -0 -0
-0 -0 -0
-0.27041548 -0.0094121005 -0.021198036
-0.27534458 -0.007871436 -0.022296418
-0.2763631 -0.0061995708 -0.022516092
-0 -0 -0
-0.28129613 -0.0028366758 -0.023614472
-0.28130826 -0.0011106218 -0.023614472
-0.27740756 0.00059076387 -0.022735769
-0.27642322 0.0022807303 -0.022516092
-0.27542862 0.0039586397 -0.022296418
-0.27539915 0.0056485632 -0.022296418
-0.27730951 0.0073985085 -0.022735769
-0.27628398 0.0090638092 -0.022516092
-0 0 -0
-0.27517757 0.012405495 -0.022296418
-0.27412221 0.014039681 -0.022076741
-0.27110973 0.015541357 -0.021417713
-0 0 -0
-0 -0 -0
-0 -0 -0
-0 -0 -0
-0 -0 -0
-0 -0 -0
-0 0 -0
-0 0 -0
-0 0 -0
-0 0 -0
-0 0 -0
-0 0 -0
-0 0 -0
-0 0 -0
-0 0 -0
-0 0 -0
-0 0 -0
-0 0 -0
-0 0 -0
-0 0 -0
-0 0 -0
-0 0 -0
-0 0 -0
-0 0 -0
-0 0 -0
-0 0 -0
-0 0 -0
-0 0 -0
-0 0 -0
-0 0 -0
-0 0 -0
-0 0 -0
-0 0 -0
-0 0 -0
-0 0 -0
-0 0 -0
-0 0 -0
-0 0 -0
-0 0 -0
-0 0 -0
-0 0 -0
-0 0 -0
-0 0 -0
-0 0 -0
-0 0 -0
-0 0 -0
-0 0 -0
-0 0 -0
-0 0 -0
-0 0 -0
-0 0 -0
-0 0 -0
-0 0 -0
-0 0 -0
-0 0 -0
-0 0 -0
-0 0 -0
-0 0 -0
-0 0 -0
-0 0 -0
-0 0 -0
-0 0 -0
-0 0 -0
-0 0 -0
-0 0 -0
-0 0 -0
-0 0 -0
-0 0 -0
-0 0 -0
-0 0 -0
-0 0 -0
-0 0 -0
-0 0 -0
-0 0 -0
-0 0 -0
-0 0 -0
-0 0 -0
-0 0 -0
-0 0 -0
-0 0 -0
-0 0 -0
-0 0 -0
-0 0 -0
-0 0 -0
-0 0 -0
-0 0 -0
-0 0 -0
-0 0 -0
-0 0 -0
-0 0 -0
-0 0 -0
-0 0 -0
-0 0 -0
-0 0 -0
-0 0 -0
-0 0 -0
-0 0 -0
-0 0 -0
-0 0 -0
-0.25954369 0.16923028 -0.033544946
-0 0 -0
-0 0 -0
-0 0 -0
-0.26975691 0.18545377 -0.037698071
-0.26541758 0.18488473 -0.036775153
-0.26746079 0.18875015 -0.037698071
-0.2853106 0.20394656 -0.043235566
-0.26827931 0.1942973 -0.038620986
-0.2686525 0.19708903 -0.039082445
-0.25336799 0.18830384 -0.03492932
-0.25220782 0.18985493 -0.03492932
-0.26420471 0.20141166 -0.038851716
-0.24985901 0.19293562 -0.03492932
-0.26478207 0.20703249 -0.03977463
-0.28488567 0.22554129 -0.046235047
-0.2880553 0.23093197 -0.047619421
-0.26773107 0.2173834 -0.041851193
-0.2663922 0.21902208 -0.041851193
-0.28749833 0.2393035 -0.048773065
-0.28602457 0.24106306 -0.048773065
-0.27120537 0.23145844 -0.044619944
-0.28525561 0.24646097 -0.049465254
-0.25515029 0.22325124 -0.040466819
-0.27273166 0.24156617 -0.046465773
-0.25239143 0.22636552 -0.040466819
-0.2863324 0.25991994 -0.051772542
-0.27325866 0.25114909 -0.04808088
-0.28383425 0.26407617 -0.052003272
-0.27228302 0.25648278 -0.048773065
-0.26858953 0.25613633 -0.04808088
-0.26701286 0.25777954 -0.04808088
-0.25497741 0.24922258 -0.044619944
-0.28044701 0.27744386 -0.053618375
-0.28011575 0.28053513 -0.054079834
-0.27907312 0.28294069 -0.054310564
-0.27733177 0.28464773 -0.054310564
-0.24451089 0.25412503 -0.043697026
-0.27314672 0.28732502 -0.054079834
-0.26604441 0.28332642 -0.052234001
-0.27026263 0.29136804 -0.054310564
-0.2526772 0.2758182 -0.048773065
-0 0 -0
-0 0 -0
-0 0 -0
-0 0 -0
-0 0 -0
-0 0 -0
-0 0 -0
-0 0 -0
-0 0 -0
-2.1197429 2.6148152 -0.75826502
-0 0 -0
-0 0 -0
-0 0 -0
-2.0816681 2.7007256 -0.76864785
-2.0750766 2.7266092 -0.77257019
-2.0623996 2.744735 -0.7741853
-2.0513175 2.765152 -0.7764926
-2.0371873 2.7816114 -0.77764624
-2.0274937 2.8043089 -0.78064573
-2.0130754 2.8206561 -0.78179938
-1.997972 2.8361366 -0.78272229
-1.9833101 2.8523366 -0.78387594
-1.9641191 2.8620458 -0.78318375
-1.9448838 2.8716266 -0.78249156
-1.9153302 2.8657103 -0.77741551
-1.901461 2.8830941 -0.77903062
-1.8874506 2.9004154 -0.78064573
-1.8722475 2.9160354 -0.78179938
-1.866818 2.9471948 -0.78733689
-1.8378693 2.9412665 -0.78249156
-1.8187661 2.9508317 -0.78203011
-1.8006259 2.9619358 -0.78203011
-1.7844197 2.9762664 -0.78295302
-1.7646382 2.9846468 -0.78226084
-1.7340376 2.9744046 -0.7764926
-1.7259392 3.0027027 -0.78133792
-1.703644 3.0064645 -0.77949208
-1.6794695 3.0066681 -0.77672333
-1.6572342 3.010098 -0.77487749
-1.6364127 3.015934 -0.77372384
-1.6164998 3.023344 -0.77303165
-1.6056299 3.0478396 -0.77695405
-1.5886917 3.0610886 -0.77787697
-1.5765245 3.0837736 -0.78133792
-1.5619501 3.1020792 -0.78364521
-1.543319 3.1124763 -0.78387594
-1.528035 3.1297565 -0.78595251
-1.5037431 3.1285503 -0.78318375
-1.4870157 3.1429951 -0.78456813
-1.4693459 3.1555882 -0.78549105
-1.4483343 3.1610065 -0.78456813
-1.422912 3.1565285 -0.78110719
-1.401939 3.1616421 -0.78018427
-1.3782336 3.1603744 -0.77764624
-1.3599666 3.1714542 -0.77833843
-1.3419937 3.1833253 -0.77926135
-1.3269068 3.202286 -0.78203011
-1.3053976 3.205862 -0.78087646
-1.2853408 3.212908 -0.78064573
-1.2648907 3.2189231 -0.78018427
-1.2458167 3.2284391 -0.78064573
-1.2232252 3.2287436 -0.77879989
-1.1996595 3.2261567 -0.77626187
-1.1788406 3.230715 -0.77556968
-1.1599792 3.2406356 -0.77626187
-1.1358821 3.2357574 -0.77326238
-1.1172736 3.246346 -0.7741853
-1.0951556 3.2466869 -0.77257019
-1.0746027 3.2514977 -0.77210873
-1.0546317 3.2580302 -0.77210873
-1.034621 3.2644401 -0.77210873
-1.012841 3.265151 -0.77072436
-0.99307001 3.2722354 -0.77095509
-0.97186542 3.2745361 -0.77003217
-0.94931388 3.2720275 -0.76795566
-0.93001568 3.2805991 -0.76864785
-0.90960908 3.2853062 -0.76841712
-0.88816375 3.2861292 -0.76726347
-0.86897659 3.2952802 -0.76818639
-0.84777105 3.2967808 -0.76726347
-0.82894629 3.3075833 -0.76864785
-0.80886662 3.3135526 -0.76887858
-0.78896993 3.3203466 -0.76933998
-0.76880103 3.3260732 -0.76957071
-0.75008547 3.3383224 -0.77141654
-0.061983775 0.28568035 -0.029391823
-0.71208894 3.3615539 -0.77487749
-0.69497573 3.3830156 -0.77903062
-0.67420489 3.3872161 -0.77903062
-0.051638622 0.26991782 -0.025238698
-0.63365775 3.4009738 -0.780415
-0.60932869 3.3856456 -0.77580041
-0.5885433 3.3893206 -0.77580041
-0.5658074 3.3813522 -0.77303165
-0.047514312 0.29731169 -0.031468384
-0.52352583 3.3832331 -0.771878
-0.50204188 3.3815694 -0.77072436
-0 0 -0
-0.4557845 3.3527668 -0.76241815
-0.43520373 3.3555005 -0.76241815
-0.41341317 3.3484509 -0.76011086
-0.39308649 3.3528574 -0.76057231
-0.37153903 3.3465025 -0.75849575
-0.34998286 3.3390422 -0.75618845
-0.33092237 3.3556514 -0.7596494
-0.30978826 3.3518054 -0.75826502
-0.2890487 3.3517044 -0.75780356
-0.26941079 3.3650537 -0.76057231
-0.24811181 3.3579102 -0.75849575
-0.22776683 3.3632524 -0.75941867
-0.20676661 3.3587596 -0.75803429
-0.18539861 3.3463638 -0.75480407
-0.1646703 3.3435512 -0.75388116
-0.14368942 3.3338053 -0.75134313
-0.12294249 3.3268454 -0.74949729
-0.1027376 3.3343451 -0.7511124
-0.081987157 3.32324 -0.74834365
-0.061485738 3.3178434 -0.74695927
-0.041114502 3.3171854 -0.74672854
-0.020784676 3.3212671 -0.74765146
-0.00040607236 3.3242512 -0.74834365
0.019956736 3.3183532 -0.74695927
0.040270563 3.3142765 -0.74603635
0.060658854 3.3168855 -0.74672854
0.08091516 3.3125598 -0.74580562
0.10106143 3.3061657 -0.74442124
0.12145253 3.3084004 -0.74511343
0.14154248 3.3027322 -0.74395978
0.16194752 3.3047173 -0.74465197
0.18270309 3.3124053 -0.74672854
0.20260815 3.3044233 -0.74511343
0.22268373 3.3002057 -0.74442124
0.24292922 3.2987771 -0.74442124
0.26270178 3.2914047 -0.74303687
0.2828925 3.2897308 -0.74303687
0.30334017 3.2908399 -0.74372905
0.32238501 3.2772965 -0.74096036
0.34248805 3.2752566 -0.74096036
0.3626852 3.2740607 -0.74119103
0.38310647 3.274673 -0.74188322
0.40224129 3.2645347 -0.74003744
0.42351252 3.2716551 -0.74234468
0.44397119 3.2718873 -0.74303687
0.46649814 3.2864425 -0.74719
0.48636949 3.2815931 -0.74672854
0.50694114 3.2814319 -0.74742073
0.52706611 3.2782598 -0.74742073
0.54556888 3.2653666 -0.74511343
0.5629366 3.2466178 -0.74142176
0.58181489 3.2373564 -0.74003744
0.60113436 3.2308557 -0.73934525
0.61892611 3.2165956 -0.73680723
0.63903028 3.2146463 -0.73726869
0.6573748 3.2039924 -0.73565358
0.67661917 3.1979945 -0.73519212
0.69705749 3.1975856 -0.73611504
0.71496069 3.185653 -0.7342692
0.73361892 3.1774137 -0.73334628
0.75377512 3.1756926 -0.73403847
0.77416825 3.1747892 -0.73496139
0.79386997 3.170923 -0.73519212
0.81282747 3.1641073 -0.73473066
0.83346564 3.1637652 -0.73588431
0.8521018 3.1557734 -0.73519212
0.87300497 3.1561124 -0.7365765
0.89182401 3.148824 -0.73611504
0.90896183 3.1358159 -0.7342692
0.9281857 3.1301796 -0.7342692
0.94850355 3.1281502 -0.73519212
0.96623999 3.1176243 -0.73403847
0.98447031 3.1088538 -0.73334628
1.0026294 3.0999773 -0.73265409
1.0243765 3.1020827 -0.73473066
1.0433913 3.0957389 -0.73473066
1.0633156 3.0920389 -0.73542285
1.082912 3.0872927 -0.73588431
1.1021625 3.0815063 -0.73611504
1.120383 3.0728571 -0.73565358
1.1409106 3.0704854 -0.73680723
1.1566298 3.0552368 -0.73473066
1.1764045 3.050806 -0.73542285
1.1943907 3.0417187 -0.73496139
1.2101432 3.0271046 -0.73311555
1.2268614 3.0151157 -0.73196191
1.2445943 3.005733 -0.73150045
1.2645243 3.0016267 -0.73242337
1.279853 2.986656 -0.73057753
1.3028182 2.9894512 -0.73334628
1.3254716 2.9911871 -0.73588431
1.3418026 2.9785619 -0.73473066
1.3620783 2.9746962 -0.73588431
1.3819467 2.9698117 -0.73680723
1.393906 2.9480808 -0.73334628
1.41239 2.9403496 -0.73357701
1.4240065 2.91851 -0.73011607
1.438 2.9018705 -0.7280395
1.4531548 2.8877771 -0.72665513
1.477928 2.8926709 -0.7303468
1.4996805 2.8913221 -0.73242337
1.521925 2.8906763 -0.73473066
1.5396333 2.8812833 -0.73473066
1.5586747 2.8743484 -0.73542285
1.5729992 2.8587625 -0.73380774
1.5867171 2.8422599 -0.73196191
1.6055652 2.8350105 -0.73265409
1.624384 2.827637 -0.73334628
1.638765 2.812572 -0.73196191
1.6609408 2.8108413 -0.7342692
0 0 -0
1.6922781 2.7852576 -0.73288482
1.710867 2.777307 -0.73357701
1.7273607 2.7659318 -0.73334628
1.739096 2.7470591 -0.73103899
1.7595967 2.7420692 -0.73265409
1.7785103 2.734484 -0.73357701
1.7973969 2.7267694 -0.73449993
1.8167962 2.7197354 -0.73565358
1.838358 2.7157891 -0.73773015
1.8571882 2.7076678 -0.73865306
1.8715465 2.6930251 -0.73773015
1.8891555 2.6830821 -0.7381916
1.9004985 2.6643102 -0.73611504
1.9105427 2.6439228 -0.73357701
1.9319013 2.6392169 -0.73565358
1.9474794 2.6265318 -0.73542285
1.9670641 2.6192014 -0.73680723
1.9848652 2.609406 -0.73749942
2.000839 2.597178 -0.73749942
2.0149419 2.5825505 -0.73680723
2.0313532 2.5709019 -0.73703796
2.0410116 2.5507913 -0.73473066
2.0572371 2.538976 -0.73496139
2.0740113 2.5278096 -0.73542285
2.0907261 2.5165331 -0.73588431
2.1117644 2.5103595 -0.73796088
2.1321747 2.5032811 -0.73980671
2.1506712 2.4938359 -0.74096036
2.1704118 2.4857237 -0.74257541
2.1888449 2.4760051 -0.74372905
2.2039962 2.462528 -0.74372905
2.2131851 2.4424679 -0.74165249
2.2294455 2.4302764 -0.74211395
2.2443154 2.4165511 -0.74211395
2.2577679 2.4013166 -0.74165249
2.2738011 2.3888278 -0.74211395
2.2890911 2.3755319 -0.74234468
2.2961509 2.3537791 -0.73980671
2.320121 2.3493395 -0.74303687
2.3296776 2.3302419 -0.74142176
2.3467002 2.3186393 -0.74234468
2.3567052 2.3001184 -0.74096036
2.3686728 2.2835884 -0.74026817
2.3826401 2.2690115 -0.74026817
2.3922658 2.2503486 -0.73888379
2.4038906 2.2336402 -0.7381916
2.4197009 2.2208223 -0.73888379
2.4340029 2.2065871 -0.73911452
2.4561939 2.1994009 -0.74188322
2.4754732 2.1894462 -0.74372905
2.4903262 2.1754963 -0.74419051
2.5087843 2.1646252 -0.74580562
2.5301647 2.1561339 -0.74834365
2.5366473 2.1349287 -0.74626708
2.5541885 2.1230564 -0.74765146
2.5671673 2.1073442 -0.74765146
2.5762706 2.0884886 -0.74649781
2.5973916 2.0793314 -0.74903584
2.6039953 2.058527 -0.74719
2.6142762 2.040714 -0.74649781
2.6252074 2.0234466 -0.74603635
2.6321542 2.0031748 -0.74442124
2.6475072 1.9893249 -0.74534416
2.6596637 1.9730427 -0.74534416
2.6748595 1.9589862 -0.74626708
2.6899831 1.9448174 -0.74719
2.7026577 1.9288408 -0.74742073
2.7231913 1.9183863 -0.74995875
2.7277217 1.8966409 -0.74788219
2.7385056 1.8793175 -0.74765146
2.7507908 1.8630247 -0.74788219
2.7645972 1.8477334 -0.74857438
2.7710094 1.8275206 -0.74719
2.7805398 1.809422 -0.74672854
2.7981396 1.7965332 -0.74857438
2.8091102 1.7793304 -0.74857438
2.8232756 1.7641233 -0.74949729
2.8332186 1.7462561 -0.74926656
2.8505311 1.7328833 -0.7511124
2.8510966 1.709355 -0.74834365
2.8623688 1.692324 -0.74857438
2.8735394 1.6752192 -0.74880511
2.873642 1.6517361 -0.74603635
2.8820295 1.6331131 -0.74557489
2.8953936 1.6172969 -0.74649781
2.9069674 1.6004394 -0.74695927
2.9244294 1.5867498 -0.74903584
2.9349685 1.5692348 -0.74926656
2.9428203 1.5502894 -0.74880511
2.948823 1.5304102 -0.74788219
2.9572916 1.5118448 -0.74765146
2.9621673 1.4914823 -0.74649781
2.9764931 1.4758728 -0.74788219
2.9811213 1.4554466 -0.74672854
2.9952571 1.4396571 -0.74811292
3.0119498 1.4249974 -0.75018948
3.0135806 1.403203 -0.74834365
3.0177109 1.3826586 -0.74719
3.0208158 1.3617165 -0.74580562
3.0255566 1.3415774 -0.7448827
3.0346234 1.3233767 -0.74511343
3.0462632 1.306266 -0.74603635
3.0560141 1.288306 -0.74649781
3.0746477 1.2740014 -0.74926656
3.082407 1.2551117 -0.74926656
3.08463 1.2340057 -0.74788219
3.0903325 1.2143435 -0.74742073
3.0804784 1.1887012 -0.74303687
3.1031818 1.1756393 -0.74695927
3.1139848 1.1579334 -0.74788219
3.1402259 1.1458108 -0.75272751
3.1536098 1.1288173 -0.75434262
3.1549683 1.1075115 -0.75295824
3.184705 1.096051 -0.75872648
3.1876824 1.075245 -0.75780356
3.1942201 1.0556655 -0.75780356
3.2117457 1.0396434 -0.76057231
3.2032242 1.0152117 -0.75688064
3.2186861 0.99842179 -0.75918794
3.2340622 0.9814803 -0.76149523
3.234427 0.95995623 -0.76011086
3.2393217 0.93982089 -0.75988013
3.2440913 0.91966158 -0.7596494
3.24686 0.8989597 -0.75895721
3.2466791 0.87749648 -0.75757283
3.2491798 0.85681409 -0.75688064
3.2572029 0.83758867 -0.75757283
3.2585058 0.8166405 -0.75664991
3.2644005 0.79686213 -0.75688064
3.2768016 0.77861756 -0.75872648
3.2862573 0.75959301 -0.75988013
3.289907 0.73920119 -0.7596494
3.2915287 0.71837807 -0.75895721
3.2949228 0.69796634 -0.75872648
3.3058152 0.67910725 -0.76034158
3.3051484 0.6578601 -0.75918794
3.3033903 0.63646257 -0.75780356
3.3062768 0.61600304 -0.75757283
3.3099942 0.5957045 -0.75757283
0 0 -0
3.315136 0.55471951 -0.75711137
3.3079102 0.53266495 -0.75457335
3.3130395 0.51265579 -0.7550348
3.3074608 0.49103069 -0.75295824
3.3210077 0.47223529 -0.75549626
3.3248069 0.45198026 -0.75572699
3.323658 0.43107006 -0.75480407
3.3349314 0.41174242 -0.75688064
3.3257985 0.38991097 -0.75411189
3.3194246 0.36852959 -0.75203532
3.300334 0.34592107 -0.74695927
3.3188555 0.32728937 -0.75088167
3.3227391 0.30709842 -0.75134313
3.3109891 0.28553268 -0.74811292
3.3097692 0.26497817 -0.74742073
3.3239474 0.24559838 -0.75042021
3.3205378 0.2248691 -0.74926656
3.3315668 0.20508943 -0.75157386
3.3269334 0.18431982 -0.75018948
3.3280017 0.16390267 -0.75018948
3.330889 0.14356337 -0.75065094
3.3404584 0.12344716 -0.75272751
3.3382354 0.10285792 -0.75203532
3.3417218 0.082445294 -0.75272751
3.3528659 0.062138904 -0.75526553
3.3599949 0.041650154 -0.75688064
3.3524032 0.020983199 -0.7550348
3.3524687 0.00041284406 -0.7550348
3.344624 -0.02011163 -0.75318897
3.3415189 -0.040598359 -0.75249678
3.3431528 -0.061136123 -0.75295824
3.3359056 -0.081482649 -0.75134313
3.3149188 -0.10132796 -0.74649781
3.3434057 -0.12273344 -0.7534197
3.3289797 -0.14266422 -0.75018948
3.3348448 -0.16342035 -0.75180459
3.3376656 -0.18409339 -0.75272751
3.3432715 -0.20498548 -0.75434262
3.345834 -0.22575712 -0.75526553
3.3405042 -0.24599713 -0.75434262
3.3350523 -0.26618025 -0.7534197
3.3391728 -0.28713822 -0.75480407
3.3344414 -0.30735403 -0.75411189
3.3373344 -0.3282837 -0.75526553
3.3381605 -0.34905824 -0.75595772
3.3282192 -0.36867812 -0.75411189
3.3258944 -0.38909274 -0.75411189
3.3205471 -0.40913609 -0.7534197
3.3121843 -0.42875409 -0.75203532
3.3008134 -0.44789273 -0.74995875
3.298003 -0.46813771 -0.74995875
3.3008435 -0.48922029 -0.75134313
3.2929714 -0.50872248 -0.75018948
3.3051593 -0.53138763 -0.75388116
3.3066351 -0.55245888 -0.7550348
3.2993481 -0.57207316 -0.75411189
3.3063104 -0.59419876 -0.75664991
3.3026023 -0.61447471 -0.75664991
3.2930367 -0.63362515 -0.75526553
3.2881324 -0.6536293 -0.7550348
3.2859664 -0.67418349 -0.75549626
3.2712963 -0.69211888 -0.75295824
3.259382 -0.7105211 -0.7511124
3.2483151 -0.72901618 -0.74949729
3.2428327 -0.74871492 -0.74926656
0 -0 -0
3.2390728 -0.78983551 -0.75065094
3.2360532 -0.81016761 -0.7511124
3.2281938 -0.82928246 -0.75042021
3.2324541 -0.85155231 -0.75272751
3.2281077 -0.87162375 -0.75295824
3.2151961 -0.88934034 -0.7511124
3.215296 -0.91064191 -0.75249678
3.2143209 -0.93170738 -0.75365043
3.2094762 -0.951689 -0.75388116
3.2091637 -0.97305745 -0.75526553
3.197556 -0.99100256 -0.75388116
3.1979086 -1.0126592 -0.75549626
3.1888573 -1.0313642 -0.75480407
3.1824691 -1.0509112 -0.75480407
3.1704283 -1.0685548 -0.7534197
3.1674929 -1.0892533 -0.75434262
3.1671772 -1.1109217 -0.75595772
3.1538875 -1.1280413 -0.75434262
3.1505632 -1.1487046 -0.75526553
3.1398072 -1.1666594 -0.75434262
3.1180291 -1.1803926 -0.75065094
3.1188986 -1.202652 -0.75272751
3.1132722 -1.2224777 -0.75318897
3.1002913 -1.2393909 -0.75180459
3.0962334 -1.2598569 -0.75272751
3.0875459 -1.2784593 -0.75249678
3.0742629 -1.2951142 -0.7511124
3.050159 -1.3070564 -0.74695927
3.0447576 -1.3269131 -0.74765146
3.0294414 -1.3424177 -0.74580562
3.0229218 -1.3617798 -0.74626708
3.0260108 -1.3855672 -0.74926656
3.0183344 -1.4045187 -0.74949729
3.0140581 -1.4250915 -0.75065094
3.0157828 -1.4486129 -0.7534197
3.0147083 -1.4709294 -0.75549626
3.0012665 -1.48724 -0.75434262
2.9955614 -1.5073764 -0.75526553
2.989722 -1.5274988 -0.75618845
2.9794295 -1.5453668 -0.75595772
2.9810846 -1.5695107 -0.75895721
2.9593828 -1.5813541 -0.75572699
2.9436362 -1.5962367 -0.75411189
2.932934 -1.6137995 -0.75388116
2.9034348 -1.6208589 -0.74857438
2.8908944 -1.6372054 -0.74788219
2.8858569 -1.6578202 -0.74926656
2.8781528 -1.6769655 -0.74995875
2.8803751 -1.7020174 -0.7534197
2.8690429 -1.719159 -0.75318897
2.8667567 -1.7417822 -0.75549626
2.8551867 -1.7588292 -0.75526553
2.8294845 -1.7670397 -0.7511124
2.831744 -1.7926936 -0.75480407
2.818234 -1.8084589 -0.75411189
2.8021898 -1.8225348 -0.75272751
2.7868919 -1.8370173 -0.75157386
2.772331 -1.8519212 -0.75065094
2.7633333 -1.8705331 -0.75134313
2.7630384 -1.8951572 -0.75457335
2.7457645 -1.9081889 -0.75295824
2.7292304 -1.9216402 -0.75157386
2.7284789 -1.9462596 -0.75480407
2.7046547 -1.9544176 -0.75134313
2.7004638 -1.9767226 -0.75365043
2.6820307 -1.9886196 -0.75180459
2.6612191 -1.9986123 -0.74926656
2.6527781 -2.0178485 -0.75042021
2.6364927 -2.0311191 -0.74926656
2.6255147 -2.048455 -0.74972802
2.6182408 -2.0687482 -0.75134313
2.6085372 -2.0872059 -0.75226605
2.6039982 -2.1099093 -0.75480407
2.5940123 -2.1283157 -0.75572699
2.5786588 -2.1423273 -0.7550348
2.5639758 -2.1568568 -0.75457335
2.5469892 -2.169394 -0.7534197
2.5306823 -2.1824398 -0.75249678
2.5179765 -2.1985667 -0.75272751
2.5015228 -2.2113976 -0.75180459
2.490082 -2.2286518 -0.75249678
2.4857349 -2.2523811 -0.75549626
2.4675653 -2.2636447 -0.75411189
2.4493511 -2.2747705 -0.75272751
2.4396009 -2.2937551 -0.75411189
2.419137 -2.3026443 -0.75203532
2.4000576 -2.3127189 -0.75042021
2.3872151 -2.3287604 -0.75088167
2.3666496 -2.3372116 -0.74880511
2.3563933 -2.3558164 -0.75018948
2.3507853 -2.3792274 -0.75318897
2.3341033 -2.3915181 -0.75249678
2.3180344 -2.4043939 -0.75203532
2.3059223 -2.4213901 -0.75295824
2.2883544 -2.4326589 -0.75203532
2.2713976 -2.4445159 -0.75134313
2.2622776 -2.4648581 -0.7534197
2.2451501 -2.4765303 -0.75272751
2.2260172 -2.4859109 -0.75134313
2.2120113 -2.5009801 -0.75180459
2.1991849 -2.5174365 -0.75272751
2.1760681 -2.5220435 -0.74995875
2.1681266 -2.5442343 -0.75272751
2.1562345 -2.5619562 -0.75411189
2.1423402 -2.5773828 -0.75480407
2.1264853 -2.5904794 -0.75480407
2.1111631 -2.6042345 -0.7550348
2.0963607 -2.6186583 -0.75549626
2.0784428 -2.6291823 -0.75480407
2.0604749 -2.639585 -0.75411189
2.0495868 -2.6591134 -0.75618845
2.0367684 -2.6762848 -0.75757283
2.0214779 -2.6902874 -0.75803429
2.0037727 -2.7010775 -0.75757283
0 -0 -0
1.9602123 -2.7112715 -0.7534197
1.9486274 -2.7303755 -0.75549626
1.9323978 -2.7430761 -0.75572699
1.9166415 -2.756479 -0.75618845
1.9046478 -2.7754073 -0.75826502
0 -0 -0
1.8834245 -2.8179848 -0.76380253
1.8580612 -2.8173053 -0.76034158
1.8433936 -2.8327305 -0.76149523
1.8280808 -2.8472629 -0.76241815
1.8064098 -2.8518507 -0.76057231
1.7883614 -2.8620558 -0.76034158
1.7671921 -2.8671772 -0.75872648
1.7429942 -2.8671587 -0.75572699
1.7248683 -2.876965 -0.75549626
1.710155 -2.8925195 -0.75688064
1.6923746 -2.9029584 -0.75688064
1.6788954 -2.9208798 -0.75895721
1.6633407 -2.9353588 -0.76011086
1.6434 -2.942112 -0.75918794
1.6267246 -2.9546971 -0.75988013
1.6127416 -2.9723196 -0.76195669
1.5981445 -2.9890234 -0.76380253
1.5784132 -2.9961908 -0.76311034
1.5622408 -3.0101373 -0.76426399
1.5348814 -3.0023398 -0.7596494
1.5138043 -3.0064871 -0.75826502
1.4927343 -3.010489 -0.75688064
1.4742342 -3.0195916 -0.75688064
1.4594731 -3.0364728 -0.75895721
1.4470576 -3.0585632 -0.76241815
1.4307283 -3.0726769 -0.76380253
1.4167128 -3.0920124 -0.76657128
1.3993137 -3.1041949 -0.7674942
1.3695884 -3.0887074 -0.7612645
1.34672 -3.0881343 -0.75895721
1.321609 -3.082032 -0.75526553
1.3034294 -3.0918763 -0.75572699
1.284806 -3.1007147 -0.75595772
1.2642879 -3.1049352 -0.7550348
1.2542505 -3.1352184 -0.76080304
1.2225307 -3.1111605 -0.75272751
1.2013156 -3.1131568 -0.75134313
1.1815014 -3.1186497 -0.75088167
1.160308 -3.1203687 -0.74949729
1.14481 -3.1374838 -0.75203532
1.1281613 -3.1517777 -0.75388116
1.1104131 -3.1632309 -0.7550348
1.0906662 -3.1690648 -0.75480407
1.0684007 -3.1673996 -0.75272751
1.0471132 -3.1683526 -0.75134313
1.0267535 -3.171941 -0.75065094
1.0037426 -3.1670511 -0.74788219
0.98775166 -3.1843019 -0.75065094
0.96819454 -3.1903026 -0.75065094
0.95192444 -3.2073767 -0.7534197
0.93141276 -3.2103539 -0.75272751
0.90983844 -3.2094557 -0.7511124
0.89142716 -3.2196665 -0.75226605
0.8729248 -3.2297721 -0.7534197
0.85383552 -3.2378898 -0.75411189
0.83443701 -3.2449527 -0.75457335
0.81474727 -3.2509553 -0.75480407
0.79547703 -3.258729 -0.75549626
0.77659214 -3.2682819 -0.75664991
0.75674295 -3.2739334 -0.75688064
0.73728049 -3.281363 -0.75757283
0.71318835 -3.2677634 -0.75318897
0.69372952 -3.2749336 -0.75388116
0.67381775 -3.2800815 -0.75411189
0.6455065 -3.2431204 -0.74419051
0.63001567 -3.2699504 -0.74972802
0.60869145 -3.2670588 -0.74811292
0.58777142 -3.265944 -0.74695927
0.56638825 -3.2618198 -0.74511343
0.54925591 -3.2825077 -0.74926656
0.52817571 -3.2800522 -0.74788219
0.50997549 -3.2957315 -0.75088167
0.49002966 -3.3007236 -0.75134313
0.46921921 -3.2998149 -0.75042021
0.44883192 -3.3016677 -0.75018948
0.42894059 -3.3072543 -0.75088167
0.40875894 -3.3107896 -0.7511124
0.38911709 -3.3190336 -0.75249678
0.36885202 -3.3223259 -0.75272751
0.3487643 -3.3274298 -0.7534197
0.32853222 -3.3314438 -0.75388116
0.3080847 -3.3333967 -0.75388116
0.28754184 -3.334255 -0.75365043
0 -0 -0
0.24954806 -3.3773174 -0.76311034
0.22737168 -3.3574278 -0.75803429
0.2070661 -3.3636155 -0.75918794
0.18588406 -3.3551075 -0.75688064
0.16481423 -3.3464665 -0.75457335
0.14444566 -3.3513033 -0.75549626
0 -0 -0
0.10327905 -3.351851 -0.75526553
0.082638197 -3.3495035 -0.75457335
0.062229622 -3.3577302 -0.75641918
0.041650154 -3.3599949 -0.75688064
0.021014217 -3.3572681 -0.75618845
0.00041424512 -3.3583069 -0.75641918
-0.020140314 -3.3494892 -0.75434262
-0.040598359 -3.3415189 -0.75249678
-0.061189152 -3.3460712 -0.75365043
-0.081482649 -3.3359056 -0.75134313
-0.10168333 -3.3265896 -0.74926656
-0.12219972 -3.3288202 -0.74995875
-0.14262268 -3.3280077 -0.74995875
-0.16323031 -3.3309574 -0.75088167
-0.18393297 -3.3347509 -0.75203532
-0.20480719 -3.3403578 -0.75365043
-0.2259533 -3.3487465 -0.75595772
-0.24699599 -3.3540897 -0.75757283
-0.26733974 -3.3496013 -0.75688064
-0.28747123 -3.3430507 -0.75572699
-0.3077108 -3.3383172 -0.7550348
-0 -0 -0
-0.34612691 -3.3100958 -0.74926656
-0.36739391 -3.3166137 -0.75134313
-0.38762441 -3.3133307 -0.7511124
-0.40866059 -3.3166842 -0.75249678
-0.42800528 -3.3063943 -0.75065094
-0.44815418 -3.3027418 -0.75042021
-0.46690804 -3.2893326 -0.74788219
-0.48750982 -3.2892933 -0.74857438
-0.50679272 -3.2804704 -0.74719
-0.5292269 -3.2917094 -0.75065094
-0.5505361 -3.2951183 -0.75226605
-0.57041198 -3.2897608 -0.75180459
-0.59144682 -3.2909875 -0.75295824
-0.61198455 -3.2892096 -0.7534197
-0.6325227 -3.2873037 -0.75388116
-0.65249169 -3.2824063 -0.75365043
-0.6718381 -3.2745283 -0.75272751
-0.69252145 -3.2732 -0.7534197
-0.71383518 -3.2745936 -0.75480407
-0.73391426 -3.2701519 -0.75480407
-0.75505966 -3.2703276 -0.75595772
-0.77398884 -3.2608993 -0.75480407
-0.79260033 -3.2504168 -0.7534197
-0.81607258 -3.2596512 -0.75688064
-0.8350901 -3.2508125 -0.75595772
-0.85725087 -3.2540958 -0.75803429
-0.87872267 -3.254411 -0.75941867
-0.89685977 -3.2423933 -0.75780356
-0.91594273 -3.2340205 -0.75711137
-0.93360281 -3.2208629 -0.75526553
-0.95058298 -3.2057447 -0.75295824
-0.96882403 -3.1951957 -0.75180459
-0.98610765 -3.1817555 -0.74995875
-1.0067865 -3.1793556 -0.75088167
-1.0241805 -3.1666374 -0.74926656
-1.0417613 -3.1547496 -0.74788219
-1.059235 -3.1427655 -0.74649781
-1.0756519 -3.1279256 -0.74442124
-1.095468 -3.1231029 -0.7448827
-1.1116623 -3.1080766 -0.74280614
-1.1327113 -3.1066821 -0.74419051
-1.1544626 -3.1069705 -0.74603635
-1.1759156 -3.1061985 -0.74765146
-1.1956527 -3.1007407 -0.74811292
-1.2167891 -3.0987804 -0.74949729
-1.2343357 -3.0876417 -0.74857438
-1.2543577 -3.0827138 -0.74926656
-1.2769707 -3.0839496 -0.75157386
-1.2928482 -3.0688822 -0.74972802
-1.3135699 -3.0653639 -0.75088167
-1.3354629 -3.0643826 -0.75272751
-1.3554227 -3.0587995 -0.7534197
-1.3749647 -3.0521996 -0.75388116
-1.3989316 -3.055207 -0.75688064
-1.4213452 -3.0545058 -0.75895721
-1.4400606 -3.0457273 -0.75895721
-1.4612489 -3.0420966 -0.76034158
-1.4734888 -3.0199554 -0.75688064
-1.4958785 -3.0187044 -0.75895721
-1.5143728 -3.009469 -0.75895721
-1.5319248 -2.9983873 -0.75849575
-1.5511895 -2.9906588 -0.75895721
-1.5717766 -2.9853897 -0.76011086
-1.5909821 -2.9774058 -0.76057231
-1.6096848 -2.9684429 -0.76080304
-1.6269306 -2.9568052 -0.76034158
-1.6421975 -2.941669 -0.75895721
-1.6611751 -2.9332306 -0.75941867
-1.6791418 -2.9229827 -0.75941867
-1.7019428 -2.9210324 -0.76172596
-1.724288 -2.9180744 -0.76380253
-1.7441605 -2.9107783 -0.76472545
-1.7635033 -2.9025164 -0.76541764
-1.7823001 -2.8932981 -0.76587909
-1.7969277 -2.8773553 -0.76449472
-1.8171508 -2.8703864 -0.76564837
-1.8247464 -2.843622 -0.7612645
-1.8432209 -2.8340037 -0.76172596
-1.8637879 -2.8275151 -0.76311034
-1.883804 -2.8200719 -0.76426399
-1.8999815 -2.8068483 -0.76380253
-1.9221207 -2.8023596 -0.76587909
-1.9453865 -2.7993028 -0.76841712
-1.9658866 -2.7920873 -0.76980144
-1.9807217 -2.7768035 -0.76887858
-2.0005715 -2.7685416 -0.77003217
-2.0100513 -2.7460063 -0.76703274
-2.0268624 -2.7336211 -0.76703274
-2.042429 -2.7195768 -0.76657128
-2.0543656 -2.7007976 -0.76472545
-2.0732737 -2.6912248 -0.76564837
-2.0903463 -2.67922 -0.76587909
-2.1091588 -2.6693976 -0.76680201
-2.1273217 -2.6586852 -0.7674942
-2.1454325 -2.6478505 -0.76818639
-2.1641073 -2.6376457 -0.76910925
-2.1752772 -2.6183293 -0.76726347
-2.1919284 -2.6056774 -0.7674942
-2.2078753 -2.5921791 -0.7674942
-2.2116671 -2.5645812 -0.76311034
-2.222882 -2.5458312 -0.76149523
-2.2352393 -2.5284986 -0.76034158
-2.24617 -2.50966 -0.75872648
-2.2589138 -2.4929461 -0.75780356
-2.2708793 -2.4754534 -0.75664991
-2.2820532 -2.4571946 -0.75526553
-2.2930887 -2.4388921 -0.75388116
-2.3093519 -2.4261858 -0.75434262
-2.3174443 -2.4049628 -0.75203532
-2.3274016 -2.3858218 -0.75042021
-2.3454151 -2.3749583 -0.75157386
-2.3558164 -2.3563933 -0.75018948
-2.3667703 -2.338474 -0.74903584
-2.3768966 -2.3198297 -0.74765146
-2.3840821 -2.2984474 -0.74534416
-2.4030719 -2.2884734 -0.74695927
-2.4170685 -2.2736855 -0.74695927
-2.4295487 -2.2574868 -0.74649781
-2.4412043 -2.2405629 -0.74580562
-2.4469774 -2.2183521 -0.7432676
-2.4518452 -2.1955059 -0.7404989
-2.4608979 -2.1765521 -0.73911452
-2.4668794 -2.1550088 -0.73680723
-2.4726896 -2.1334746 -0.73449993
-2.4842529 -2.1169999 -0.73403847
-2.4890077 -2.0948238 -0.73150045
-2.4943323 -2.0732915 -0.72919315
-2.5017428 -2.0536253 -0.72757804
-2.5082505 -2.0333338 -0.72573221
-2.5108056 -2.0099988 -0.72273272
-2.5230916 -1.9945549 -0.72273272
-2.5337484 -1.9778383 -0.72227126
-2.5450659 -1.9616603 -0.72204053
-2.5485382 -1.9395241 -0.71950251
-2.5650578 -1.9273577 -0.72088689
-2.5690217 -1.9057844 -0.71857959
-2.5728176 -1.8842351 -0.71627229
-2.5811768 -1.8661325 -0.71534938
-2.587827 -1.8468676 -0.713965
-2.5919518 -1.82591 -0.71188849
-2.5919232 -1.8021936 -0.70865828
-2.5997236 -1.7840533 -0.70773536
-2.6106215 -1.7680682 -0.70773536
-2.6214209 -1.7520164 -0.70773536
-2.6353705 -1.7380419 -0.70865828
-2.6492474 -1.7239621 -0.7095812
-2.6556818 -1.7050452 -0.70842755
-2.6611624 -1.6855936 -0.70704317
-2.6640289 -1.6645919 -0.7049666
-2.6659098 -1.643108 -0.70265931
-2.6676278 -1.621664 -0.70035201
-2.6716866 -1.6017622 -0.69873691
-2.678952 -1.583853 -0.69804472
-2.6810551 -1.5629741 -0.69596815
-2.6922817 -1.5474639 -0.69642961
-2.7051122 -1.5328345 -0.69735253
-2.7153161 -1.516682 -0.69758326
-2.7143431 -1.49436 -0.6948145
-2.7149096 -1.4730356 -0.69250721
-2.7238967 -1.4563495 -0.69250721
-2.7190084 -1.4323508 -0.68881553
-2.7122016 -1.4075706 -0.68466246
-2.7190545 -1.3900163 -0.684201
-2.7205801 -1.3698049 -0.68235517
-2.7446244 -1.3608681 -0.68650824
-2.7546713 -1.3448558 -0.6869697
-2.7602406 -1.3266633 -0.68627751
-2.7674494 -1.3092855 -0.68604678
-2.778959 -1.2939235 -0.6869697
-2.7868462 -1.2768477 -0.6869697
-2.7937412 -1.259324 -0.68673897
-2.7969685 -1.2401856 -0.68558532
-2.7973907 -1.2198879 -0.68373954
-0.26880857 -0.11487903 -0.029391823
-2.8031843 -1.181687 -0.68143225
-2.8022926 -1.1611115 -0.67935568
-0.26006401 -0.10550706 -0.026623074
-0.2688368 -0.10716299 -0.028699635
-0.27220598 -0.10657932 -0.029391823
-0.261962 -0.10070226 -0.026623074
-0.28441179 -0.10736882 -0.032160573
-0.26317805 -0.097479999 -0.026623074
-0 -0 -0
-0 -0 -0
-0 -0 -0
-0 -0 -0
-0 -0 -0
-0 -0 -0
-0 -0 -0
-0 -0 -0
-0 -0 -0
-0 -0 -0
-0 -0 -0
-0 -0 -0
-0 -0 -0
-0 -0 -0
-0 -0 -0
-0 -0 -0
-0 -0 -0
-0 -0 -0
-0 -0 -0
-0 -0 -0
-0 -0 -0
-0 -0 -0
-0 -0 -0
-0 -0 -0
-0 -0 -0
-0 -0 -0
-0 -0 -0
-0 -0 -0
-0 -0 -0
-0 -0 -0
-0 -0 -0
-0 -0 -0
-0 -0 -0
-0 -0 -0
-0 -0 -0
-0 -0 -0
-0 -0 -0
-0 -0 -0
-0 -0 -0
-0 -0 -0
-0 -0 -0
-0 -0 -0
-0.27561733 -0.025112718 -0.025700158
-0.2738274 -0.023253661 -0.025238698
-0.27687463 -0.021806344 -0.025930885
-0.28282541 -0.020537939 -0.027315261
-0.28877082 -0.019197309 -0.028699635
-0.27722913 -0.016706293 -0.025930885
-0.27732641 -0.015004933 -0.025930885
-0.28032875 -0.013446938 -0.026623074
-0 -0 -0
-0 -0 -0
-0 -0 -0
-0.27913442 0.019522469 -0.029900141
-0.2819103 0.02146781 -0.030628446
-0.27984032 0.023029998 -0.030142911
-0.27969375 0.024746632 -0.030142911
-0 0 -0
-0.27261558 0.027467489 -0.02844353
-0.27244192 0.029139711 -0.02844353
-0.26936761 0.030471245 -0.027715225
-0 0 -0
-0 0 -0
-0 0 -0
-0.27718219 0.038303938 -0.029900141
-0.27982053 0.040432066 -0.030628446
-0 0 -0
-0 0 -0
-0.27902889 0.045575798 -0.030628446
-0.28161123 0.047785632 -0.031356752
-0.28131273 0.049512669 -0.031356752
-0.28195724 0.051415756 -0.031599522
-0.2835415 0.053512376 -0.032085057
-0.2832078 0.055251148 -0.032085057
-0 0 -0
-0.28440642 0.059124917 -0.032570597
-0.28119513 0.06024763 -0.031842291
-0.2789273 0.061546084 -0.031356752
-0.27665418 0.062818989 -0.030871216
-0.27531976 0.064290829 -0.030628446
-0.2768048 0.066439509 -0.031113984
-0.275451 0.067900643 -0.030871216
-0.27596864 0.069831327 -0.031113984
-0.27834886 0.072266094 -0.031842291
-0 0 -0
-0 0 -0
-0 0 -0
-0.2783547 0.07961642 -0.032327827
-0 0 -0
-0.27364391 0.081898481 -0.031356752
-0.27220976 0.083288357 -0.031113984
-0.26984423 0.084370404 -0.030628446
-0.27209008 0.086921498 -0.031356752
-0.27339363 0.089198656 -0.031842291
-0.27192205 0.090564199 -0.031599522
-0.27319562 0.092862815 -0.032085057
-0.27536643 0.095501989 -0.032813363
-0.27477527 0.097189806 -0.032813363
-0.27508497 0.099206716 -0.033056132
-0.27356189 0.1005544 -0.032813363
-0.27293977 0.10223106 -0.032813363
-0.27502221 0.10495225 -0.033541668
-0.27166468 0.10557275 -0.032813363
-0.26921058 0.10651658 -0.032327827
-0.26855195 0.10816642 -0.032327827
-0.26609099 0.10906905 -0.031842291
-0.26541674 0.1106997 -0.031842291
-0.26829842 0.11385633 -0.032813363
-0.26581654 0.11472443 -0.032327827
-0.26954117 0.11832053 -0.033541668
-0.27057865 0.12076993 -0.034027208
-0.26983252 0.1224279 -0.034027208
-0.27347285 0.12612976 -0.035241049
-0.27707776 0.12988085 -0.036454894
-0.27452713 0.13073759 -0.035969354
-0.2772063 0.13412286 -0.036940429
-0.27637812 0.13582125 -0.036940429
-0.2764059 0.137951 -0.037183199
-0.2746906 0.13920261 -0.036940429
-0.27210945 0.1399913 -0.036454894
-0.26695454 0.13939652 -0.035241049
-0.26609421 0.14103189 -0.035241049
-0.26607639 0.14312482 -0.035483819
-0.26264411 0.14335051 -0.034755513
-0.260066 0.14401281 -0.034269974
-0.26086521 0.14656277 -0.034755513
-0.26332471 0.15009518 -0.035726588
-0.26742646 0.15464081 -0.037183199
-0.26730752 0.1567727 -0.037425965
-0.26550865 0.1579109 -0.037183199
-0.26370591 0.15903293 -0.036940429
-0.26107377 0.1596296 -0.036454894
-0.25515404 0.15814295 -0.034998283
-0.25172073 0.15814768 -0.034269974
-0.25074559 0.15968923 -0.034269974
-0.25219992 0.16281271 -0.034998283
-0.25686398 0.16809715 -0.03669766
-0.25905332 0.17182708 -0.037668735
-0.25799412 0.17341337 -0.037668735
-0.26012409 0.17718953 -0.03863981
-0.26221731 0.1809983 -0.039610885
