# .PCD v0.7 - Point Cloud Data file format
VERSION 0.7
FIELDS x y z
SIZE 4 4 4
TYPE F F F
COUNT 1 1 1
WIDTH 1518
HEIGHT 1
VIEWPOINT 0 0 0 1 0 0 0
POINTS 1518
DATA ascii
-1.3844584 3.174644 -0.78133792
-1.3657203 3.1848676 -0.78179938
-1.3442621 3.1887047 -0.78064573
-1.3213181 3.1888032 -0.77856916
-1.2987908 3.1896415 -0.77672333
-1.2781105 3.1948407 -0.77603114
-1.2577714 3.2008116 -0.77556968
-1.2370566 3.2057457 -0.77487749
-1.2173632 3.2132759 -0.77487749
-1.1996595 3.2261567 -0.77626187
-1.1801752 3.2343712 -0.7764926
-1.1606352 3.2424676 -0.77672333
-1.1410404 3.2504463 -0.77695405
-1.1236086 3.2647464 -0.77879989
-1.1047997 3.2752671 -0.77972281
-1.0846822 3.2819843 -0.77972281
-1.0627254 3.2830238 -0.77833843
-1.0372677 3.2727876 -0.7741853
-1.0157248 3.2744441 -0.77303165
-0.993918 3.2750285 -0.77164727
-0.9707576 3.2708049 -0.76910925
-0.94985634 3.2738965 -0.76841712
-0.9297502 3.2796631 -0.76841712
-0.91064805 3.289057 -0.76933998
-0.89044964 3.2945826 -0.76933998
-0.8687284 3.2943394 -0.76795566
-0.84801346 3.2977231 -0.7674942
-0.82610649 3.2962577 -0.76587909
-0.80378783 3.2927575 -0.76380253
-0.78424382 3.3004675 -0.76449472
-0.76178539 3.2957373 -0.76218742
-0.74154878 3.3003495 -0.76218742
-0.063229308 0.29138404 -0.030776197
-0.70361537 3.3215752 -0.76518691
-0.68439674 3.3315487 -0.76657128
-0.66679269 3.3499994 -0.77003217
-0.0527438 0.27565038 -0.026623074
-0.051051449 0.27596882 -0.026623074
-0.049702093 0.27819207 -0.027084531
-0.58104724 3.3461814 -0.76541764
-0.56130797 3.3544819 -0.76657128
-0.53932148 3.3492172 -0.76449472
-0.5180164 3.3476555 -0.76334107
-0.49689379 3.3469212 -0.76241815
-0.47593683 3.347017 -0.76172596
-0.45460385 3.3440897 -0.76034158
-0.43407637 3.3468161 -0.76034158
-0 0 -0
-0.39251944 3.3480253 -0.75941867
-0.37218392 3.3523049 -0.75988013
-0 0 -0
-0.33149597 3.3614612 -0.76103377
-0.31113318 3.3663387 -0.76172596
-0.29047185 3.3681843 -0.76172596
-0.26987737 3.3708732 -0.76195669
-0.24890175 3.3685842 -0.76103377
-0.22756925 3.3603401 -0.75872648
-0.20622751 3.3500192 -0.75595772
-0.1852368 3.3434494 -0.75411189
-0.16438244 3.3377202 -0.75249678
-0.14318526 3.32214 -0.74857438
-0.12258202 3.317122 -0.74719
-0.10204574 3.3119764 -0.74580562
-0.081938937 3.3212945 -0.74788219
-0.06150388 3.3188164 -0.74719
-0.041284934 3.3308065 -0.74995875
-0.020908752 3.3407271 -0.75226605
-0.000410509 3.3427386 -0.75272751
0.020100158 3.3426781 -0.75272751
0.040574946 3.3395731 -0.75203532
0.060782589 3.3236954 -0.74834365
0.08098609 3.3154781 -0.74649781
0.10147603 3.3197815 -0.74765146
0.12155927 3.3113174 -0.74580562
0.1423734 3.322175 -0.74857438
0.1623276 3.3124921 -0.74649781
0.1821149 3.3017182 -0.74419051
0.20260815 3.3044233 -0.74511343
0.2229453 3.3040888 -0.74534416
0.24285787 3.2978067 -0.74419051
0.26270178 3.2914047 -0.74303687
0.28280926 3.2887614 -0.74280614
0.30351856 3.2927778 -0.74419051
0.32390723 3.2927902 -0.74465197
0.34188157 3.2694502 -0.73957598
0.3638624 3.284699 -0.74372905
0.38367122 3.2795053 -0.74303687
0.40283567 3.2693634 -0.74119103
0.4238869 3.27455 -0.74303687
0 0 -0
0.46349221 3.2652481 -0.74211395
0 0 -0
0.50100338 3.2429669 -0.7381916
0.52150983 3.2436745 -0.73911452
0.54140282 3.2404134 -0.73911452
0.56443167 3.2552464 -0.74349833
0.58422285 3.2507641 -0.7432676
0.60291308 3.240422 -0.74165249
0.62462199 3.2462165 -0.74395978
0.64149505 3.2270529 -0.74026817
0.66108835 3.2221029 -0.74003744
0.67500883 3.1903789 -0.73334628
0.6933291 3.1804726 -0.73196191
0.71368295 3.1799564 -0.73288482
0.73361892 3.1774137 -0.73334628
0.75624567 3.1861067 -0.7365765
0.77808505 3.19086 -0.73888379
0.80166453 3.2020724 -0.74280614
0.8227489 3.2027478 -0.74419051
0.84213734 3.1966982 -0.74395978
0.85920072 3.1820767 -0.74165249
0.87793154 3.1739314 -0.74096036
0.89420938 3.1572499 -0.7381916
0.91139883 3.1442273 -0.73634577
0.92929173 3.1339114 -0.73519212
0.94624573 3.1207008 -0.73334628
0.96652794 3.1185536 -0.7342692
0.98681939 3.1162751 -0.73519212
1.0062212 3.1110873 -0.73542285
1.0262065 3.1076267 -0.73611504
1.0443233 3.098505 -0.73542285
1.0626831 3.0901985 -0.73496139
1.0796925 3.0781107 -0.73357701
1.0995418 3.0741765 -0.7342692
1.1190503 3.0692003 -0.73473066
1.1358286 3.0568035 -0.73334628
1.1586962 3.0606971 -0.73611504
1.1767545 3.0517139 -0.73565358
1.1940352 3.0408132 -0.73473066
1.20906 3.024394 -0.73242337
1.2272279 3.0160172 -0.73219264
1.2434779 3.003036 -0.73080826
1.2603701 2.9917626 -0.72988534
1.2817687 2.991128 -0.73173118
1.2977661 2.9778547 -0.7303468
1.3175898 2.9733944 -0.73126972
1.3382066 2.970577 -0.73265409
1.3572185 2.9640794 -0.73311555
1.3745594 2.9539313 -0.73265409
1.3943218 2.9489605 -0.73357701
1.4132324 2.9421039 -0.73403847
1.4316847 2.9342515 -0.7342692
1.4518217 2.9297712 -0.73542285
1.4684592 2.9182 -0.73473066
1.4827965 2.9022026 -0.73288482
1.5001284 2.8921859 -0.73265409
1.5178462 2.8829269 -0.73265409
1.5327562 2.8684099 -0.73126972
1.5517187 2.8615172 -0.73196191
1.576751 2.8655829 -0.73565358
1.5876654 2.8439591 -0.73242337
1.6103592 2.8434777 -0.73496139
1.6287452 2.8352308 -0.73542285
1.6480702 2.8285468 -0.73634577
1.6663847 2.8200567 -0.73680723
1.6836568 2.8097789 -0.73680723
1.702381 2.8018901 -0.73749942
1.7175001 2.7880778 -0.7365765
1.7335445 2.7758362 -0.73611504
1.7484626 2.7618582 -0.73519212
1.7669524 2.7535348 -0.73588431
1.7854056 2.7450883 -0.7365765
1.7995386 2.7300193 -0.73542285
1.8135538 2.7148805 -0.7342692
1.8329046 2.7077308 -0.73542285
1.8544369 2.7036555 -0.73749942
1.8643291 2.682637 -0.73473066
1.8824346 2.6735342 -0.73542285
1.8971088 2.6595569 -0.73473066
1.9076937 2.6399791 -0.73242337
1.926155 2.6313648 -0.73334628
1.9457411 2.6241868 -0.73473066
1.9583008 2.6075299 -0.73334628
1.9789754 2.601661 -0.73519212
1.9949017 2.5894692 -0.73519212
2.0107527 2.5771799 -0.73519212
2.0283375 2.5670843 -0.73588431
2.0410116 2.5507913 -0.73473066
2.0535622 2.5344393 -0.73357701
2.0703089 2.5232959 -0.73403847
2.0820222 2.5060542 -0.73265409
2.1080067 2.5058913 -0.7365765
2.1214504 2.4906874 -0.73588431
2.1398699 2.481308 -0.73703796
2.1454563 2.4571362 -0.73357701
2.1637146 2.447571 -0.73473066
2.1890731 2.4458504 -0.73842233
2.2027328 2.4309301 -0.73796088
2.2215533 2.4216712 -0.73934525
2.2502739 2.4229684 -0.74419051
2.2677643 2.4119513 -0.74511343
2.2845335 2.4001057 -0.74580562
2.2917914 2.3783348 -0.7432676
2.3036239 2.3614416 -0.74234468
2.3098667 2.3389535 -0.73957598
2.3221111 2.3226719 -0.73888379
2.3404715 2.3124835 -0.74026817
2.3539202 2.2973995 -0.74003744
2.3728755 2.2876408 -0.74165249
2.3939128 2.2797492 -0.74395978
2.4021869 2.2596834 -0.74211395
2.4110177 2.2402644 -0.7404989
2.4318862 2.2320087 -0.74280614
2.4462566 2.2176986 -0.74303687
2.4619925 2.2045944 -0.74372905
2.4798458 2.1933146 -0.74511343
2.4917917 2.1767769 -0.74465197
2.5109942 2.1665323 -0.74649781
2.5331266 2.1586587 -0.74926656
2.5440912 2.1411951 -0.74857438
2.5549369 2.1236784 -0.74788219
2.5656633 2.1061091 -0.74719
2.5777822 2.0897141 -0.74695927
2.5867581 2.070817 -0.74580562
2.6009421 2.056113 -0.74626708
2.6020055 2.0311329 -0.74280614
2.6198134 2.0192878 -0.74442124
2.6398964 2.0090685 -0.74672854
2.652174 1.9928325 -0.74672854
2.6698217 1.9805803 -0.74834365
2.682709 1.9647363 -0.74857438
2.6907716 1.9453876 -0.74742073
2.709785 1.9339287 -0.74949729
2.7231913 1.9183863 -0.74995875
2.7277217 1.8966409 -0.74788219
2.7449234 1.8837228 -0.74949729
2.7628746 1.8712106 -0.75134313
2.7726862 1.8531412 -0.75088167
2.788878 1.8393083 -0.75226605
2.7984803 1.8210998 -0.75180459
2.8055081 1.8012654 -0.75065094
2.8214393 1.7871417 -0.75203532
2.8249257 1.7651547 -0.74995875
2.831562 1.7452348 -0.74880511
2.8438799 1.7288389 -0.74926656
2.8494277 1.7083541 -0.74788219
2.8606939 1.6913335 -0.74811292
2.8634529 1.6693374 -0.74603635
2.8652065 1.6468862 -0.74372905
2.8879552 1.6364717 -0.74719
2.8911467 1.614924 -0.74534416
2.9078197 1.6009089 -0.74719
2.917588 1.5830367 -0.74719
2.9272463 1.5651048 -0.74719
2.9505675 1.554372 -0.75088167
2.9591858 1.53579 -0.75065094
2.9564252 1.5114017 -0.74742073
2.9673812 1.4941083 -0.74788219
2.966033 1.4706845 -0.74511343
2.9715037 1.4507496 -0.74419051
2.9829803 1.4337544 -0.7448827
2.9838059 1.4116781 -0.74280614
3.0038781 1.398684 -0.74580562
3.0177109 1.3826586 -0.74719
3.0385561 1.3697158 -0.75042021
3.0477929 1.3514404 -0.75065094
3.0640545 1.3362155 -0.75272751
3.0668302 1.3150883 -0.75134313
3.0694623 1.2939773 -0.74995875
3.0674567 1.2710208 -0.74742073
3.0661867 1.2485048 -0.74511343
3.0737896 1.2296674 -0.74511343
3.0767488 1.209004 -0.74395978
3.0832016 1.1897523 -0.74372905
3.0995424 1.17426 -0.74603635
3.1030414 1.1538626 -0.74511343
3.1237733 1.1398054 -0.74857438
3.1352885 1.122257 -0.74972802
3.1347711 1.1004189 -0.74788219
3.1460643 1.0827473 -0.74903584
3.1720095 1.0699563 -0.75388116
3.1738956 1.0489458 -0.75272751
3.2015631 1.0363461 -0.75803429
3.201369 1.0146235 -0.75641918
3.2168274 0.99784505 -0.75872648
3.2228897 0.9780882 -0.75872648
3.2176371 0.95497102 -0.75595772
3.2271738 0.93629491 -0.75688064
3.2244332 0.91408628 -0.75480407
3.2159157 0.89038819 -0.75134313
3.2316506 0.87343276 -0.75388116
3.2378898 0.85383552 -0.75411189
3.23176 0.83104289 -0.75134313
3.2509553 0.81474727 -0.75480407
3.2436054 0.79178333 -0.75180459
3.2493491 0.77209109 -0.75203532
3.2654014 0.7547698 -0.75480407
3.2690217 0.73450601 -0.75457335
3.2772696 0.7152642 -0.75549626
3.2815967 0.69514179 -0.75549626
3.2829409 0.67440552 -0.75480407
3.2784288 0.65253854 -0.75272751
3.2861927 0.633147 -0.75365043
3.2804503 0.61118805 -0.75134313
3.2841387 0.59104812 -0.75134313
3.2848275 0.57038617 -0.75065094
3.3055394 0.55311257 -0.75480407
3.3107922 0.53312933 -0.75526553
3.3149626 0.51295358 -0.75549626
3.3238223 0.49346173 -0.75688064
3.3306408 0.47360623 -0.75780356
3.3334842 0.45316088 -0.75780356
3.3381319 0.43294901 -0.75826502
3.3291373 0.41102639 -0.75549626
3.324832 0.38979757 -0.75388116
3.3145895 0.36799219 -0.75088167
3.3129141 0.34724113 -0.74995875
3.3188555 0.32728937 -0.75088167
3.3169258 0.30656046 -0.74995875
3.3264997 0.28687212 -0.75180459
3.332077 0.26676676 -0.75272751
3.3375325 0.24660376 -0.75365043
3.3399537 0.22618625 -0.75388116
3.3403075 0.20562853 -0.75365043
3.3434494 0.1852368 -0.75411189
3.3386919 0.16443042 -0.75272751
3.3328333 0.1436474 -0.7511124
3.3355966 0.12326692 -0.75157386
3.323647 0.10240671 -0.74857438
3.3251855 0.082035385 -0.74880511
3.3168707 0.061467592 -0.74672854
3.3152394 0.041090153 -0.74626708
3.3251591 0.02080949 -0.74857438
3.3359275 0.00040887445 -0.7511124
3.3397591 -0.020082947 -0.75203532
3.3444378 -0.040633481 -0.75318897
3.3450983 -0.061171476 -0.7534197
3.3475783 -0.081766397 -0.75411189
3.347986 -0.10233483 -0.75434262
3.3317373 -0.12230647 -0.75065094
3.3318963 -0.14278887 -0.75088167
3.3358166 -0.16346785 -0.75203532
3.3298931 -0.1836656 -0.75088167
3.3355019 -0.20451002 -0.75249678
3.3293302 -0.22464547 -0.75134313
3.3298299 -0.24521232 -0.75180459
3.3399019 -0.26656675 -0.75457335
3.3246312 -0.28588948 -0.75134313
3.3179698 -0.30583769 -0.75018948
3.3237774 -0.32695171 -0.75203532
3.3139668 -0.34653124 -0.75018948
3.3282192 -0.36867812 -0.75411189
3.3200955 -0.38841504 -0.75272751
3.3176498 -0.40877947 -0.75272751
3.3179741 -0.42950287 -0.7534197
3.3123837 -0.44946134 -0.75272751
3.3057101 -0.46923077 -0.75180459
3.3172064 -0.49164349 -0.75526553
3.3083575 -0.51109755 -0.75388116
3.3118842 -0.53246802 -0.75549626
3.3047156 -0.55213845 -0.75457335
3.2983894 -0.57190704 -0.75388116
3.2957759 -0.59230679 -0.75411189
3.2920794 -0.61251813 -0.75411189
3.2739265 -0.62995034 -0.75065094
3.2642734 -0.64888936 -0.74926656
3.2640431 -0.66968817 -0.75018948
3.2370253 -0.68487227 -0.74465197
3.2413185 -0.70658559 -0.74672854
3.2388208 -0.72688657 -0.74719
3.2418845 -0.74849617 -0.74903584
3.2542722 -0.77241665 -0.75318897
3.2494714 -0.79236996 -0.75318897
3.2511559 -0.81394678 -0.75480407
3.2470429 -0.83412218 -0.7550348
3.2343361 -0.85204786 -0.75318897
3.2309258 -0.87238437 -0.75365043
3.2170718 -0.8898589 -0.75157386
3.2171686 -0.91117197 -0.75295824
3.2133863 -0.9314366 -0.7534197
3.2066777 -0.95085949 -0.75318897
3.211026 -0.9736219 -0.75572699
0 -0 -0
3.2062576 -1.0153019 -0.75757283
3.2008932 -1.0352553 -0.75780356
3.1898608 -1.0533512 -0.75664991
3.1778049 -1.07104 -0.75526553
3.1720936 -1.0908349 -0.75549626
3.1680954 -1.1112437 -0.75618845
3.1465578 -1.1254206 -0.75249678
3.1386788 -1.1443732 -0.75226605
3.1306858 -1.1632714 -0.75203532
3.1289494 -1.1845254 -0.7534197
3.1188986 -1.202652 -0.75272751
3.1042149 -1.2189224 -0.75088167
3.1057127 -1.2415574 -0.75318897
3.1079504 -1.264623 -0.75572699
3.0965362 -1.2821807 -0.75480407
3.0957844 -1.3041778 -0.75664991
3.0778854 -1.318934 -0.75411189
3.0715189 -1.3385719 -0.75457335
3.0668063 -1.3589696 -0.75549626
3.0575228 -1.377362 -0.75526553
3.0587459 -1.4005516 -0.75780356
3.0492125 -1.4188828 -0.75757283
3.0413287 -1.4379816 -0.75780356
3.0271854 -1.4540886 -0.75641918
2.9954686 -1.4615448 -0.75042021
2.9768534 -1.4751459 -0.74788219
2.9616616 -1.4903228 -0.74626708
2.9420629 -1.5031561 -0.74349833
2.9310567 -1.5202841 -0.74303687
2.9294226 -1.5423189 -0.74511343
2.919904 -1.5602645 -0.74511343
2.922251 -1.5846435 -0.74834365
2.9184406 -1.605827 -0.74995875
2.9144802 -1.6270233 -0.75157386
2.9171429 -1.6520666 -0.7550348
2.9086387 -1.6709039 -0.75549626
2.8932867 -1.685781 -0.75411189
2.8786998 -1.7010276 -0.75295824
2.8648694 -1.7166588 -0.75203532
2.8526189 -1.7331948 -0.75157386
2.8328171 -1.7450529 -0.74903584
2.8303099 -1.767555 -0.75134313
2.8161223 -1.7828068 -0.75042021
2.8092251 -1.8026795 -0.75157386
2.8070843 -1.8257172 -0.75411189
2.7917666 -1.8402297 -0.75295824
2.7844687 -1.8600271 -0.75411189
2.7802558 -1.8819853 -0.75618845
2.7622361 -1.8946069 -0.75434262
2.7417691 -1.905413 -0.75180459
2.7308216 -1.9227604 -0.75203532
2.7189724 -1.9394802 -0.75203532
2.7062321 -1.9555572 -0.75180459
2.6996787 -1.9761479 -0.7534197
2.6914108 -1.9955728 -0.75457335
2.6853402 -2.0167232 -0.75641918
2.6744645 -2.0343401 -0.75688064
2.6619315 -2.0507121 -0.75688064
2.6400919 -2.0598254 -0.75411189
2.6281669 -2.0765891 -0.75434262
2.6222141 -2.0981464 -0.75641918
2.5843403 -2.0939851 -0.74880511
2.5721955 -2.11042 -0.74903584
2.5509641 -2.1193242 -0.74649781
2.5408909 -2.1374419 -0.74742073
2.535877 -2.1599317 -0.74995875
2.5262609 -2.1786275 -0.7511124
2.5194426 -2.1998463 -0.75318897
2.5088136 -2.2178414 -0.75411189
2.4973333 -2.2351398 -0.75480407
2.4835715 -2.2504213 -0.75480407
2.4697165 -2.2656178 -0.75480407
2.4550555 -2.280067 -0.75457335
2.4332204 -2.2877572 -0.75203532
2.4268906 -2.3100226 -0.75457335
2.4133716 -2.3255453 -0.75480407
2.3858218 -2.3274016 -0.75042021
2.376343 -2.3467824 -0.75203532
2.3605225 -2.3599436 -0.75157386
2.3459976 -2.374383 -0.75157386
2.3402207 -2.3977845 -0.75457335
2.3288412 -2.4156005 -0.75572699
2.3193443 -2.4354811 -0.75757283
2.3063571 -2.4517922 -0.75826502
2.2912698 -2.4658978 -0.75826502
2.274122 -2.4777598 -0.75757283
2.2549543 -2.4873424 -0.75618845
2.2390008 -2.5004067 -0.75595772
2.2203927 -2.5104542 -0.75480407
2.2030263 -2.5218327 -0.75411189
2.1932328 -2.5419323 -0.75618845
2.1719136 -2.5486774 -0.75411189
2.1562345 -2.5619562 -0.75411189
2.1386077 -2.5728936 -0.7534197
2.1196933 -2.5822074 -0.75226605
2.1050348 -2.5966766 -0.75272751
2.0921032 -2.6133416 -0.75388116
2.0802534 -2.6314719 -0.75549626
2.0658643 -2.6464875 -0.75618845
0 -0 -0
2.04443 -2.6863496 -0.76057231
2.0325851 -2.7050662 -0.76241815
2.0095711 -2.7088916 -0.75988013
2.0026867 -2.734515 -0.76380253
1.9841599 -2.7443864 -0.76311034
1.9604994 -2.7470062 -0.76034158
1.9413652 -2.7558022 -0.75941867
1.9116414 -2.7492895 -0.75411189
1.893084 -2.7585609 -0.7534197
0 -0 -0
1.8677421 -2.7945266 -0.75711137
1.8510958 -2.8067465 -0.7573421
1.8359623 -2.8213136 -0.75826502
1.8138844 -2.8251574 -0.75618845
1.7923493 -2.8296585 -0.75434262
1.7775316 -2.8447285 -0.75549626
1.7493199 -2.8381882 -0.75065094
1.7268168 -2.8405545 -0.74834365
1.7158606 -2.8619447 -0.75134313
1.6997536 -2.8749316 -0.75203532
1.67767 -2.8777421 -0.74995875
1.6643459 -2.8955739 -0.75203532
1.6460677 -2.9048851 -0.75180459
1.6315349 -2.9208763 -0.7534197
1.6117046 -2.927423 -0.75249678
1.5927836 -2.9355469 -0.75203532
1.580707 -2.9564188 -0.7550348
1.5593617 -2.9600365 -0.7534197
1.5452048 -2.9773211 -0.75549626
1.5295652 -2.9919441 -0.75688064
1.5085521 -2.9960589 -0.75549626
1.4901402 -3.0052588 -0.75549626
1.4716722 -3.0143456 -0.75549626
1.4586298 -3.034719 -0.75849575
1.440398 -3.0444913 -0.75872648
1.4274417 -3.0656207 -0.76195669
1.4106317 -3.0787442 -0.76311034
1.394914 -3.0944378 -0.76495618
1.3727444 -3.095823 -0.76311034
1.3502215 -3.0961611 -0.76103377
1.3277463 -3.0963395 -0.75895721
1.3075882 -3.1017385 -0.75826502
1.2870414 -3.106108 -0.7573421
1.2613516 -3.0977261 -0.75318897
1.254612 -3.1361217 -0.76103377
1.2268023 -3.1220274 -0.75549626
1.2058709 -3.1249573 -0.75434262
1.1846048 -3.1268384 -0.75295824
1.1586119 -3.115809 -0.74834365
1.1428081 -3.1319997 -0.75065094
1.1252091 -3.143533 -0.75180459
1.1097683 -3.1613948 -0.75457335
1.089716 -3.1663046 -0.75411189
1.0687119 -3.1683216 -0.75295824
1.0477241 -3.1702003 -0.75180459
1.0246552 -3.1654611 -0.74903584
1.0063893 -3.1753988 -0.74995875
0.98429102 -3.1731503 -0.74788219
0.96649849 -3.1847165 -0.74926656
0.94860101 -3.1961834 -0.75065094
0.92842925 -3.2000749 -0.75018948
0.90930748 -3.2075834 -0.75065094
0.89038819 -3.2159157 -0.75134313
0.8686071 -3.2138042 -0.74949729
0.84787834 -3.2153101 -0.74857438
0.82837605 -3.2213943 -0.74880511
0.80717444 -3.2207537 -0.74742073
0.78785878 -3.2275362 -0.74788219
0.77006567 -3.2408295 -0.74995875
0.74950808 -3.2426496 -0.74926656
0.73173159 -3.2566805 -0.75157386
0.71339595 -3.268714 -0.7534197
0.69029975 -3.2587516 -0.74995875
0.67342597 -3.2781754 -0.75365043
0.65234852 -3.2774744 -0.75249678
0.63204181 -3.2804601 -0.75226605
0.6131497 -3.2909722 -0.75388116
0.59346253 -3.2975452 -0.75457335
0.57371771 -3.3040006 -0.75526553
0.55327326 -3.306499 -0.7550348
0.53189093 -3.3031073 -0.7534197
0.51042223 -3.2986162 -0.75157386
0.48831365 -3.2891741 -0.74857438
0.46729988 -3.2863286 -0.74719
0.44607711 -3.2814209 -0.74534416
0.42518273 -3.2783067 -0.74395978
0.40613347 -3.2895448 -0.74603635
0.38696226 -3.3006723 -0.74811292
0.36756226 -3.3107212 -0.74995875
0.34845969 -3.3245265 -0.75272751
0.32862782 -3.332412 -0.75411189
0.30817434 -3.3343656 -0.75411189
0.28770927 -3.3361938 -0.75411189
0.26723334 -3.3378963 -0.75411189
0.24660376 -3.3375325 -0.75365043
0.2261204 -3.3389828 -0.75365043
0.20544882 -3.337394 -0.75295824
0.18491316 -3.3376203 -0.75272751
0.16438244 -3.3377202 -0.75249678
0.14368942 -3.3338053 -0.75134313
0.1234832 -3.3414307 -0.75295824
0.10270752 -3.3333726 -0.75088167
0.082276508 -3.3349128 -0.7511124
0.062066332 -3.3489747 -0.75434262
0.041479718 -3.3463736 -0.75365043
0.021032829 -3.3601871 -0.75688064
0.00041704721 -3.369983 -0.75918794
-0.020255052 -3.3689492 -0.75895721
-0.040891033 -3.3658426 -0.75826502
-0.061595716 -3.3684468 -0.75895721
-0.082002856 -3.3573055 -0.75641918
-0.10221637 -3.3440957 -0.7534197
-0.12294692 -3.3492398 -0.75480407
-0.14374444 -3.3542552 -0.75618845
-0.16413301 -3.3494227 -0.75526553
-0.18478854 -3.3502955 -0.75572699
-0.20599584 -3.359782 -0.75826502
-0.22614947 -3.3516591 -0.75664991
-0.24663925 -3.3492379 -0.75641918
-0.26710784 -3.3466916 -0.75618845
-0.28638899 -3.3304479 -0.75272751
-0.30744323 -3.3354104 -0.75434262
-0.32695171 -3.3237774 -0.75203532
-0.34733987 -3.3217089 -0.75203532
-0.36814302 -3.3233836 -0.75295824
-0.38762441 -3.3133307 -0.7511124
-0.40913609 -3.3205471 -0.7534197
-0.4291285 -3.3150792 -0.75272751
-0.44946134 -3.3123837 -0.75272751
-0.47046044 -3.3143804 -0.75388116
-0.49221367 -3.3210566 -0.75618845
-0.5121367 -3.315089 -0.75549626
-0.53200501 -3.3090019 -0.75480407
-0.55133724 -3.299917 -0.7534197
-0.5705781 -3.2907195 -0.75203532
-0.58972681 -3.2814105 -0.75065094
-0.61287391 -3.2939928 -0.75457335
-0.6349113 -3.2997253 -0.75688064
-0.65647328 -3.302448 -0.75849575
-0.67672431 -3.2983577 -0.75849575
-0.69735253 -3.2960474 -0.75895721
-0.71714932 -3.2898049 -0.75849575
-0.73838645 -3.2900898 -0.7596494
-0.75440329 -3.2674832 -0.75526553
-0.77106905 -3.2485917 -0.75180459
-0.79167873 -3.2466354 -0.75249678
-0.80969524 -3.2341654 -0.75065094
-0.83025038 -3.2319636 -0.75134313
-0.85080904 -3.2296314 -0.75203532
-0.8711167 -3.226229 -0.75249678
-0.89193326 -3.2245743 -0.7534197
-0.9117021 -3.2190409 -0.7534197
-0.93062425 -3.2105825 -0.75272751
-0.95058298 -3.2057447 -0.75295824
-0.97164631 -3.2045076 -0.75411189
-0.98725939 -3.1854732 -0.75088167
-1.0061992 -3.1775002 -0.75042021
-1.0259764 -3.1721923 -0.75065094
-1.0472512 -3.1713812 -0.75203532
-1.0648268 -3.1593633 -0.75065094
-1.0813454 -3.1444886 -0.74857438
-1.102873 -3.1442218 -0.75018948
-1.1185415 -3.1273172 -0.74765146
-0 -0 -0
-1.1612386 -3.1252131 -0.75065094
-1.1810814 -3.1198492 -0.7511124
-1.2054517 -3.1261621 -0.75457335
-1.227455 -3.1259525 -0.75641918
-1.2466124 -3.1183622 -0.75641918
-1.2664561 -3.112457 -0.75688064
-1.2799479 -3.0911419 -0.7534197
-1.3102201 -3.1101325 -0.76034158
-1.3285127 -3.1002457 -0.75988013
-1.3498422 -3.097388 -0.7612645
-1.3684279 -3.0881574 -0.76103377
-1.3845538 -3.0734925 -0.75941867
-1.4050063 -3.0684781 -0.76034158
-1.420114 -3.0518591 -0.75826502
-1.439229 -3.0439677 -0.75849575
-1.4566157 -3.0324483 -0.75780356
-1.4769014 -3.0269516 -0.75872648
-1.499334 -3.0256796 -0.76080304
-1.5261791 -3.0329382 -0.76518691
-1.5341378 -3.0027199 -0.7596494
-1.553877 -2.9958415 -0.76034158
-1.5731363 -2.9879727 -0.76080304
-1.5905236 -2.9765475 -0.76034158
-1.6133946 -2.9752862 -0.76264888
-1.6325582 -2.9670358 -0.76311034
-1.6464652 -2.9493158 -0.76103377
-1.6674073 -2.9442382 -0.76241815
-1.6839876 -2.9314203 -0.76172596
-1.7034121 -2.9235549 -0.76241815
-1.723793 -2.9172366 -0.7635718
-1.7406603 -2.9049354 -0.76311034
-1.7579467 -2.8933685 -0.76287961
-1.7741363 -2.8800418 -0.76218742
-1.7886827 -2.8641496 -0.76080304
-1.8083045 -2.8564093 -0.76172596
-1.8273734 -2.847717 -0.76241815
-1.8453426 -2.8372664 -0.76264888
-1.8686066 -2.8348274 -0.76518691
-1.8924502 -2.8330185 -0.76795566
-1.9065256 -2.8165183 -0.76657128
-1.9320257 -2.8168042 -0.77003217
-1.9487177 -2.8040974 -0.76980144
-1.9563652 -2.7785611 -0.76587909
-1.9858062 -2.7839334 -0.77095509
-1.996583 -2.7630203 -0.76841712
-2.0140736 -2.7515028 -0.76864785
-2.0297596 -2.7375295 -0.76818639
-2.0365868 -2.7117958 -0.76426399
-2.0602555 -2.7085426 -0.76703274
-2.0774298 -2.6966209 -0.76726347
-2.0939369 -2.6838233 -0.76726347
-2.10554 -2.6648164 -0.76541764
-2.1121264 -2.6396899 -0.76172596
-2.1386952 -2.6395335 -0.76564837
-2.1517653 -2.6225996 -0.76449472
-2.1684387 -2.6100957 -0.76472545
-2.188797 -2.601954 -0.76634055
-2.2015669 -2.5847707 -0.76518691
-2.2186561 -2.5726874 -0.76564837
-2.2273612 -2.5509624 -0.76311034
-2.2410386 -2.5350604 -0.76241815
-2.2526584 -2.5169113 -0.76103377
-2.2641399 -2.4987152 -0.7596494
-2.2814021 -2.4869268 -0.76034158
-2.2972808 -2.4735947 -0.76057231
-2.3177466 -2.4651239 -0.76241815
-2.3247795 -2.4423976 -0.7596494
-2.3336463 -2.4217806 -0.75757283
-2.3437066 -2.40254 -0.75595772
-2.3529351 -2.3825748 -0.75411189
-2.3620071 -2.362587 -0.75226605
-2.3750751 -2.3466816 -0.75180459
-2.3796818 -2.3225484 -0.74857438
-2.3931875 -2.3072278 -0.74834365
-2.4037764 -2.2891445 -0.74719
-2.4071474 -2.2643507 -0.74372905
-2.4224215 -2.2508628 -0.74419051
-2.4318862 -2.2320087 -0.74280614
-2.4440942 -2.2157376 -0.74234468
-2.4554691 -2.1987517 -0.74165249
-2.4616265 -2.1771967 -0.73934525
-2.4690776 -2.1569295 -0.73749942
-2.4778461 -2.1379247 -0.73611504
-2.4842529 -2.1169999 -0.73403847
-2.4919851 -2.0973306 -0.73242337
-2.4958289 -2.0745358 -0.72965461
-2.5002389 -2.0523906 -0.72711658
-2.5074947 -2.0327208 -0.72550148
-2.5138438 -2.0124314 -0.72365564
-2.5406461 -2.0084357 -0.7280395
-2.5375831 -1.9808325 -0.72342491
-2.5504601 -1.9658189 -0.72365564
-2.5593772 -1.9477751 -0.72273272
-2.5673912 -1.9291115 -0.72157907
-2.569803 -1.9063641 -0.71881032
-2.579097 -1.8888352 -0.71811813
-2.5874844 -1.8706939 -0.71719521
-2.5933704 -1.8508248 -0.71558011
-2.6078596 -1.8371192 -0.71650302
-2.6158876 -1.8188609 -0.71558011
-2.6221855 -1.7994719 -0.71419573
-2.6299551 -1.7811656 -0.71327281
-2.6359813 -1.7617503 -0.71188849
-2.6345584 -1.7375062 -0.70842755
-2.6345687 -1.7144076 -0.70542806
-2.63767 -1.6934777 -0.7033515
-2.6373262 -1.6704916 -0.70035201
-2.6425757 -1.6511836 -0.69896764
-2.6501727 -1.633406 -0.69827545
-2.6518314 -1.6120586 -0.69596815
-2.6658454 -1.5982592 -0.6971218
-2.6705768 -1.5789 -0.69573742
-2.671809 -1.5575824 -0.69343013
-2.6745675 -1.5372792 -0.69158429
-2.6822567 -1.5198798 -0.69112283
-2.6923816 -1.5038679 -0.69135356
-2.7024107 -1.4877887 -0.69158429
-2.7149096 -1.4730356 -0.69250721
-2.7264707 -1.4577261 -0.6931994
-2.7293382 -1.4377941 -0.69158429
-2.7329276 -1.4183302 -0.69019991
-2.7372472 -1.3993195 -0.68904626
-2.7405677 -1.3798716 -0.68766189
-2.7393942 -1.358274 -0.68512392
-2.7441795 -1.3397319 -0.684201
-2.7541022 -1.323712 -0.68466246
-2.754257 -1.3030421 -0.6825859
-2.7604363 -1.2852961 -0.68212444
-2.7638481 -1.2663072 -0.68097079
-2.7689049 -1.2481247 -0.6802786
-2.77829 -1.2319007 -0.68074006
-2.7893641 -1.2163864 -0.68166298
-2.7851503 -1.1942618 -0.67866349
-0.25785315 -0.10831242 -0.026392344
-0.26480493 -0.10933624 -0.028007448
-0.273581 -0.11101283 -0.03008401
-0.274257 -0.10933208 -0.03008401
-0.2830728 -0.1108509 -0.032160573
-0.2728548 -0.10490709 -0.029391823
-0.28441179 -0.10736882 -0.032160573
-0.27412164 -0.10155084 -0.029391823
-0 -0 -0
-0 -0 -0
-0 -0 -0
-0 -0 -0
-0 -0 -0
-0 -0 -0
-0 -0 -0
-0 -0 -0
-0 -0 -0
-0 -0 -0
-0 -0 -0
-0 -0 -0
-0 -0 -0
-0 -0 -0
-0 -0 -0
-0 -0 -0
-0 -0 -0
-0 -0 -0
-0 -0 -0
-0 -0 -0
-0 -0 -0
-0 -0 -0
-0 -0 -0
-0 -0 -0
-0 -0 -0
-0 -0 -0
-0 -0 -0
-0 -0 -0
-0 -0 -0
-0 -0 -0
-0 -0 -0
-0 -0 -0
-0 -0 -0
-0 -0 -0
-0 -0 -0
-0 -0 -0
-0 -0 -0
-0 -0 -0
-0 -0 -0
-0.2751084 -0.030181678 -0.025700158
-0.27625611 -0.028594621 -0.025930885
-0.27642635 -0.026899006 -0.025930885
-0.2765862 -0.02520238 -0.025930885
-0.27673563 -0.023504805 -0.025930885
-0.27687463 -0.021806344 -0.025930885
-0.27894396 -0.020250687 -0.026392344
-0.28003377 -0.018604595 -0.026623074
-0.27334443 -0.016466696 -0.025007971
-0 -0 -0
-0.28032875 -0.013446938 -0.026623074
-0.29207131 -0.012230776 -0.029391823
-0 -0 -0
-0 -0 -0
-0.28203672 0.019737639 -0.030628446
-0.2848112 0.021700783 -0.031356752
-0.28757212 0.02369871 -0.032085057
-0.28935319 0.025641808 -0.032570597
-0.28436351 0.02693955 -0.031356752
-0 0 -0
-0.28111911 0.030105252 -0.030628446
-0.27514836 0.031150423 -0.029171836
-0.27591479 0.032957219 -0.029414605
-0 0 -0
-0.277412 0.03660246 -0.029900141
-0.28294453 0.039124779 -0.031356752
-0.28269914 0.040860157 -0.031356752
-0.28052583 0.042296834 -0.030871216
-0.27930331 0.043862849 -0.030628446
-0.27328846 0.04461379 -0.029171836
-0.26918659 0.045625009 -0.028200762
-0.26508278 0.046587594 -0.027229687
-0.26097742 0.047501564 -0.026258614
-0 0 -0
-0.26227757 0.051079795 -0.02674415
-0.26290941 0.05288358 -0.026986919
-0.27017179 0.056105908 -0.028929068
-0 0 -0
-0 0 -0
-0.2700384 0.061288081 -0.029171836
-0.2687135 0.062719353 -0.028929068
-0.26738125 0.064136691 -0.028686298
-0.26886454 0.066248223 -0.029171836
-0.268453 0.067896694 -0.029171836
-0.27365908 0.071028151 -0.030628446
-0.27509093 0.073212631 -0.031113984
-0.27463654 0.074899182 -0.031113984
-0.27510503 0.076847717 -0.031356752
-0.27649152 0.079075351 -0.031842291
-0.2750712 0.080494136 -0.031599522
-0.27364391 0.081898481 -0.031356752
-0.27313623 0.083575986 -0.031356752
-0.27354297 0.085543662 -0.031599522
-0.27393579 0.087519467 -0.031842291
-0.27523565 0.089807935 -0.032327827
-0.2783559 0.092736192 -0.033298902
-0.27503005 0.093494654 -0.032570597
-0.27536643 0.095501989 -0.032813363
-0.27203548 0.096208356 -0.032085057
-0.27052882 0.097542971 -0.031842291
-0.27083439 0.099539407 -0.032085057
-0.27112561 0.10154325 -0.032327827
-0.26959249 0.10285547 -0.032085057
-0.27076188 0.10521774 -0.032570597
-0.27101177 0.10723766 -0.032813363
-0.27124706 0.1092646 -0.033056132
-0.2696754 0.11055532 -0.032813363
-0.26720434 0.11145382 -0.032327827
-0.26473251 0.11232618 -0.031842291
-0.26492742 0.11433644 -0.032085057
-0.26776773 0.11753363 -0.033056132
-0.26615724 0.11877553 -0.032813363
-0.26454163 0.12000211 -0.032570597
-0.26292101 0.12121335 -0.032327827
-0.26480266 0.12406959 -0.033056132
-0.26753333 0.12737389 -0.034027208
-0.26500347 0.12816142 -0.033541668
-0.2642121 0.12978503 -0.033541668
-0.26514345 0.13227673 -0.034027208
-0.26259953 0.13301755 -0.033541668
-0.26177841 0.13462633 -0.033541668
-0.26008928 0.13577768 -0.033298902
-0.25839588 0.13691339 -0.033056132
-0.26266623 0.14127341 -0.034512743
-0.26604286 0.14522281 -0.035726588
-0.26938081 0.14921887 -0.036940429
-0.27183565 0.15278283 -0.037911505
-0.27089307 0.1544479 -0.037911505
-0.26994032 0.15610716 -0.037911505
-0.26647258 0.15627879 -0.037183199
-0.2621811 0.15591477 -0.036212124
-0.2612195 0.15752055 -0.036212124
-0.25611958 0.15657438 -0.034998283
-0.25762171 0.15968573 -0.035726588
-0.25909519 0.16282135 -0.036454894
-0.25564271 0.16283512 -0.035726588
-0.25870353 0.16704722 -0.036940429
-0.25929305 0.16970003 -0.037425965
-0.2582469 0.17128782 -0.037425965
-0.25719103 0.17286918 -0.037425965
-0.25612551 0.174444 -0.037425965
-0.25664297 0.17712028 -0.037911505
-0.25872302 0.18092719 -0.03888258
-0.25997645 0.18420248 -0.039610885
-0.26041329 0.18693133 -0.040096421
-0.26239139 0.19081917 -0.041067496
-0.26277354 0.19358192 -0.041553032
-0.26235619 0.19577356 -0.041795801
-0.25806278 0.19502893 -0.040824726
-0.25455669 0.19483148 -0.040096421
-0.25106278 0.19459841 -0.039368115
-0.24910317 0.19553345 -0.039125346
-0.24865587 0.19766469 -0.039368115
-0.24819176 0.19979776 -0.039610885
-0.24995978 0.20377965 -0.040581957
-0.25616336 0.21151236 -0.043009643
-0.25708684 0.2149547 -0.043737948
-0.25945407 0.21967505 -0.044951793
-0.26324153 0.22570023 -0.04665117
-0.26477337 0.22986479 -0.047622245
-0.26844338 0.23598517 -0.049321625
-0 0 -0
-0.26768288 0.24121682 -0.050049931
-0 0 -0
-0 0 -0
-0 0 -0
-0 0 -0
-0 0 -0
-0 0 -0
-0 0 -0
-0 0 -0
-0 0 -0
-0 0 -0
-0 0 -0
-0 0 -0
-0 0 -0
-0 0 -0
-0 0 -0
-0 0 -0
-0 0 -0
-0 0 -0
-0 0 -0
-0 0 -0
-0 0 -0
-0 0 -0
-0 0 -0
-0 0 -0
-0 0 -0
-0 0 -0
-2.0591779 2.6055737 -0.7909795
-0 0 -0
-0 0 -0
-0 0 -0
-0 0 -0
-0 0 -0
-1.9670339 2.6866469 -0.79316443
-0 0 -0
-1.9237798 2.6963651 -0.78879464
-1.9021745 2.7009785 -0.78660971
-1.8861191 2.7133958 -0.78685248
-1.865595 2.719317 -0.78515309
-1.8477873 2.7291059 -0.78466755
-0 0 -0
-1.812023 2.7483354 -0.78369647
-1.7903671 2.7520819 -0.78151155
-1.7718757 2.7605658 -0.78078324
-1.7517918 2.7664671 -0.77932662
-1.7332431 2.7746952 -0.77859831
-1.7131338 2.7803214 -0.77714175
-1.6925172 2.7849765 -0.77544236
-1.6763939 2.7969735 -0.7759279
-1.6616669 2.8113835 -0.77714175
-1.6424327 2.8181732 -0.77617067
-1.6275247 2.8324044 -0.77738452
-1.612504 2.8465586 -0.77859831
-1.5950075 2.8563991 -0.77859831
-1.581658 2.8737824 -0.78078324
-1.5663061 2.8876977 -0.78199708
-1.5499289 2.899821 -0.78272539
-1.536624 2.9178617 -0.78515309
-1.5227094 2.9349864 -0.78733802
-1.5055543 2.9460022 -0.78782356
-1.4870138 2.954318 -0.78758079
-1.4667058 2.9590399 -0.78636694
-1.4489471 2.9688559 -0.78660971
-1.4281844 2.9724433 -0.78515309
-1.4074323 2.9758878 -0.78369647
-1.3866918 2.9791899 -0.78223985
-1.3651565 2.9805856 -0.7802977
-1.3472406 2.9897904 -0.78054047
-1.3280846 2.9962265 -0.78005493
-1.3135484 3.0132132 -0.78248262
-1.2927438 3.0158658 -0.78102601
-1.2760965 3.0282116 -0.78223985
-1.2545245 3.0288134 -0.7802977
-1.23007 3.0220759 -0.77641344
-1.2082649 3.0214586 -0.77422851
-1.1833247 3.0125606 -0.76985866
-1.1595858 3.0061865 -0.76621711
-1.1414616 3.0141523 -0.76645988
-1.1239586 3.0238278 -0.76718819
-1.1100326 3.0434279 -0.77058697
-1.0913376 3.0501819 -0.77058697
-1.0793395 3.0760458 -0.77568513
-1.053825 3.0633445 -0.77058697
-1.0433681 3.0945754 -0.77714175
-1.0179774 3.0815732 -0.77204359
-0.99636537 3.0794537 -0.76985866
-0.97979248 3.0929084 -0.77180082
-0.95936155 3.0942287 -0.77058697
-0.93979514 3.0982003 -0.77010143
-0.91801172 3.0946071 -0.76767373
-0.89441895 3.084341 -0.76354671
-0.87600523 3.0916381 -0.76403224
-0.85624361 3.0941498 -0.76330394
-0.83800012 3.1021552 -0.76403224
-0.81771541 3.1025479 -0.7628184
-0.80131561 3.1178429 -0.76548886
-0.78287584 3.1255243 -0.76621711
-0.76712704 3.144407 -0.76985866
-0.74893785 3.1537743 -0.77107251
-0.72913653 3.1564198 -0.77058697
-0.71230173 3.1721935 -0.7735002
-0.69901562 3.2049406 -0.78078324
-0 0 -0
-0 0 -0
-0.064700678 0.31990266 -0.041553032
-0 0 -0
-0.60728693 3.2620714 -0.79025126
-0 0 -0
-0 0 -0
-0 0 -0
-0 0 -0
-0.042919934 0.27061337 -0.02844353
-0 0 -0
-0.45400247 3.1958129 -0.76767373
-0 0 -0
-0 0 -0
-0 0 -0
-0.375774 3.2088828 -0.76840204
-0.35426593 3.1947365 -0.76427501
-0.33485803 3.1987798 -0.76476055
-0.31342459 3.1824307 -0.76014793
-0.29291484 3.1736679 -0.75747746
-0.27376756 3.1792715 -0.75844854
-0.25433168 3.1818585 -0.75869131
-0.23402233 3.1727169 -0.75602084
-0.2147457 3.1769967 -0.75674915
-0.19489321 3.1724451 -0.75529253
-0.17590246 3.1822987 -0.75747746
-0.15604223 3.1765356 -0.75577807
-0.13634197 3.1725872 -0.75456423
-0.11669604 3.1685169 -0.75335044
-0.09692882 3.1585073 -0.75067997
-0.077663995 3.1638916 -0.75189382
-0.058039308 3.1526694 -0.74898058
-0.038612984 3.1461761 -0.74728119
-0.019307686 3.1463537 -0.74728119
-2.7376736e-06 3.1435027 -0.74655288
0.019266495 3.1405334 -0.74582458
0.038536083 3.1403561 -0.74582458
0.057640281 3.1313312 -0.74363965
0.076925181 3.1338279 -0.74436796
0.096152544 3.133297 -0.74436796
0.11512382 3.1258621 -0.74266857
0.13434359 3.126066 -0.74291134
0.1532345 3.1193695 -0.74145478
0.17247951 3.1203077 -0.74194026
0.19216071 3.1279049 -0.74412519
0.21286263 3.1489275 -0.74970889
0.23024356 3.1214414 -0.74315411
0.25032392 3.1315737 -0.74606735
0.26886547 3.122247 -0.74412519
0.28783911 3.1186066 -0.74363965
0.3066828 3.1138856 -0.74291134
0.32517526 3.1061566 -0.74145478
0.34358448 3.0983179 -0.73999816
0.36292851 3.0990419 -0.74072647
0.38074598 3.0871291 -0.73829877
0.39918104 3.0808868 -0.73732769
0.41847023 3.0812631 -0.738056
0.4368214 3.074796 -0.73708493
0.45525166 3.0691791 -0.73635662
0.47452098 3.0692039 -0.73708493
0.49365324 3.06815 -0.73757046
0.51359212 3.0717604 -0.73926985
0.53259659 3.0695069 -0.73951262
0.5524531 3.0719094 -0.74096924
0.56951243 3.0589256 -0.73854154
0.5904761 3.0668037 -0.74145478
0.60947216 3.0640743 -0.74169749
0.62630707 3.0507751 -0.73926985
0.64541703 3.0487726 -0.73975539
0.66245508 3.0371733 -0.73781323
0.67937517 3.0254798 -0.73587108
0.69880122 3.0250347 -0.73684216
0.71510434 3.0112524 -0.73441446
0.7335676 3.006808 -0.73441446
0.75601619 3.0182462 -0.73854154
0.77452159 3.0135505 -0.73854154
0.79547369 3.0181208 -0.74096924
0.81549764 3.0188017 -0.7424258
0.83219171 3.0071971 -0.74072647
0.84877419 2.9955015 -0.73902708
0.8657856 2.9855793 -0.73781323
0.88160229 2.9718413 -0.73562831
0.89812887 2.9608068 -0.73417169
0.91397804 2.9478285 -0.73222953
0.93410158 2.9486377 -0.73392892
0.94948566 2.9345448 -0.73174399
0.96320885 2.9157696 -0.72834527
0.98480499 2.9208341 -0.73125845
1.0017606 2.9119849 -0.73053014
1.0202525 2.9076138 -0.73101568
1.0364382 2.8967326 -0.72980183
1.0548582 2.8921411 -0.73028737
1.0719075 2.8837957 -0.72980183
1.0906137 2.8798857 -0.73053014
1.1075649 2.8713298 -0.7300446
1.1255172 2.8653824 -0.73028737
1.1441593 2.8611243 -0.73101568
1.1631576 2.8576436 -0.73198676
1.1810414 2.8513489 -0.73222953
1.2026623 2.8538802 -0.7349
1.2235936 2.8544705 -0.73708493
1.2418613 2.8486872 -0.73757046
1.2616779 2.8463337 -0.73902708
1.281911 2.8447287 -0.74072647
1.298129 2.8341641 -0.73999816
1.3146752 2.8243868 -0.73951262
1.3282447 2.8083758 -0.73732769
1.341247 2.7914307 -0.7349
1.3600529 2.7866349 -0.73587108
1.372383 2.7686784 -0.73320061
1.3919643 2.7654035 -0.73465723
1.4199511 2.7784019 -0.74072647
1.4262424 2.7489748 -0.7349
1.4426305 2.7393136 -0.73465723
1.4584963 2.7286994 -0.73417169
1.4770633 2.723109 -0.73514277
1.4946803 2.7156942 -0.73562831
1.5122619 2.7081654 -0.73611385
1.533635 2.7072742 -0.73854154
1.5487669 2.6952901 -0.73781323
1.5672308 2.6890881 -0.73878431
1.5837013 2.6794212 -0.73878431
1.6026071 2.6738129 -0.73999816
1.6174709 2.6614425 -0.73926985
1.6383535 2.6588991 -0.74145478
1.6536089 2.6471512 -0.74096924
1.669301 2.6361356 -0.74072647
1.6906878 2.6340053 -0.74315411
1.7041714 2.6195171 -0.74194026
1.7175409 2.6049626 -0.74072647
1.7307961 2.590343 -0.73951262
1.7455691 2.5780683 -0.73902708
1.7591586 2.5641103 -0.738056
1.7743045 2.5524716 -0.73781323
1.7876973 2.5383649 -0.73684216
1.8004202 2.5234005 -0.73562831
1.8153009 2.5115199 -0.73538554
1.8341174 2.5050292 -0.73684216
1.8506098 2.495286 -0.73732769
1.8693835 2.4885364 -0.73878431
1.8840299 2.4762473 -0.73854154
1.9003732 2.466177 -0.73902708
1.917858 2.4575284 -0.73999816
1.932901 2.4457142 -0.73999816
1.9430197 2.4277508 -0.738056
1.9584906 2.4165363 -0.73829877
1.9702029 2.4007256 -0.73708493
1.9879978 2.3923209 -0.73829877
2.0088878 2.3874981 -0.74072647
2.0241289 2.375865 -0.74096924
2.0380349 2.3626661 -0.74072647
2.0524936 2.3501165 -0.74072647
2.061089 2.33094 -0.73854154
2.0792365 2.3225846 -0.73999816
2.0954037 2.3119388 -0.74072647
2.1075816 2.2968943 -0.73999816
2.128901 2.2917347 -0.74266857
2.1422579 2.2779224 -0.7424258
2.1568639 2.2654374 -0.74266857
2.1707237 2.2521603 -0.74266857
2.1811132 2.2353282 -0.74145478
2.1968338 2.2239728 -0.74218303
2.2131832 2.2131944 -0.74315411
2.2301736 2.20298 -0.74436796
2.2457325 2.1912863 -0.74509627
2.2626293 2.1808302 -0.74631011
2.2696426 2.160888 -0.74412519
2.2764964 2.1409421 -0.74194026
2.2867463 2.1242936 -0.74096924
2.3025978 2.1128449 -0.74194026
2.3104854 2.0941181 -0.74024093
2.320399 2.0773149 -0.73926985
2.3374634 2.0668919 -0.74072647
2.3530252 2.0550621 -0.74169749
2.3729384 2.0469191 -0.74412519
2.390624 2.0367224 -0.74582458
2.397136 2.0170212 -0.74388242
2.4214084 2.0121901 -0.74776673
2.432209 1.9960645 -0.74728119
2.4406416 1.9780506 -0.74606735
2.45046 1.9612203 -0.74533904
2.4502666 1.936528 -0.74145478
2.4598079 1.9196674 -0.74072647
2.4700031 1.9033544 -0.74024093
2.4831798 1.8893372 -0.74072647
2.4970534 1.8758122 -0.74145478
2.5124133 1.8633431 -0.74266857
2.5324113 1.854193 -0.74533904
2.5405951 1.8363476 -0.74436796
2.5581338 1.8252294 -0.74631011
2.5716653 1.8111734 -0.74703842
2.5763559 1.7909327 -0.74509627
2.5896969 1.7767363 -0.74582458
2.6101916 1.7673358 -0.74873781
2.6209867 1.7512866 -0.74873781
2.6292527 1.7335706 -0.7480095
2.6496003 1.7237496 -0.75092274
2.6625769 1.7090307 -0.75165105
2.6787517 1.696292 -0.75335044
2.695693 1.6839328 -0.75529253
2.69854 1.6627834 -0.75310767
2.7053752 1.6441801 -0.75213659
2.7154126 1.6275493 -0.75213659
2.7119832 1.6029644 -0.74825227
2.7284744 1.5901991 -0.75019443
2.7356563 1.5719786 -0.74946612
2.7435617 1.5542076 -0.74898058
2.7572825 1.5397074 -0.75019443
2.7615778 1.5199554 -0.74873781
2.7691462 1.5020577 -0.74825227
2.7697535 1.4804684 -0.74582458
2.7856534 1.4670594 -0.74776673
2.7937412 1.4494929 -0.74752396
2.8043106 1.4332058 -0.7480095
2.8217185 1.4203303 -0.7504372
2.8286417 1.4021288 -0.74995166
2.8450391 1.3885727 -0.75213659
2.8517568 1.3702501 -0.75165105
2.8495855 1.347753 -0.74873781
2.8630793 1.3326973 -0.75019443
2.8694384 1.3142973 -0.74970889
2.8774488 1.296666 -0.74970889
2.8853509 1.278986 -0.74970889
2.9011488 1.2647437 -0.75189382
2.9035039 1.2446276 -0.7504372
2.9066157 1.2249066 -0.74922335
2.9122841 1.2063071 -0.74873781
2.9196312 1.1884149 -0.74873781
2.9196613 1.1675991 -0.74679565
2.9303827 1.1510797 -0.74776673
2.9373906 1.1330775 -0.74776673
2.9415655 1.1140031 -0.74703842
2.9592588 1.0999849 -0.74995166
2.961395 1.0801461 -0.74873781
2.9597454 1.0590167 -0.74655288
2.9753425 1.0440447 -0.74898058
2.9752707 1.0235621 -0.74728119
2.9925272 1.0090021 -0.75019443
3.0069532 0.99335694 -0.75237936
3.014838 0.97548455 -0.7528649
3.0300155 0.95989376 -0.75529253
3.0358484 0.94128388 -0.75529253
3.0527079 0.92601359 -0.75820577
3.0546117 0.90616292 -0.75723469
3.0750232 0.89172053 -0.76111901
3.0664351 0.86887401 -0.75747746
3.0679686 0.8490088 -0.75650638
3.0721836 0.82991546 -0.75626361
3.0668986 0.80833346 -0.75359321
3.0727403 0.78974122 -0.75383592
3.0812926 0.77181381 -0.754807
3.0840852 0.75243366 -0.75432146
3.0924199 0.73439109 -0.75529253
3.0940318 0.71474856 -0.75456423
3.0993059 0.69596267 -0.754807
3.1035178 0.67693257 -0.754807
3.1038165 0.65707475 -0.75383592
3.091634 0.63470721 -0.74970889
3.1040339 0.6174255 -0.75189382
3.1068113 0.59818482 -0.75165105
3.1151922 0.57999653 -0.7528649
3.1206019 0.56121391 -0.75335044
3.1192074 0.54122818 -0.75213659
3.1368225 0.52447331 -0.75577807
3.1371081 0.50475496 -0.75504977
3.1305587 0.48401785 -0.75262213
3.1334696 0.46479997 -0.75262213
3.1343415 0.44529244 -0.75213659
3.1466279 0.42735407 -0.75456423
3.1472666 0.40779009 -0.75407869
3.1497097 0.38847116 -0.75407869
3.1597424 0.37003744 -0.75602084
3.1532755 0.34968355 -0.75383592
3.152467 0.33002689 -0.75310767
3.1486402 0.31010914 -0.75165105
3.1475856 0.29051721 -0.75092274
3.14061 0.27045268 -0.74873781
3.1383424 0.25086939 -0.74776673
3.1436925 0.23189218 -0.74873781
3.1508634 0.21298888 -0.75019443
3.1482379 0.19341503 -0.74922335
3.1503341 0.17414735 -0.74946612
3.1532812 0.15490846 -0.74995166
3.1493263 0.13535091 -0.74873781
3.1559141 0.11623654 -0.75019443
3.1565681 0.096870027 -0.75019443
3.1629217 0.077640548 -0.75165105
3.1613986 0.058196776 -0.75116551
3.1636364 0.038820788 -0.75165105
3.1706054 0.0194475 -0.75335044
3.1677549 -6.257007e-06 -0.75262213
3.1725454 -0.019474795 -0.75383592
3.1762464 -0.038989861 -0.754807
3.1749773 -0.05845999 -0.75456423
3.1745589 -0.077940188 -0.75456423
3.1798387 -0.097598143 -0.75602084
3.1733634 -0.11689103 -0.75456423
3.1725864 -0.13636023 -0.75456423
3.1745968 -0.15596816 -0.75529253
3.1764858 -0.17560589 -0.75602084
3.1676025 -0.19461438 -0.75407869
3.1586061 -0.21352048 -0.75213659
3.1562688 -0.23282558 -0.75189382
3.1489792 -0.25172174 -0.7504372
3.1464088 -0.2709552 -0.75019443
3.1408234 -0.28989804 -0.74922335
3.1399508 -0.30925974 -0.74946612
3.1399236 -0.32872301 -0.74995166
3.1378474 -0.34798303 -0.74995166
3.1491416 -0.36881471 -0.75335044
3.1458566 -0.38801143 -0.75310767
3.1501505 -0.40818182 -0.754807
3.1437418 -0.42697945 -0.75383592
3.1353004 -0.4454402 -0.75237936
3.1401844 -0.46581125 -0.75432146
3.13535 -0.48477313 -0.75383592
3.1265702 -0.50307536 -0.75237936
3.1320353 -0.5236932 -0.75456423
3.1297185 -0.54306734 -0.754807
3.1196446 -0.56105626 -0.75310767
3.1104214 -0.57911998 -0.75165105
3.0972843 -0.59635657 -0.74922335
3.0831017 -0.61326426 -0.74655288
3.0792809 -0.63217032 -0.74655288
3.0696499 -0.64984488 -0.74509627
3.0665526 -0.66887474 -0.74533904
3.0690157 -0.68916845 -0.74703842
3.0685098 -0.70886141 -0.7480095
3.0688212 -0.72879857 -0.74922335
3.0642917 -0.7476148 -0.74922335
3.0652924 -0.76781923 -0.75067997
3.0670996 -0.78830588 -0.75237936
3.0687706 -0.80884349 -0.75407869
3.0581312 -0.8261379 -0.75262213
3.0464606 -0.84307307 -0.75092274
3.0468297 -0.86333883 -0.75237936
3.0312276 -0.87904173 -0.74970889
3.0192673 -0.89569074 -0.7480095
3.0276377 -0.9184289 -0.75165105
3.0126808 -0.93411249 -0.74922335
3.0318587 -0.96049988 -0.75577807
3.0295997 -0.98028082 -0.75674915
3.0198436 -0.9976331 -0.75577807
3.0145845 -1.016454 -0.75602084
3.003705 -1.0333525 -0.754807
2.9909012 -1.0495126 -0.75310767
2.9752727 -1.0645732 -0.75067997
2.9641283 -1.0811453 -0.74946612
2.9547112 -1.0982975 -0.74873781
2.9551733 -1.1191578 -0.75067997
2.9518704 -1.1386672 -0.75165105
2.9502449 -1.1588882 -0.75310767
2.948482 -1.179132 -0.75456423
2.9438868 -1.1982995 -0.75529253
2.9418552 -1.2185698 -0.75674915
2.9209158 -1.2309418 -0.75310767
2.8999357 -1.243103 -0.74946612
2.886919 -1.2585453 -0.7480095
2.8711619 -1.2726943 -0.74582458
2.8712573 -1.2938774 -0.7480095
2.8579731 -1.309045 -0.74655288
2.8551631 -1.3290148 -0.7480095
2.8548458 -1.3502445 -0.75019443
2.8491299 -1.3689975 -0.75092274
2.8424194 -1.3873053 -0.75140828
2.8321157 -1.4038576 -0.75092274
2.8182504 -1.4185898 -0.74946612
2.8086293 -1.4354137 -0.74922335
2.8023517 -1.4539614 -0.74995166
2.7976685 -1.4733907 -0.75116551
2.8005505 -1.4969357 -0.75456423
2.7913127 -1.5140914 -0.75456423
2.7870679 -1.5339985 -0.75602084
2.7784498 -1.5515441 -0.75626361
2.7688775 -1.5685631 -0.75626361
2.7533143 -1.5821376 -0.75456423
2.7360132 -1.5946028 -0.75237936
2.7136533 -1.6039518 -0.74873781
2.7079201 -1.6230675 -0.74995166
2.6995678 -1.6406606 -0.7504372
2.6886244 -1.6566848 -0.75019443
2.6825213 -1.675722 -0.75140828
2.673008 -1.6926694 -0.75165105
2.6723659 -1.7153306 -0.75456423
2.6626036 -1.7322249 -0.754807
2.6413987 -1.7415839 -0.75165105
2.6355011 -1.760994 -0.75310767
2.6222372 -1.7754995 -0.75237936
2.6176913 -1.7959486 -0.75432146
2.6034369 -1.8097606 -0.75335044
2.5875258 -1.8223476 -0.75189382
2.5873482 -1.8460823 -0.75529253
2.5728281 -1.8596491 -0.75432146
2.5613689 -1.8754005 -0.75432146
2.5521505 -1.8928161 -0.75504977
2.5443654 -1.9113548 -0.75626361
2.5333614 -1.9275185 -0.75650638
2.5253277 -1.9459887 -0.75772023
2.5034008 -1.9536847 -0.75456423
2.4890833 -1.9672031 -0.75383592
2.4746945 -1.9806194 -0.75310767
2.4572213 -1.9914891 -0.75140828
2.4434559 -2.0052974 -0.75092274
2.4266305 -2.0165308 -0.74946612
2.4134696 -2.0307574 -0.74922335
2.4039166 -2.0480456 -0.75019443
2.3957107 -2.0665605 -0.75165105
2.3837159 -2.0818598 -0.75189382
2.3745294 -2.0996611 -0.75310767
2.3688266 -2.1206646 -0.7555353
2.3521771 -2.131901 -0.75432146
2.335479 -2.1430128 -0.75310767
2.3258383 -2.1606052 -0.75432146
2.3047667 -2.1675222 -0.75165105
2.2836978 -2.1742623 -0.74898058
2.2675211 -2.18554 -0.7480095
2.2499037 -2.1953456 -0.74655288
2.2329414 -2.2056997 -0.74533904
2.2248511 -2.2248487 -0.74728119
2.2186542 -2.2460527 -0.74995166
2.2149892 -2.2700424 -0.75359321
2.2090943 -2.2919753 -0.75650638
2.1936519 -2.3040812 -0.75602084
2.1827948 -2.3210323 -0.75723469
2.1671922 -2.3329601 -0.75674915
2.1410358 -2.3333435 -0.75237936
2.1305854 -2.3507509 -0.75383592
2.117415 -2.3652256 -0.75432146
2.0977237 -2.3723576 -0.75237936
2.0869548 -2.3895698 -0.75383592
2.0703535 -2.4001257 -0.75310767
2.0537009 -2.410568 -0.75237936
2.0407443 -2.4253514 -0.75310767
2.0221059 -2.4333496 -0.75165105
2.0095975 -2.4487116 -0.75262213
1.9927032 -2.4587345 -0.75189382
1.9842439 -2.479249 -0.75456423
1.9780126 -2.5027969 -0.75820577
1.9572495 -2.5080018 -0.75602084
1.9435993 -2.52227 -0.75674915
1.9286735 -2.5349205 -0.75699192
1.9090067 -2.541276 -0.75529253
1.8962657 -2.5568385 -0.75650638
1.8690857 -2.5527673 -0.75165105
1.856795 -2.5689063 -0.75310767
1.839308 -2.5778813 -0.75237936
1.8178729 -2.5811851 -0.74995166
0 -0 -0
1.7833184 -2.5992982 -0.74873781
1.7575512 -2.5957291 -0.74436796
1.7475162 -2.615339 -0.74703842
1.7293011 -2.622772 -0.74606735
1.7126467 -2.6325202 -0.74582458
1.7011751 -2.6503284 -0.7480095
1.6890304 -2.667275 -0.74995166
1.6726326 -2.6775882 -0.74995166
1.6592232 -2.6927574 -0.75140828
1.6451871 -2.7070334 -0.75262213
1.6310382 -2.7212384 -0.75383592
1.6133237 -2.7295244 -0.75335044
1.589711 -2.7276359 -0.74995166
1.5705295 -2.7331324 -0.74873781
1.5551633 -2.7452502 -0.74946612
1.5401801 -2.7581296 -0.7504372
1.5241624 -2.769228 -0.75092274
1.5085287 -2.7810867 -0.75165105
1.4960057 -2.7988474 -0.75407869
1.4833213 -2.8165591 -0.75650638
1.4633327 -2.8204401 -0.75504977
1.4437934 -2.8250461 -0.75383592
1.4229454 -2.8269184 -0.75189382
1.4016984 -2.8277724 -0.74970889
1.3855965 -2.8389356 -0.7504372
1.3689907 -2.849133 -0.75092274
1.3552129 -2.8653734 -0.75310767
1.338833 -2.8762736 -0.75383592
1.3211592 -2.8844345 -0.75383592
