# .PCD v0.7 - Point Cloud Data file format
VERSION 0.7
FIELDS x y z
SIZE 4 4 4
TYPE F F F
COUNT 1 1 1
WIDTH 1524
HEIGHT 1
VIEWPOINT 0 0 0 1 0 0 0
POINTS 1524
DATA ascii
4.6463742 1.1352385 -0.74106985
4.6551728 1.1071644 -0.74139166
4.70611 1.0888172 -0.74879372
4.7001848 1.0571042 -0.74670184
4.7384014 1.0351987 -0.75201201
4.7417674 1.0054904 -0.75152928
4.7401142 0.97478551 -0.75024199
4.7372947 0.94394583 -0.74879372
4.6722541 0.90120912 -0.73704696
4.7300878 0.88230079 -0.74573636
4.7344408 0.85308582 -0.74557543
4.7152772 0.81979138 -0.74155259
4.7688875 0.79900187 -0.74959832
4.8117008 0.77585602 -0.75587398
4.8251486 0.74767822 -0.75732225
4.8491702 0.72096205 -0.76054054
4.807579 0.68465072 -0.75297755
4.8439612 0.65953577 -0.75828773
4.8449807 0.62941968 -0.75780499
4.7782278 0.59095162 -0.7462191
4.8444982 0.56899524 -0.75651765
4.8616309 0.54078794 -0.75877047
4.8383555 0.50816172 -0.75442576
4.8472753 0.47904745 -0.75539124
4.8324342 0.44765595 -0.75249481
4.8527889 0.41952783 -0.75539124
4.8375635 0.38832086 -0.75249481
4.8329654 0.35811973 -0.7513684
4.8508267 0.32953003 -0.75394303
4.8586679 0.30012527 -0.7549085
4.880127 0.2714051 -0.7581268
4.8412843 0.23945378 -0.75152928
4.8466067 0.20991486 -0.75217295
4.8606248 0.18065026 -0.75426483
4.8596687 0.15076126 -0.75394303
4.8585291 0.1208908 -0.75362116
4.8887835 0.091634423 -0.75844866
4.8320141 0.060909487 -0.74911559
4.8796701 0.03156998 -0.75683945
4.8689156 0.0016237935 -0.75506943
4.8698206 -0.028256988 -0.75523031
4.8675818 -0.058113709 -0.7549085
4.8424635 -0.08753559 -0.75088561
4.8595953 -0.11767536 -0.75378209
4.8913369 -0.14847665 -0.75909227
4.8637033 -0.17751673 -0.75474757
4.8822441 -0.20819591 -0.75796586
4.8680592 -0.23752461 -0.75587398
4.8665104 -0.26738998 -0.75587398
4.8874359 -0.29862791 -0.75957501
4.8766489 -0.32801563 -0.7581268
4.87356 -0.35785982 -0.75796586
4.8801274 -0.38846079 -0.75941414
4.8825688 -0.41881874 -0.76021868
4.8759756 -0.44840851 -0.75957501
4.8554521 -0.47658452 -0.75667858
4.8730507 -0.50851756 -0.76005781
4.8629718 -0.53764981 -0.7589314
4.8546801 -0.56690633 -0.7581268
4.8481712 -0.59632218 -0.75764406
4.8385477 -0.62530029 -0.75667858
4.8160372 -0.65246129 -0.75362116
4.8285556 -0.68435276 -0.75635672
4.8203602 -0.71338969 -0.75571311
4.8314996 -0.7453599 -0.75828773
4.8112431 -0.77248925 -0.75571311
4.8103065 -0.80264539 -0.75635672
4.8101535 -0.83298737 -0.75716132
4.8010664 -0.86178905 -0.75651765
4.8238287 -0.89645898 -0.76118416
4.8007908 -0.9226889 -0.75828773
4.8056879 -0.95424223 -0.76005781
4.809411 -0.98569226 -0.76166695
4.780097 -1.0102874 -0.75780499
4.7853804 -1.0421177 -0.75973594
4.788527 -1.0736191 -0.76134509
4.785696 -1.1038678 -0.76198876
4.7874761 -1.1352602 -0.76343697
4.7928863 -1.1676503 -0.76552886
4.7435021 -1.1865026 -0.75844866
4.7409124 -1.2168123 -0.7592532
4.7715364 -1.2559249 -0.76568979
4.7065649 -1.2697589 -0.75603491
4.7300787 -1.3072877 -0.76134509
4.7115221 -1.333331 -0.75957501
4.6899796 -1.3583722 -0.75732225
4.6919661 -1.3902072 -0.75909227
4.6795692 -1.4178259 -0.75844866
4.6792669 -1.4491397 -0.75989687
4.6524081 -1.472168 -0.75683945
4.6282606 -1.4958317 -0.75426483
4.6349292 -1.5294585 -0.75700039
4.6451001 -1.564483 -0.76037961
4.6008768 -1.5810901 -0.75442576
4.6199632 -1.6194093 -0.75941414
4.5420923 -1.6234821 -0.74766731
4.598815 -1.6756437 -0.7592532
4.595849 -1.7065779 -0.76054054
4.571444 -1.7295078 -0.7581268
4.5681138 -1.7603637 -0.75941414
4.4837236 -1.7595226 -0.7465409
4.5342522 -1.8115296 -0.75732225
4.4672794 -1.8166426 -0.74750644
4.4624329 -1.8466604 -0.74863285
4.5037785 -1.8962152 -0.75796586
4.4720984 -1.9152676 -0.75442576
4.443069 -1.935185 -0.7513684
4.4293065 -1.9616115 -0.75104654
4.4639864 -2.0098183 -0.75941414
4.4668279 -2.0441518 -0.76214969
4.4756799 -2.0815084 -0.76601166
4.4333749 -2.0950181 -0.76070142
4.3955231 -2.1102231 -0.75619584
4.3727336 -2.132396 -0.75442576
4.3622208 -2.1605003 -0.7549085
4.3982611 -2.2120554 -0.76391971
4.3090086 -2.2004051 -0.75008106
4.2919211 -2.2249866 -0.74943739
4.3358359 -2.2816093 -0.76005781
4.3670268 -2.3323448 -0.76842535
4.3170562 -2.3398173 -0.76182783
4.3276987 -2.3800528 -0.76649439
4.2647462 -2.3796353 -0.75748312
4.2483468 -2.4047863 -0.75716132
4.2437825 -2.4367049 -0.75909227
4.2347217 -2.4661748 -0.76021868
4.2212095 -2.4931159 -0.76054054
4.2007523 -2.5159276 -0.75957501
4.1784863 -2.5375576 -0.75828773
4.1804876 -2.5740139 -0.76166695
4.1771746 -2.6074548 -0.76408064
4.1285682 -2.6124568 -0.75780499
4.1423702 -2.6569204 -0.76359791
4.1011639 -2.6661513 -0.75877047
4.079782 -2.6880076 -0.75780499
4.0829124 -2.7261419 -0.76166695
4.0456715 -2.7373176 -0.75764406
4.0271711 -2.7609737 -0.75732225
4.0044799 -2.7816908 -0.75619584
3.9921794 -2.8096173 -0.75716132
4.0126371 -2.8609869 -0.76472431
3.9654019 -2.8641744 -0.75877047
3.9142969 -2.863977 -0.75201201
3.9466081 -2.9249601 -0.76214969
3.9104311 -2.9354942 -0.75844866
3.8703458 -2.9427087 -0.75394303
3.8647294 -2.9760349 -0.75651765
3.8043666 -2.9669204 -0.74782825
3.8178482 -3.0152855 -0.75442576
3.8077538 -3.045435 -0.75619584
3.7736554 -3.0563192 -0.75297755
3.7777269 -3.0981908 -0.75780499
3.761683 -3.1238341 -0.75844866
3.7719078 -3.1716266 -0.76472431
3.7508729 -3.1934314 -0.76440251
3.7117698 -3.1996331 -0.76021868
3.6957858 -3.2255924 -0.76102328
3.6537349 -3.2286043 -0.75619584
3.6493039 -3.2647805 -0.75957501
3.625545 -3.2837982 -0.75877047
3.5704081 -3.2739673 -0.75104654
3.5878682 -3.3307276 -0.75941414
3.5752754 -3.3601141 -0.76118416
3.530993 -3.3595397 -0.75587398
3.5451469 -3.4146893 -0.76375884
3.4958606 -3.4088185 -0.75732225
3.4734738 -3.4288177 -0.75700039
3.4516714 -3.4493685 -0.75683945
3.4262781 -3.4662714 -0.75587398
3.4132197 -3.4957027 -0.75780499
3.3875949 -3.5123181 -0.75683945
3.3639374 -3.5308943 -0.75635672
3.3597968 -3.5701547 -0.76054054
3.3989823 -3.6564801 -0.7751838
3.3691392 -3.6692708 -0.77341372
3.3293207 -3.6708677 -0.76922995
3.2968547 -3.6802008 -0.7668162
3.271595 -3.6974041 -0.76617253
3.2462485 -3.7144363 -0.76552886
3.2259758 -3.7372732 -0.76617253
3.1991415 -3.752491 -0.76520705
3.1677916 -3.7622359 -0.76311517
3.2140694 -3.8650723 -0.78081578
3.2153509 -3.9152279 -0.78725237
3.1806972 -3.9218526 -0.78451681
3.1399133 -3.9204967 -0.78017211
3.0821221 -3.8971148 -0.77132183
3.0605819 -3.9190643 -0.7719655
3.0196004 -3.9158869 -0.76745987
2.9835572 -3.9186368 -0.76424158
2.9570842 -3.9337144 -0.76359791
2.9381862 -3.9589171 -0.76504612
2.9307578 -3.9999576 -0.76971269
2.8899615 -3.9954746 -0.76520705
2.9032474 -4.0661426 -0.77582741
2.8515174 -4.0459652 -0.76826441
2.8243835 -4.0601449 -0.7676208
2.7899199 -4.0635672 -0.76488525
2.7566283 -4.0683541 -0.7624715
2.7595956 -4.1270328 -0.77067816
2.717912 -4.1191745 -0.76585072
2.6818147 -4.1192322 -0.76263243
2.6628909 -4.1455746 -0.76456338
2.6743898 -4.2201896 -0.77582741
2.6536775 -4.2448883 -0.77743655
2.6177373 -4.2451301 -0.77437919
2.5618901 -4.2122064 -0.76504612
2.5293956 -4.2168441 -0.76295424
2.5341294 -4.2841005 -0.77277005
2.498843 -4.284224 -0.76987356
2.47054 -4.2960534 -0.76922995
2.4392653 -4.302546 -0.7676208
2.4152272 -4.3217397 -0.76842535
2.3853302 -4.3304267 -0.76729894
2.3723717 -4.3701348 -0.7719655
2.3473749 -4.3880901 -0.77260911
2.3305316 -4.4216185 -0.77614927
2.2942593 -4.4183173 -0.77293098
2.2742982 -4.4463701 -0.7755056
2.2194376 -4.4055943 -0.76552886
2.2024536 -4.4394641 -0.76922995
2.1795049 -4.4617624 -0.7708391
2.1315517 -4.4323592 -0.76311517
2.1022034 -4.4408946 -0.76231056
0 -0 -0
0 -0 -0
0 -0 -0
2.030617 -4.5768499 -0.77759749
1.9874936 -4.5548501 -0.77148271
1.9614544 -4.5714941 -0.77228731
1.9345182 -4.5861716 -0.77277005
1.8961337 -4.5733395 -0.76842535
0 -0 -0
0 -0 -0
0 -0 -0
1.8039511 -4.6718955 -0.77775842
1.7773507 -4.6884136 -0.7787239
1.724107 -4.6335573 -0.76729894
1.6560298 -4.5355811 -0.74847192
1.4077991 -3.9305687 -0.64194632
1.3794018 -3.9270277 -0.63985443
1.3613877 -3.9531474 -0.64291179
1.3282657 -3.9352434 -0.63840616
0 -0 -0
0 -0 -0
1.2690364 -4.0013599 -0.64564735
0 -0 -0
0 -0 -0
1.2409877 -4.1782541 -0.67187643
0 -0 -0
0 -0 -0
1.3252118 -4.7824664 -0.77035636
1.2968733 -4.7943182 -0.77099997
1.2754936 -4.8327222 -0.77614927
1.2428637 -4.8289881 -0.77421826
1.2076852 -4.8145056 -0.77051723
1.1835109 -4.8438764 -0.77421826
1.1421165 -4.8020782 -0.76601166
1.1110722 -4.8022652 -0.76488525
1.0818018 -4.8099551 -0.76504612
1.0674409 -4.8859253 -0.77663201
1.023514 -4.8267303 -0.76568979
0.99904948 -4.8580542 -0.76987356
0.96343374 -4.8350549 -0.76504612
0.94889575 -4.9193716 -0.77808022
0.8966043 -4.806735 -0.75844866
0.87094605 -4.8335147 -0.76198876
0.85463357 -4.9155846 -0.774701
0.82886153 -4.9470177 -0.7790457
0.78434438 -4.8643169 -0.76456338
0.76582348 -4.9421868 -0.77663201
0.72546399 -4.8794332 -0.76552886
0.70149761 -4.925808 -0.77244824
0.66419888 -4.8781891 -0.76391971
0.63896185 -4.9183855 -0.76987356
0.6028313 -4.8742185 -0.76198876
0.57441008 -4.8905683 -0.76408064
0.55094284 -4.9528556 -0.77373552
0.51899475 -4.9414191 -0.77132183
0.49002504 -4.9582615 -0.77357465
0.45786124 -4.9425025 -0.77051723
0.42267606 -4.8891711 -0.76134509
0.39496121 -4.9202027 -0.76601166
0.36585918 -4.9372973 -0.76842535
0.33595943 -4.9453573 -0.76939082
0.30439037 -4.9276242 -0.76617253
0.27557632 -4.9550204 -0.77035636
0.2410654 -4.8738141 -0.75683945
0.21500656 -4.9639454 -0.77132183
0.18384634 -4.9464316 -0.76826441
0.15223409 -4.9070206 -0.76166695
0.12271345 -4.9315419 -0.76552886
0.092284583 -4.9233212 -0.76408064
0.061923664 -4.911952 -0.76214969
0.031776864 -4.9112525 -0.76198876
0.0016282937 -4.8797722 -0.75683945
-0.028149698 -4.8510685 -0.75217295
-0.058464784 -4.8971887 -0.75973594
-0.087766439 -4.8552918 -0.75297755
-0.11898504 -4.9138627 -0.76263243
-0.14796892 -4.8745661 -0.75635672
-0.17888163 -4.9011831 -0.76086235
-0.20928712 -4.9078822 -0.76214969
-0.23891719 -4.8966475 -0.76054054
-0.26679525 -4.85567 -0.75410396
-0.29814699 -4.8795547 -0.75828773
-0.32457545 -4.8254418 -0.74975926
-0.35612705 -4.8499365 -0.75410396
-0.38736549 -4.8663535 -0.75716132
-0.41696477 -4.8609347 -0.75667858
-0.44750547 -4.8661475 -0.75796586
-0.48063049 -4.8967066 -0.76343697
-0.50954115 -4.8828673 -0.76166695
-0.53884196 -4.8737631 -0.76070142
-0.57010943 -4.8821287 -0.76263243
-0.59752631 -4.8579674 -0.7592532
-0.62567955 -4.8414845 -0.75716132
-0.65709603 -4.8502688 -0.7592532
-0.68393749 -4.825624 -0.75587398
-0.71454501 -4.8281713 -0.75700039
-0.74175024 -4.8080888 -0.75442576
-0.77546054 -4.8297586 -0.75877047
-0.80345714 -4.8151741 -0.75716132
-0.83096743 -4.7984834 -0.75523031
-0.85011131 -4.7359786 -0.74573636
-0.88131773 -4.7423177 -0.74766731
-0.91766143 -4.7746215 -0.75394303
-0.94425058 -4.7553477 -0.75169021
-0.97341108 -4.749464 -0.75169021
-1.0080433 -4.7694745 -0.75603491
-1.0353998 -4.7545204 -0.7545867
-1.0578623 -4.7182221 -0.74959832
-1.0901191 -4.7260685 -0.75201201
-1.1131784 -4.6943216 -0.74782825
-1.1463984 -4.7056227 -0.75088561
-1.1745317 -4.6956277 -0.75040287
-1.1998874 -4.6749482 -0.74815011
-1.2288009 -4.6684523 -0.74831098
-1.2602499 -4.6713066 -0.75008106
-1.2831062 -4.6425571 -0.7465409
-1.3215092 -4.6697354 -0.75249481
-1.3526077 -4.6700711 -0.75394303
-1.3778737 -4.6503277 -0.75201201
-1.407526 -4.6455641 -0.75265568
-1.4365879 -4.6387258 -0.75297755
-1.4641305 -4.6270008 -0.75249481
-1.4873351 -4.601964 -0.74975926
-1.5208007 -4.608685 -0.75249481
-1.5433813 -4.5824304 -0.74959832
-1.5666593 -4.5588727 -0.74718457
-1.596561 -4.5547628 -0.74815011
-1.6191646 -4.5300102 -0.74557543
-1.655375 -4.5431738 -0.74959832
-1.6859682 -4.5403333 -0.75088561
-1.727762 -4.5668283 -0.75732225
-1.737655 -4.509171 -0.74911559
-1.7739413 -4.5204749 -0.75297755
-1.8107975 -4.5324192 -0.75700039
-1.8259355 -4.4901371 -0.75152928
-1.878355 -4.5390406 -0.76214969
-1.9191896 -4.5583582 -0.7676208
-1.9370224 -4.5229068 -0.76343697
-1.9592215 -4.4982677 -0.76118416
-1.9867854 -4.4861617 -0.76118416
-2.0102234 -4.4648867 -0.75957501
-2.0404561 -4.4587502 -0.76070142
-2.039063 -4.3843946 -0.74959832
-2.0785751 -4.398572 -0.75442576
-2.0897233 -4.3528137 -0.74847192
-2.1375864 -4.3833795 -0.75635672
-2.1696978 -4.3807945 -0.75828773
-2.193433 -4.3612266 -0.75716132
-2.2206006 -4.3485651 -0.75732225
-2.2390659 -4.3190851 -0.75442576
-2.2453053 -4.2668328 -0.74734551
-2.301662 -4.309566 -0.75780499
-2.3101931 -4.2623878 -0.75169021
-2.3315477 -4.2394838 -0.75008106
-2.3652101 -4.2388887 -0.75265568
-2.3965223 -4.2337446 -0.75442576
-2.4126272 -4.2018409 -0.75120747
-2.44333 -4.1954875 -0.75281662
-2.4650123 -4.1736178 -0.75152928
-2.4814479 -4.1431723 -0.74863285
-2.5114334 -4.1354613 -0.75008106
-2.5150299 -4.0846734 -0.74332261
-2.555722 -4.0942831 -0.74815011
-2.5697148 -4.0610094 -0.74477088
-2.5988467 -4.0518117 -0.74605817
-2.6274242 -4.0415821 -0.74718457
-2.6472869 -4.0179663 -0.74573636
-2.6592872 -3.9827676 -0.74203533
-2.6814628 -3.9631057 -0.74139166
-2.694011 -3.9294822 -0.73801243
-2.7101891 -3.9015293 -0.73575962
-2.7056789 -3.8444681 -0.72771388
-2.7338004 -3.8342233 -0.72900122
-2.7405183 -3.794173 -0.72433472
-2.7573371 -3.7685237 -0.72256464
-2.7657182 -3.7317095 -0.71854174
-2.7820466 -3.705986 -0.71677166
-2.795177 -3.6762745 -0.71419704
-2.809252 -3.6481061 -0.71194422
-2.8097355 -3.6027803 -0.70615131
-2.8085458 -3.5560381 -0.70003653
-2.8352437 -3.5449047 -0.70132387
-2.8376868 -3.5036638 -0.69633549
-2.8409829 -3.4640534 -0.69166899
-2.8394873 -3.4192197 -0.68587607
-2.8604138 -3.4017327 -0.68587607
-2.8818722 -3.3848691 -0.68603694
-2.8954992 -3.3588989 -0.68426692
-2.9128101 -3.3373508 -0.68346232
-2.9110146 -3.2942674 -0.67799121
-2.9364369 -3.2822287 -0.67927855
-2.9532087 -3.2604916 -0.67847395
-2.9598193 -3.2277598 -0.67525566
-2.9600973 -3.1885598 -0.67058915
-2.9769027 -3.16746 -0.66994548
-2.986078 -3.1384079 -0.66753173
-2.9936399 -3.1079414 -0.66479617
-2.99474 -3.0711403 -0.6606124
-3.007288 -3.046385 -0.65916419
-3.0056932 -3.007628 -0.65449762
-3.0093517 -2.9745572 -0.65111846
-2.9971836 -2.9263847 -0.64419913
-3.0172141 -2.9099948 -0.64468187
-3.0235803 -2.8805332 -0.64210719
-3.041198 -2.8619268 -0.64210719
-3.0319567 -2.8183472 -0.63615334
-3.0513735 -2.8016932 -0.63663608
-3.0553484 -2.7709816 -0.63373965
-3.0730283 -2.7528408 -0.63390058
-3.0795143 -2.724776 -0.63164777
-3.0857718 -2.6967356 -0.62939495
-3.0843308 -2.6622715 -0.62553298
-3.0915959 -2.6356118 -0.62360203
-3.1145039 -2.6223142 -0.62505025
-3.1092885 -2.5854836 -0.62054461
-3.1258569 -2.5669832 -0.62070554
-3.1438484 -2.5496202 -0.62118828
-3.1594334 -2.530282 -0.62118828
-3.1547732 -2.4949286 -0.61700451
-3.163022 -2.4700565 -0.61555624
-3.1726477 -2.4463828 -0.61442983
-3.1703241 -2.4137149 -0.61088973
-3.1756082 -2.3870993 -0.60895878
-3.1798928 -2.3599217 -0.60686684
-3.191129 -2.3380325 -0.60622323
-3.2030158 -2.3166726 -0.60574049
-3.216367 -2.296402 -0.60557956
-3.2271702 -2.274349 -0.60493588
-3.2159493 -2.2370305 -0.59994751
-3.2369375 -2.2222841 -0.60139579
-3.2472441 -2.200166 -0.60075212
-3.250838 -2.1736157 -0.5988211
-3.2501101 -2.1443863 -0.59608555
-3.2557628 -2.1195567 -0.59463733
-3.259573 -2.0936716 -0.59286726
-3.2698572 -2.0720468 -0.59238452
-3.2741411 -2.0467117 -0.59077537
-3.2841177 -2.0250292 -0.59029263
-3.2888923 -2.0002236 -0.58884442
-3.2934864 -1.9754359 -0.58739614
-3.3029971 -1.9536827 -0.58691341
-3.2961674 -1.9224378 -0.58337331
-3.3036234 -1.8997163 -0.58256871
-3.3092079 -1.876002 -0.5814423
-3.314626 -1.8522909 -0.58031595
-3.3172843 -1.8271552 -0.57870674
-3.3319025 -1.8086501 -0.57935041
-3.3264031 -1.7793252 -0.57629305
-3.3040812 -1.7413913 -0.57017827
-3.3383529 -1.7333673 -0.57452297
-3.3480473 -1.7124014 -0.57436204
-3.364661 -1.6949348 -0.57548845
-3.3652725 -1.669432 -0.57371843
-3.3648112 -1.6435524 -0.57178742
-3.3739431 -1.6224476 -0.57162654
-3.3856187 -1.6025596 -0.57194835
-3.3962827 -1.5821725 -0.57210928
-3.4032354 -1.5600694 -0.57162654
-3.4127436 -1.5391582 -0.57162654
-0.24482104 -0.10821161 -0.0048844982
-0.24638498 -0.10710217 -0.005045413
-3.4151011 -1.4651815 -0.56712091
-0.27314243 -0.1148131 -0.0095510278
-0.24557959 -0.10141466 -0.0045626685
-0.25259513 -0.10251322 -0.0056890724
-0.26421446 -0.10536369 -0.0076200501
-0.26485598 -0.10374051 -0.0076200501
-0.26548752 -0.10211343 -0.0076200501
-0 -0 -0
-0 -0 -0
-0 -0 -0
-0 -0 -0
-0 -0 -0
-0 -0 -0
-0 -0 -0
-0 -0 -0
-0 -0 -0
-0 -0 -0
-0 -0 -0
-0 -0 -0
-0 -0 -0
-0 -0 -0
-0 -0 -0
-0 -0 -0
-0 -0 -0
-0 -0 -0
-0 -0 -0
-0 -0 -0
-0 -0 -0
-0 -0 -0
-0 -0 -0
-0 -0 -0
-0 -0 -0
-0 -0 -0
-0 -0 -0
-0 -0 -0
-0 -0 -0
-0 -0 -0
-0 -0 -0
-0 -0 -0
-0 -0 -0
-0 -0 -0
-0 -0 -0
-0 -0 -0
-0 -0 -0
-0 -0 -0
-0 -0 -0
-0 -0 -0
-0 -0 -0
-0 -0 -0
-0 -0 -0
-0 -0 -0
-0 -0 -0
-0 -0 -0
-0 -0 -0
-0 -0 -0
-0 -0 -0
-0 -0 -0
-0 -0 -0
-0 -0 -0
-0 -0 -0
-0 -0 -0
-0 -0 -0
-0 0 -0
-0 0 -0
-0 0 -0
-0 0 -0
-0.28063193 0.026570624 -0.010552919
-0.27948409 0.028189132 -0.010379958
-0.27832696 0.029794559 -0.010206997
-0.2771607 0.031386852 -0.010034037
-0 0 -0
-0 0 -0
-0 0 -0
-0 0 -0
-0.27509329 0.039729051 -0.0098610763
-0 0 -0
-0.27458504 0.043101877 -0.0098610763
-0 0 -0
-0 0 -0
-0.27083722 0.0476247 -0.0093421945
-0.27053988 0.049285632 -0.0093421945
-0.27023238 0.050944705 -0.0093421945
-0 0 -0
-0 0 -0
-0 0 -0
-0 0 -0
-0 0 -0
-0.27968901 0.063521259 -0.011417722
-0 0 -0
-0.27793169 0.066714883 -0.011244762
-0 0 -0
-0.27804589 0.07036604 -0.011417722
-0.2785612 0.072322145 -0.011590683
-0.2762107 0.073515572 -0.011244762
-0.27955103 0.07626117 -0.011936604
-0 0 -0
-0 0 -0
-0 0 -0
-0.2691136 0.080522388 -0.010379958
-0.26579252 0.081296019 -0.0098610763
-0 0 -0
-0.26571187 0.084855132 -0.010034037
-0.26705641 0.087102517 -0.010379958
-0.26651692 0.088739507 -0.010379958
-0.2650362 0.090052396 -0.010206997
-0.26726639 0.092656314 -0.01072588
-0.26576561 0.093962334 -0.010552919
-0.26518407 0.095591269 -0.010552919
-0.26551563 0.097560123 -0.01072588
-0.26399106 0.098838292 -0.010552919
-0.26429841 0.10081106 -0.01072588
-0.26734129 0.10387263 -0.011417722
-0.26578453 0.105145 -0.011244762
-0.26695859 0.10751717 -0.011590683
-0.26720369 0.10953043 -0.011763643
-0.2656191 0.11078507 -0.011590683
-0.26493433 0.11241279 -0.011590683
-0.26333687 0.11364234 -0.011417722
-0.2635349 0.11565547 -0.011590683
-0.26371813 0.1176753 -0.011763643
-0.26120049 0.11847026 -0.011417722
-0.26493254 0.12215059 -0.012282525
-0 0 -0
-0.26962686 0.12838079 -0.013493249
-0.27148896 0.13132977 -0.014012131
-0.26979572 0.13255537 -0.01383917
-0.2716161 0.13553779 -0.014358052
-0.27077934 0.13720185 -0.014358052
-0.26731011 0.13749896 -0.01383917
-0.26820397 0.14005512 -0.014185091
-0.26647112 0.14123353 -0.014012131
-0.26559949 0.14286591 -0.014012131
-0.26644328 0.14544338 -0.014358052
-0.26554585 0.1470755 -0.014358052
-0.266352 0.14967367 -0.014703974
-0.2654286 0.15130517 -0.014703974
-0.26364443 0.15243469 -0.014531013
-0.26100874 0.15304656 -0.014185091
-0.25837553 0.15363187 -0.01383917
-0.25574502 0.15419064 -0.013493249
-0.25479409 0.15575697 -0.013493249
-0.25633904 0.15888381 -0.014012131
-0.25868702 0.16256265 -0.014703974
-0.25934201 0.16521154 -0.015049895
-0.26327577 0.1700242 -0.016087659
-0.26551589 0.17380629 -0.016779501
-0.26362571 0.17488471 -0.016606539
-0.26254767 0.17649899 -0.016606539
-0.26145974 0.17810662 -0.016606539
-0.25955346 0.17914508 -0.01643358
-0.26005948 0.18186916 -0.016779501
-0.25813708 0.18288907 -0.016606539
-0.25621203 0.18389226 -0.01643358
-0.25666779 0.1866252 -0.016779501
-0.25709963 0.18937059 -0.017125422
-0.25829464 0.19272013 -0.017644305
-0.25710726 0.19430137 -0.017644305
-0.25591022 0.19587529 -0.017644305
-0.25470352 0.19744183 -0.017644305
-0.25348726 0.19900095 -0.017644305
-0.25303018 0.2011683 -0.017817264
-0.25026116 0.20147622 -0.017471343
-0.24978134 0.20363311 -0.017644305
-0.25155628 0.207681 -0.018336147
-0.25178406 0.21048942 -0.018682068
-0.25498474 0.21586449 -0.019719832
-0.2536554 0.21742499 -0.019719832
-0.25157493 0.21832912 -0.01954687
-0 0 -0
-0.24961035 0.22205712 -0.019719832
-0.24678406 0.2222611 -0.019373911
-0 0 -0
-0 0 -0
-0 0 -0
-0 0 -0
-0 0 -0
-0 0 -0
-0 0 -0
-0 0 -0
-0 0 -0
-0 0 -0
-0 0 -0
-0 0 -0
-0 0 -0
-0 0 -0
-0 0 -0
-0 0 -0
-0 0 -0
-0 0 -0
-0 0 -0
-0 0 -0
-0 0 -0
-0 0 -0
-0 0 -0
-0 0 -0
-0 0 -0
-0 0 -0
-0 0 -0
-2.8307376 3.6281295 -0.76915812
-2.8018126 3.6368461 -0.7672556
-2.7836173 3.6594577 -0.76846629
-2.7540157 3.6670163 -0.7663908
-2.7308769 3.6830542 -0.76621783
-2.6960139 3.6830482 -0.76258564
-2.6848979 3.7154906 -0.76604486
-2.6746283 3.7495384 -0.76985002
-2.6595068 3.7771556 -0.77227145
-2.6357188 3.792594 -0.77209848
-2.6084998 3.8030086 -0.77088773
-2.584564 3.8181264 -0.77071482
-2.5714788 3.8494771 -0.77400106
-2.5727358 3.9030168 -0.78195727
-2.5390766 3.9038653 -0.77884394
-2.5076311 3.9077642 -0.7764225
-2.5004582 3.9497113 -0.78195727
-2.4813912 3.9733348 -0.78368682
-2.463161 3.9985502 -0.78576237
-2.4370465 4.0110631 -0.78524351
-2.4012563 4.0073509 -0.78143835
-2.3701115 4.0109844 -0.77918988
-2.3514035 4.0356655 -0.78126538
-2.3422897 4.0773506 -0.78680015
-2.3181977 4.0933599 -0.78714603
-2.2963967 4.1135278 -0.78835678
-2.2739611 4.132719 -0.78939456
-2.2509067 4.1509237 -0.79025936
-2.2295706 4.1724763 -0.791816
-2.2030096 4.1843348 -0.79147005
-2.1682279 4.180285 -0.78801084
-2.1429853 4.1943874 -0.78818381
-2.1247313 4.2224164 -0.79112417
-2.1044655 4.2468481 -0.79337263
-2.0757775 4.2543693 -0.79233485
-2.0406833 4.2483792 -0.78870273
-2.013315 4.2581491 -0.78818381
-1.977182 4.2489886 -0.78403276
-1.9518932 4.2628317 -0.78437871
-1.9224657 4.2675428 -0.78299499
-1.8938515 4.2738552 -0.78195727
-1.8691651 4.2890072 -0.7826491
-1.8443638 4.3040171 -0.78334093
-1.8160094 4.3107138 -0.78247613
-1.7944207 4.3336067 -0.78472459
-1.7607477 4.3272004 -0.78143835
-1.7440286 4.362618 -0.78610831
-1.7179468 4.3750706 -0.7864542
-1.6889447 4.3800154 -0.78541642
-1.6592498 4.382926 -0.78403276
-1.6374679 4.4068747 -0.78662717
-1.6255687 4.4584832 -0.79441041
-1.5922151 4.4516792 -0.79129714
-1.5726886 4.4836726 -0.79544818
-1.5377862 4.4718142 -0.79147005
-1.5228924 4.5185027 -0.79838848
-1.4871149 4.5034432 -0.79389155
-1.4694488 4.5434108 -0.79959923
-1.4498622 4.5786352 -0.80444211
-1.4039693 4.5300531 -0.79389155
-1.3658669 4.5046477 -0.78766495
-1.3451954 4.5365529 -0.79198897
-1.3107589 4.522016 -0.78783792
-1.2875465 4.5460849 -0.79077822
-1.2520201 4.5263686 -0.78576237
-1.2234538 4.5311127 -0.78524351
-1.1876068 4.5080543 -0.77970874
-1.1653097 4.5362449 -0.7835139
-1.1310018 4.5175114 -0.77884394
-1.1144502 4.5702996 -0.78714603
-1.0861592 4.5760932 -0.78697312
-1.0616018 4.5980272 -0.78974044
-1.0376776 4.6236763 -0.79319966
-1.0076115 4.6222572 -0.791816
-0.98106354 4.6370258 -0.79337263
-0.94903392 4.6255903 -0.79025936
-0.91948324 4.6255298 -0.78922158
-0.88811046 4.6156087 -0.7864542
-0.85995281 4.6219397 -0.78662717
-0.82740146 4.6038628 -0.78247613
-0.79964119 4.6117644 -0.78299499
-0.77051854 4.6117263 -0.78213018
-0.74251926 4.6183124 -0.78247613
-0.71431798 4.623755 -0.7826491
-0.68362719 4.6124616 -0.77988172
-0.65572727 4.6194949 -0.78040057
-0.62208265 4.5843911 -0.77348214
-0.59709662 4.6125417 -0.77780616
-0.56782174 4.6082983 -0.7764225
-0.53907824 4.6077824 -0.77573067
-0.51220185 4.6237302 -0.77797914
-0.48361716 4.6248264 -0.77763325
-0.45321095 4.6071224 -0.77400106
-0.42412221 4.6009893 -0.77244443
-0.39546236 4.5985985 -0.77157962
-0.36364508 4.5557742 -0.76362342
-0.3375589 4.5834594 -0.76812041
-0.30975929 4.5903578 -0.76898521
-0.28266811 4.6098676 -0.77209848
-0.25518715 4.626267 -0.77469289
-0.22463776 4.5834765 -0.76690966
-0.19516821 4.5532794 -0.76137495
-0.16772856 4.568171 -0.76379639
-0.13871068 4.5366268 -0.75808865
-0.11144319 4.5610237 -0.76223975
-0.083295301 4.5527587 -0.76068306
-0.055358529 4.553184 -0.76068306
-0.027419673 4.5534382 -0.76068306
0.00052423147 4.5643549 -0.76258564
0.02856903 4.5701752 -0.76362342
0.056598108 4.5689292 -0.76345044
0.08442802 4.5576634 -0.76154786
0.11187647 4.5363827 -0.75791574
0.13952561 4.5297041 -0.75687796
0.16801246 4.5474634 -0.7601642
0.19471763 4.5187945 -0.75532132
0.22239208 4.516531 -0.75514835
0.24944407 4.5032806 -0.7530728
0.27871153 4.5282078 -0.75774276
0.30488783 4.5028286 -0.75359172
0.33294785 4.5067663 -0.75462943
0.36067343 4.5056205 -0.75480241
0.38805801 4.5003786 -0.75428355
0.41475564 4.4881058 -0.75255394
0.44335225 4.4962578 -0.75445652
0.47072661 4.4914937 -0.75411057
0.49544501 4.4630699 -0.74961358
0.52500421 4.4785314 -0.75289989
0.55283684 4.4781585 -0.75341874
0.57814622 4.4580779 -0.75047839
0.60575539 4.456398 -0.75082433
0.63822722 4.4886756 -0.75722384
0.65851319 4.4359641 -0.74857587
0.68813306 4.447413 -0.75134319
0.71540892 4.4431071 -0.75134319
0.74184388 4.4337769 -0.75047839
0.76701015 4.4174972 -0.74840289
0.79392624 4.4117384 -0.74822992
0.82043928 4.4038792 -0.74771106
0.84240794 4.3726506 -0.7430411
0.86421698 4.3422852 -0.73854411
0.88766956 4.321465 -0.73577678
0.91232973 4.3072658 -0.73422009
0.94441831 4.3275666 -0.73889005
0.98327488 4.3764625 -0.74874878
1.0081114 4.3617105 -0.74719214
1.0305247 4.3372374 -0.7439059
1.0536109 4.3164811 -0.74131149
1.0678533 4.2612133 -0.73249048
1.0888233 4.2345505 -0.72885835
1.1052332 4.1916018 -0.72228581
1.1239867 4.1590714 -0.7176159
1.1439612 4.132164 -0.71398371
1.1644546 4.1080117 -0.71087044
1.1846949 4.0837641 -0.70775712
1.2038401 4.056591 -0.70412499
1.2229831 4.0302796 -0.70066577
1.2438929 4.0104713 -0.69841725
1.2657971 3.994314 -0.69686061
1.288157 3.9799132 -0.69564992
1.3100786 3.9644535 -0.6942662
1.329654 3.9423425 -0.69167179
1.3499696 3.9229348 -0.6895963
1.3717296 3.9080729 -0.68838555
1.3920296 3.8893831 -0.68648297
1.4101249 3.8650405 -0.68354267
1.4331268 3.8544693 -0.68319672
1.458147 3.849287 -0.68388855
1.4849317 3.8485367 -0.68544519
1.5095993 3.8421028 -0.68596411
1.5327795 3.8318534 -0.68579113
1.5599791 3.8314974 -0.68752074
1.5883636 3.8336811 -0.68976921
1.6084113 3.8156955 -0.68821257
1.6314054 3.8048496 -0.6880396
1.6570843 3.800184 -0.68907738
1.6863626 3.8034492 -0.69167179
1.7137183 3.8020084 -0.6934014
1.7415301 3.80127 -0.69530398
1.7660693 3.793191 -0.69582283
1.7901535 3.7840636 -0.69616878
1.8167536 3.7801092 -0.69755244
1.8459663 3.78128 -0.69997388
1.8743862 3.7804699 -0.70204943
1.9019791 3.7776937 -0.70377904
1.9219829 3.7598143 -0.70256829
1.9495558 3.7566912 -0.7042979
1.978081 3.7551138 -0.70637345
2.0080538 3.7559328 -0.70896786
2.039521 3.7591214 -0.71208113
2.0734785 3.7663784 -0.71605927
2.0989521 3.7578835 -0.71692407
2.1229422 3.7466476 -0.71726996
2.1503105 3.741235 -0.71882659
2.1806698 3.740732 -0.721421
2.2176228 3.7510171 -0.72626394
2.2573168 3.7652116 -0.73197162
2.2716758 3.7369847 -0.72903126
2.3240316 3.7707608 -0.73889005
2.356523 3.7714622 -0.74200332
2.3875287 3.7694108 -0.74459773
2.414871 3.7613196 -0.74598145
2.4432788 3.7546854 -0.74771106
2.4190764 3.668102 -0.73266345
2.4377055 3.6474588 -0.73145276
2.4263365 3.5826957 -0.72090214
2.4945469 3.6351328 -0.73525786
2.5319917 3.641588 -0.73992783
2.5469117 3.6155179 -0.7376793
2.5885084 3.6270752 -0.74355996
2.5760791 3.5632422 -0.73318237
2.5891619 3.5354517 -0.73058796
2.6119804 3.52108 -0.73093385
2.6459651 3.5215197 -0.73456603
2.6627495 3.4989491 -0.73318237
2.6823642 3.4802051 -0.73266345
2.6945741 3.4520371 -0.73006904
2.7181487 3.4385285 -0.73076087
2.7404275 3.4233232 -0.73110682
2.7861981 3.4370418 -0.73802525
2.7778547 3.3841081 -0.72989607
2.7916393 3.3586698 -0.72799355
2.8179049 3.348258 -0.72955018
2.828172 3.3189127 -0.7267828
2.8684351 3.3246093 -0.73214459
2.8810024 3.2980471 -0.73006904
2.8913941 3.2692435 -0.72747463
2.9166572 3.2573094 -0.72885835
2.9590867 3.2641561 -0.73473901
2.9870536 3.2546437 -0.7368145
2.9962378 3.2247124 -0.73404717
3.0294683 3.2206118 -0.73750639
3.0145226 3.1655955 -0.72868538
3.0332057 3.1463304 -0.72851241
3.0483255 3.1234314 -0.72747463
3.081974 3.1193781 -0.73110682
3.1177771 3.1171174 -0.73525786
3.1431534 3.1041555 -0.7368145
3.148037 3.0710592 -0.73335528
3.1817188 3.0660336 -0.73698747
3.1926224 3.0389855 -0.73508489
3.2047496 3.0132685 -0.73352826
3.2368937 3.006279 -0.7368145
3.2414856 2.9737144 -0.73352826
3.2771916 2.9696369 -0.7376793
3.3092988 2.9619493 -0.74096555
3.3355296 2.9487619 -0.74286813
3.352818 2.9275923 -0.74269515
3.3610198 2.8986051 -0.74044669
3.378742 2.8779275 -0.74044669
3.4099066 2.8685513 -0.74355996
3.4433563 2.8607879 -0.74719214
3.4463747 2.8277395 -0.7439059
3.4942768 2.8313344 -0.75082433
3.481585 2.7858493 -0.74407887
3.4916565 2.7589405 -0.74252224
3.5061893 2.7356472 -0.74200332
3.5346148 2.7230954 -0.74459773
3.5473366 2.6983757 -0.74373293
3.5441339 2.661777 -0.73940891
3.5817652 2.6558142 -0.74407887
3.6170714 2.6477444 -0.74822992
3.6412339 2.6312673 -0.74995953
3.6372612 2.5945816 -0.74563551
3.6853316 2.5948882 -0.75255394
3.692286 2.5660458 -0.75065136
3.7103984 2.5450127 -0.75117028
3.6827087 2.4929471 -0.74200332
3.7216909 2.4861634 -0.74701917
3.766485 2.4827876 -0.75324577
3.7593517 2.4451365 -0.74857587
3.7577028 2.4113891 -0.74511665
3.7865775 2.3972394 -0.74805695
3.7970376 2.3713529 -0.74719214
3.8257747 2.3567884 -0.7501325
3.8586848 2.3445163 -0.7539376
3.8738427 2.3213017 -0.75411057
3.8625708 2.2824631 -0.74892175
3.8918235 2.2676413 -0.75203508
3.8979766 2.2393053 -0.75047839
3.9279294 2.2245634 -0.75376469
3.9492462 2.2047391 -0.75532132
3.9583845 2.1780925 -0.75445652
3.9630151 2.1490705 -0.75272691
3.9613574 2.1168258 -0.74978656
3.9838593 2.0975246 -0.75168914
4.0080223 2.078933 -0.7539376
4.0285974 2.0583322 -0.75549424
4.0393915 2.0326896 -0.75514835
4.0447268 2.0043693 -0.75376469
4.0534081 1.9777868 -0.7530728
4.0468211 1.9439273 -0.74944067
4.0346284 1.9076989 -0.74477071
4.088233 1.9024264 -0.75289989
4.0980377 1.8764861 -0.75255394
4.1247425 1.8581791 -0.75549424
4.1324639 1.8312399 -0.75480241
4.1363983 1.802703 -0.75341874
4.1392331 1.7737992 -0.75186211
4.1582088 1.7518073 -0.75341874
4.1779804 1.7300258 -0.75514835
4.1720943 1.6976799 -0.75203508
4.1723714 1.6680292 -0.7501325
4.158689 1.6330428 -0.74563551
4.204474 1.6213058 -0.75238097
4.2014461 1.5905985 -0.74995953
4.2175903 1.5671886 -0.75117028
4.225276 1.5406063 -0.75082433
4.2263021 1.5116682 -0.7492677
4.2420044 1.487988 -0.75047839
4.2696843 1.4683328 -0.7539376
4.266479 1.4380205 -0.75168914
4.2602568 1.406877 -0.74892175
4.2856789 1.3861617 -0.75203508
4.2649927 1.3506289 -0.74667329
4.2647324 1.3218118 -0.74511665
4.2991557 1.3036147 -0.74995953
4.3259611 1.2828065 -0.75341874
4.340373 1.2581565 -0.75462943
4.3461161 1.2309645 -0.75428355
4.3497896 1.2032247 -0.75359172
4.3437777 1.1729211 -0.75117028
4.3489876 1.1457448 -0.75082433
4.358798 1.1197728 -0.75134319
4.3713198 1.0944403 -0.75238097
4.4018764 1.0734253 -0.75670499
4.3901711 1.0420785 -0.75341874
4.4003215 1.0160066 -0.75411057
4.3891735 0.98510969 -0.7509973
4.4124584 0.96193141 -0.75411057
4.4124956 0.93361717 -0.7530728
4.4229655 0.90751362 -0.7539376
4.4187899 0.87843978 -0.75220799
4.4269981 0.85186768 -0.75272691
4.4156799 0.82162941 -0.74978656
4.4409966 0.79817337 -0.75341874
4.4458103 0.77090889 -0.75341874
4.456286 0.74458778 -0.75445652
4.475358 0.71957207 -0.75705093
4.4767685 0.69164783 -0.75653201
4.49262 0.66589576 -0.75860757
4.4868693 0.63693529 -0.75687796
4.4926453 0.60965675 -0.75722384
4.4972782 0.58220512 -0.75739682
4.5017433 0.55471957 -0.75756979
4.5236497 0.52925682 -0.76085603
4.5150647 0.50019187 -0.75878054
4.5258856 0.47329605 -0.7601642
4.5267439 0.44532448 -0.75981826
4.5136986 0.41609797 -0.75705093
4.4985027 0.38688007 -0.7539376
4.5076647 0.35981733 -0.75514835
4.5205932 0.33294502 -0.75705093
4.5245161 0.30533305 -0.75739682
4.5597296 0.27960649 -0.76327747
4.5525084 0.25113726 -0.76172084
4.5392075 0.22247942 -0.75912642
4.5375352 0.19449739 -0.75860757
4.5317531 0.16640073 -0.75739682
4.5405645 0.13883007 -0.75878054
4.5354233 0.11082423 -0.75774276
4.5409417 0.083082132 -0.75860757
4.5384111 0.05518271 -0.75808865
4.5416193 0.027351536 -0.75860757
4.5377617 -0.00051436858 -0.75791574
4.5288091 -0.028299864 -0.75635904
4.5265803 -0.056062676 -0.75601315
4.5300903 -0.083910175 -0.75670499
4.5245671 -0.11158203 -0.75584018
4.5188751 -0.13918926 -0.75497538
4.5248256 -0.16717026 -0.75618613
4.5227308 -0.19488826 -0.75601315
4.5145636 -0.22229469 -0.75480241
4.4993467 -0.24922515 -0.75238097
4.5173941 -0.27804315 -0.75584018
4.484158 -0.30361879 -0.75030547
4.5224819 -0.33411297 -0.75739682
4.5144563 -0.36138305 -0.75635904
4.5082288 -0.38873696 -0.75566721
4.5341997 -0.41902733 -0.76068306
4.5286026 -0.44655007 -0.7601642
4.5473275 -0.47659278 -0.76396936
4.5452962 -0.50459462 -0.76414227
4.5196161 -0.52983117 -0.7601642
4.506505 -0.55634379 -0.75843459
4.4932394 -0.58271545 -0.75670499
4.482748 -0.60934407 -0.75549424
4.4642987 -0.63475472 -0.75289989
4.471036 -0.66372889 -0.75480241
4.478559 -0.69296044 -0.75687796
4.4771399 -0.72089779 -0.75739682
4.4901171 -0.75128561 -0.76051015
4.4747486 -0.77696609 -0.75860757
4.478621 -0.80598027 -0.7601642
4.4794006 -0.83452928 -0.76120198
4.4809651 -0.86330467 -0.76241267
4.4659247 -0.88885802 -0.76068306
4.4381976 -0.91167974 -0.75670499
4.430593 -0.93848616 -0.75635904
4.4228268 -0.96523362 -0.75601315
4.4072118 -0.99019182 -0.75428355
4.4106488 -1.0194358 -0.75601315
4.3880215 -1.042605 -0.7530728
4.3872824 -1.0709126 -0.75411057
4.3940034 -1.1011678 -0.75653201
4.3909793 -1.1290902 -0.75722384
4.3820639 -1.1555088 -0.75687796
4.3615808 -1.1787739 -0.75445652
4.3609099 -1.2073551 -0.75566721
4.3429971 -1.2311329 -0.75376469
4.3590074 -1.2646247 -0.75808865
4.3521099 -1.2916278 -0.75826162
4.3431606 -1.3180212 -0.75808865
4.3321695 -1.3437694 -0.75756979
4.333231 -1.3733038 -0.7592994
4.3003616 -1.3919737 -0.75480241
4.2926745 -1.4186434 -0.75497538
4.2913547 -1.4474763 -0.75635904
4.2870483 -1.475384 -0.75722384
4.2704811 -1.4990494 -0.75584018
4.27882 -1.5315353 -0.75912642
4.2600904 -1.5543824 -0.75739682
4.2495494 -1.5801491 -0.75722384
4.2563515 -1.6124791 -0.76033717
4.2243261 -1.6300497 -0.75618613
4.2050786 -1.6523346 -0.75445652
4.2168059 -1.6868908 -0.75860757
4.1799245 -1.7019546 -0.75359172
4.1775913 -1.7309654 -0.75514835
4.1723366 -1.758863 -0.75618613
4.170517 -1.7883148 -0.75791574
4.1531467 -1.8111134 -0.75670499
4.1527591 -1.8413562 -0.75878054
4.1333022 -1.8631575 -0.75722384
4.1361175 -1.8950516 -0.75999123
4.1172695 -1.9170669 -0.75860757
4.1063194 -1.9427154 -0.75878054
4.0907712 -1.9661671 -0.75808865
4.0892496 -1.9964186 -0.7601642
4.0786877 -2.0223477 -0.76051015
4.0635629 -2.0460064 -0.75999123
4.0307646 -2.0605848 -0.75601315
4.0005631 -2.0762 -0.75255394
4.0313134 -2.1236718 -0.76120198
4.0008378 -2.139075 -0.75774276
3.9668632 -2.1523051 -0.75359172
3.9406419 -2.1694763 -0.7509973
3.9289753 -2.1945758 -0.75134319
3.9197197 -2.2210712 -0.75220799
3.913702 -2.2494996 -0.75376469
3.9270501 -2.2893517 -0.7592994
3.9137766 -2.313906 -0.75947237
3.9054174 -2.3414237 -0.76068306
3.8935018 -2.3668783 -0.76120198
3.8738756 -2.3876219 -0.7601642
3.8950636 -2.4337981 -0.76760149
3.8767292 -2.455543 -0.76690966
3.836729 -2.4633138 -0.76172084
3.8397007 -2.4986322 -0.765526
3.8251193 -2.5226877 -0.76569897
3.8071122 -2.5444682 -0.76518005
3.8003969 -2.5738578 -0.76708263
3.7829084 -2.5960131 -0.76673669
3.7483125 -2.6062388 -0.76275861
3.7612324 -2.6496165 -0.76898521
3.7168493 -2.6526124 -0.76293159
3.6997051 -2.6747913 -0.76275861
3.6856067 -2.6991885 -0.76327747
3.6784661 -2.7287962 -0.76535302
3.657717 -2.7483563 -0.76448822
3.6164923 -2.7522509 -0.75912642
3.5979767 -2.7731867 -0.75878054
3.570802 -2.7873299 -0.75653201
3.5582671 -2.8128536 -0.75756979
3.5547781 -2.8457167 -0.76068306
3.5510192 -2.8786426 -0.76379639
3.5104556 -2.8816237 -0.75860757
3.5002809 -2.9094069 -0.76033717
3.4718156 -2.9219477 -0.75791574
3.4455771 -2.9361663 -0.75601315
3.4431529 -2.9707682 -0.75964534
3.417444 -2.9853575 -0.75791574
3.4130762 -3.0186718 -0.76120198
3.3724823 -3.0198405 -0.75601315
3.3735869 -3.0583429 -0.76068306
3.3699925 -3.0929749 -0.76431525
3.3321955 -3.0961587 -0.75981826
3.3181558 -3.1212716 -0.76102901
3.3181946 -3.1599169 -0.76569897
3.2810209 -3.1631231 -0.76137495
3.2439334 -3.1659927 -0.75705093
3.2160406 -3.1775284 -0.75497538
3.2173688 -3.2181032 -0.7601642
3.1830325 -3.2230635 -0.75653201
3.1652589 -3.2446492 -0.75705093
3.1398246 -3.2583346 -0.75566721
3.1156995 -3.2732573 -0.75462943
3.1090462 -3.306668 -0.75808865
3.0880284 -3.3249607 -0.75791574
3.0762219 -3.3532834 -0.7601642
3.0529439 -3.3691754 -0.75947237
3.0289302 -3.3841741 -0.75860757
3.0218036 -3.4181955 -0.76223975
3.0078969 -3.4448354 -0.76414227
2.9744852 -3.4490519 -0.76085603
2.9283662 -3.4379895 -0.75411057
2.9072158 -3.4558928 -0.75411057
2.8784058 -3.4645731 -0.75203508
2.8489742 -3.4722688 -0.74978656
2.8393924 -3.5042272 -0.7530728
2.8209133 -3.5254295 -0.7539376
2.799839 -3.5434449 -0.75411057
2.8210468 -3.6157026 -0.7663908
2.8102252 -3.6477716 -0.76967704
2.7854056 -3.6618099 -0.76898521
2.7510593 -3.6630776 -0.765526
2.7255991 -3.6759324 -0.76466119
2.7018297 -3.6909974 -0.76431525
2.6779778 -3.705909 -0.76396936
2.6546166 -3.7214689 -0.76379639
2.6357 -3.7433257 -0.76500708
2.6143672 -3.7618544 -0.765526
2.5923498 -3.7794497 -0.76587188
2.5442746 -3.7585754 -0.75808865
2.5457747 -3.8109772 -0.76587188
2.5662336 -3.8931472 -0.77988172
2.5358558 -3.8989105 -0.77780616
2.5124164 -3.915226 -0.77797914
2.4846594 -3.9247417 -0.77676845
2.469918 -3.9549532 -0.77988172
2.4466372 -3.9717112 -0.78022766
2.4119968 -3.9698114 -0.77676845
2.3617849 -3.941442 -0.76794744
2.3480742 -3.9736691 -0.77157962
2.3251348 -3.990555 -0.77209848
2.2961919 -3.9970593 -0.77054185
2.2604647 -3.9913588 -0.76656377
2.2570465 -4.0429988 -0.77417403
2.2260268 -4.0455518 -0.77192551
2.2063241 -4.0686598 -0.77382809
2.1845655 -4.0882025 -0.77503884
2.1534774 -4.0901985 -0.77279031
2.1428447 -4.1313167 -0.77832508
2.1062577 -4.1224575 -0.77400106
2.0623376 -4.0983467 -0.76673669
2.042834 -4.1223979 -0.76898521
2.0170693 -4.1339698 -0.76881224
1.9844198 -4.1311736 -0.76587188
1.9577718 -4.1406002 -0.76535302
1.9298369 -4.1471767 -0.76431525
1.9236155 -4.2010336 -0.77244443
1.9022497 -4.2226372 -0.77434695
1.8850778 -4.2540421 -0.77815211
1.849895 -4.2447596 -0.77417403
1.8214885 -4.250598 -0.77313626
1.7972838 -4.2662334 -0.77400106
1.7770981 -4.2917423 -0.77676845
1.7496181 -4.2998285 -0.77624953
1.7286825 -4.324203 -0.77884394
1.6754948 -4.26688 -0.76604486
1.6468033 -4.2706466 -0.76483417
1.6310226 -4.3083076 -0.77002293
1.6059279 -4.3219275 -0.77071482
1.5780302 -4.3279982 -0.77002293
1.5375227 -4.2986455 -0.76275861
1.4013329 -3.9947593 -0.70447087
0 -0 -0
1.3471761 -3.9967203 -0.70170349
1.3269477 -4.0180058 -0.70412499
1.3043888 -4.0326324 -0.70533568
1.2855626 -4.0593414 -0.70879489
1.2696623 -4.0963192 -0.71415669
1.252214 -4.1294837 -0.71882659
1.2405611 -4.183363 -0.72730166
1.2258279 -4.2287383 -0.73422009
1.2398138 -4.3773909 -0.75999123
1.2179158 -4.4029531 -0.76327747
1.2078066 -4.4731054 -0.77469289
1.1758254 -4.4632874 -0.77157962
1.1586995 -4.5104866 -0.77884394
1.1290902 -4.5098672 -0.77746028
1.0955695 -4.4927864 -0.77313626
1.0638916 -4.4821739 -0.77002293
1.0430095 -4.5174093 -0.77521175
1.0131172 -4.5141134 -0.77348214
0.98099971 -4.5000348 -0.76985002
0.96029305 -4.5387335 -0.77573067
0.93440294 -4.5541892 -0.77746028
0.90644139 -4.5598369 -0.77746028
0.86859512 -4.5140495 -0.76829338
0.84196061 -4.525104 -0.7693311
0.81696284 -4.5456963 -0.77209848
0.78804743 -4.5448003 -0.77106071
0.76354969 -4.569952 -0.77469289
0.73096758 -4.546349 -0.76967704
0.70335823 -4.5526953 -0.77002293
0.67036468 -4.5228243 -0.76396936
0.64591676 -4.5502567 -0.76812041
0.62089294 -4.5756068 -0.77192551
0.58901989 -4.5500259 -0.76673669
0.56217217 -4.5623527 -0.76829338
0.53428173 -4.5666943 -0.76846629
0.50397879 -4.5493283 -0.76483417
0.47697487 -4.5611515 -0.7663908
0.45071036 -4.5816364 -0.76950407
0.42204851 -4.5784311 -0.76846629
0.39394784 -4.5809345 -0.76846629
0.36575425 -4.5822835 -0.76829338
0.33727053 -4.5795302 -0.76742858
0.30929685 -4.5834789 -0.76777446
0.27882606 -4.5469494 -0.76102901
0.25216323 -4.5711942 -0.76500708
0.22449388 -4.5805254 -0.7663908
0.19638407 -4.5818167 -0.7663908
0.16769268 -4.5671868 -0.76362342
0.13960609 -4.5661612 -0.76327747
0.11158603 -4.5669317 -0.76327747
0.083419651 -4.5596523 -0.76189381
0.055581234 -4.5718966 -0.76396936
0.027533237 -4.5731363 -0.76414227
-0.00052642328 -4.5702643 -0.76362342
-0.028684385 -4.5879035 -0.76673669
-0.056859598 -4.5896111 -0.76708263
-0.085315764 -4.6049318 -0.76985002
-0.11315236 -4.5875831 -0.76690966
-0.14114623 -4.5818801 -0.76604486
-0.16881804 -4.5691166 -0.76396936
-0.19702107 -4.5719309 -0.76466119
-0.22497281 -4.5686684 -0.76431525
-0.25201628 -4.5495005 -0.76120198
-0.27998751 -4.548852 -0.76137495
-0.30789348 -4.5470481 -0.76137495
-0.33615196 -4.5499845 -0.76223975
-0.36540416 -4.5645266 -0.76518005
-0.39340469 -4.5621982 -0.76518005
-0.42175397 -4.5636215 -0.76587188
-0.44858503 -4.5491858 -0.76379639
-0.47648987 -4.5463476 -0.76379639
-0.5031786 -4.5325708 -0.76189381
-0.5291416 -4.5137467 -0.75912642
-0.55948788 -4.5319195 -0.76293159
-0.58690393 -4.5254712 -0.76241267
-0.61412901 -4.5178809 -0.76172084
-0.64114416 -4.5091524 -0.76085603
-0.66546744 -4.4827266 -0.75687796
-0.69899464 -4.5174913 -0.76379639
-0.72372061 -4.4946423 -0.76051015
-0.75389022 -4.5056591 -0.76327747
-0.7818597 -4.5028892 -0.76362342
-0.80860072 -4.4931607 -0.76275861
-0.83561307 -4.4852099 -0.76223975
-0.86442417 -4.4867678 -0.76345044
-0.89097559 -4.4765496 -0.76258564
-0.91525155 -4.4555631 -0.75981826
-0.9437992 -4.4556441 -0.76085603
-0.96775669 -4.4343734 -0.75808865
-0.99537957 -4.430274 -0.75843459
-1.020768 -4.4164062 -0.75705093
-1.0483034 -4.4119763 -0.75739682
-1.0760564 -4.4083314 -0.75791574
-1.1069199 -4.4169312 -0.76068306
-1.1303179 -4.3957481 -0.75808865
-1.1572684 -4.38873 -0.75808865
-1.1818604 -4.3729897 -0.75653201
-1.2055138 -4.3542662 -0.75445652
-1.2305952 -4.3411021 -0.75341874
-1.2445736 -4.2899604 -0.74546254
-1.2644221 -4.2605276 -0.74148446
-1.3037082 -4.2960396 -0.74944067
-1.3233268 -4.266325 -0.74546254
-1.3465016 -4.2487364 -0.74373293
-1.3786172 -4.2591343 -0.74719214
-1.421427 -4.3010907 -0.75653201
-1.4547219 -4.3128181 -0.76033717
-1.4837235 -4.3112607 -0.76172084
-1.5108019 -4.3039341 -0.76206678
-1.5361855 -4.2918015 -0.76154786
-1.5624906 -4.2822948 -0.76154786
-1.5856452 -4.2643189 -0.75999123
-1.6093366 -4.2480626 -0.75878054
-1.637146 -4.242702 -0.75964534
-1.6613457 -4.2279935 -0.75878054
-1.6912836 -4.2277784 -0.76068306
-1.7075295 -4.1936064 -0.75618613
-1.7509599 -4.2258115 -0.76431525
-1.7757075 -4.212266 -0.76379639
-1.80152 -4.2012911 -0.76379639
-1.8189921 -4.1712008 -0.7601642
-1.8561364 -4.1860695 -0.76518005
-1.8834066 -4.1781931 -0.76587188
-1.9081872 -4.1647673 -0.765526
-1.9345378 -4.1547661 -0.76587188
-1.9578873 -4.1383667 -0.76500708
-1.9930615 -4.1466904 -0.76898521
-2.0124149 -4.1219935 -0.76656377
-2.0153437 -4.0645709 -0.75774276
-2.0411317 -4.0538874 -0.75808865
-2.0677617 -4.0447946 -0.75878054
-2.0902715 -4.0276604 -0.75791574
-2.1264274 -4.036541 -0.76223975
-2.1358228 -3.9947586 -0.75653201
-2.1588843 -3.9789813 -0.75601315
-2.1884856 -3.9751494 -0.75791574
-2.2190824 -3.9728231 -0.7601642
-2.2346733 -3.9437101 -0.75705093
-2.25441 -3.92224 -0.75549424
-2.287863 -3.9244978 -0.75878054
-2.2958529 -3.8832593 -0.75324577
-2.3338237 -3.8927484 -0.75808865
-2.364831 -3.8901358 -0.76051015
-2.4000297 -3.8939955 -0.76431525
-2.4097803 -3.856647 -0.75964534
-2.4376166 -3.8484437 -0.76102901
-2.4579904 -3.8284423 -0.75999123
-2.4851968 -3.819066 -0.76120198
-2.5064137 -3.800457 -0.76051015
-2.5170929 -3.7661753 -0.75653201
-2.5561774 -3.7743053 -0.76154786
-2.5781729 -3.7569261 -0.76120198
-2.587677 -3.7216315 -0.75705093
-2.589469 -3.6758966 -0.75065136
-2.6011002 -3.6447093 -0.74736512
-2.6072514 -3.6063359 -0.74252224
-2.627584 -3.5878868 -0.74200332
-2.6419182 -3.5614152 -0.73975486
-2.6430058 -3.5175831 -0.73370123
-2.6543961 -3.4879782 -0.73076087
-2.6607111 -3.452127 -0.72643691
-2.701849 -3.4613521 -0.73214459
-2.7102058 -3.4284861 -0.72851241
-2.7194927 -3.3971858 -0.72522616
-2.7390454 -3.3789055 -0.72488022
-2.7578509 -3.3597522 -0.72436136
-2.7632997 -3.3245924 -0.72021031
-2.7734964 -3.2955201 -0.71744293
-2.7840798 -3.2671978 -0.71484852
-2.7931333 -3.2373788 -0.71190822
-2.8071113 -3.2135053 -0.71035153
-2.8182909 -3.1866319 -0.70810306
-2.8253036 -3.1553411 -0.70481682
-2.8439496 -3.1372163 -0.70464385
-2.8391633 -3.0935905 -0.69841725
-2.8500445 -3.0674551 -0.69634175
-2.8559868 -3.0362823 -0.69305551
-2.8568988 -3.0001609 -0.68855852
-2.8567917 -2.9634347 -0.68388855
-2.8618469 -2.932461 -0.68060231
-2.8763242 -2.9113436 -0.67973751
-2.8788064 -2.8783238 -0.67593241
-2.8823938 -2.8467674 -0.67247319
-2.8849978 -2.8145883 -0.668841
-2.9043417 -2.7988832 -0.66935986
-2.9007666 -2.761322 -0.66434401
-2.9040182 -2.7306559 -0.66105777
-2.9163873 -2.7087655 -0.66001999
-2.9264195 -2.6848292 -0.65846336
-2.9384582 -2.6628554 -0.65742558
-2.9481351 -2.6388652 -0.65586895
-2.9487715 -2.6070306 -0.65223676
-2.9610021 -2.5856502 -0.65137196
-2.9559226 -2.5494277 -0.64652908
-2.9602604 -2.5216656 -0.64393467
-2.9628615 -2.4926789 -0.64099437
-2.9690077 -2.4669018 -0.63891882
-2.9901812 -2.4536343 -0.64030248
-3.0067108 -2.4364803 -0.64064842
-3.0139122 -2.411834 -0.63891882
-3.0356109 -2.3987894 -0.64047545
-3.0393987 -2.3716388 -0.63805401
-3.0421877 -2.3439312 -0.6354596
-3.0471039 -2.3180676 -0.63338405
-3.0557559 -2.2951882 -0.63217336
-3.06899 -2.2758088 -0.63200039
-3.0876658 -2.2604244 -0.63303816
-3.0871053 -2.2310562 -0.62992483
-3.0911129 -2.2052109 -0.62784934
-3.0973363 -2.1811013 -0.62629271
-3.1074252 -2.1598077 -0.62560087
-3.1165571 -2.1379158 -0.62473607
-3.131248 -2.1198566 -0.62508196
-3.1319091 -2.0924003 -0.62248755
-3.1307068 -2.0639322 -0.61954725
-3.123493 -2.0318005 -0.6153962
-3.1292684 -2.008343 -0.61401248
-3.142365 -1.9896311 -0.61418545
-3.1553495 -1.9708339 -0.61435843
-3.1673827 -1.951436 -0.61435843
-3.1708782 -1.9268523 -0.61262882
-3.1784165 -1.9048297 -0.61176401
-3.172235 -1.8747737 -0.60813183
-3.173465 -1.8493264 -0.60605627
-3.1745026 -1.8239347 -0.60398078
-3.184777 -1.8039368 -0.60380781
-3.1983662 -1.7858012 -0.60432667
-3.2084005 -1.7656682 -0.60415375
-3.2157102 -1.7440714 -0.60346186
-3.2141879 -1.7178117 -0.60104042
-3.2150798 -1.6930125 -0.5991379
-3.2297795 -1.6755197 -0.60000271
-3.22421 -1.6476084 -0.59688938
-3.2298591 -1.6255814 -0.59602457
-3.2362423 -1.6039844 -0.59533274
-3.2477939 -1.5849603 -0.59567869
-3.2627854 -1.5675598 -0.5967164
-3.2500792 -1.5369908 -0.59239239
-3.2603419 -1.517435 -0.59256536
-3.2642176 -1.4949424 -0.59152758
-3.2706347 -1.4736724 -0.59100872
-3.2787149 -1.4531777 -0.59083575
-3.2830546 -1.4310662 -0.58997095
-3.288152 -1.409344 -0.58927912
-3.2931066 -1.3876131 -0.58858728
-3.2997386 -1.3666277 -0.58824134
-3.3016753 -1.3437582 -0.58703065
-3.3071144 -1.322378 -0.58651173
-3.3197503 -1.3038599 -0.58737653
-3.3056307 -1.2749666 -0.58322549
-0.26968586 -0.10326786 -0.011763643
-0.26569775 -0.099897034 -0.010898841
-0.27093282 -0.099950626 -0.011763643
-0 -0 -0
-0 -0 -0
-0.27458963 -0.095586829 -0.012109565
-0.27517098 -0.093900181 -0.012109565
-0.27574196 -0.092209995 -0.012109565
-0.27630255 -0.090516344 -0.012109565
-0.2740356 -0.08792796 -0.011590683
-0.27645168 -0.086827531 -0.011936604
-0 -0 -0
-0.27371892 -0.082309417 -0.011244762
-0.27421883 -0.080628365 -0.011244762
-0.27281293 -0.078407951 -0.010898841
-0.2713902 -0.076207839 -0.010552919
-0.26614708 -0.073002122 -0.0095151551
-0.27039996 -0.072370388 -0.010206997
-0.27179295 -0.070954703 -0.010379958
-0.2731787 -0.069524638 -0.010552919
-0.27455711 -0.068080232 -0.01072588
-0.27305296 -0.065939859 -0.010379958
-0.27537188 -0.064705871 -0.01072588
-0.27384156 -0.062584117 -0.010379958
