# .PCD v0.7 - Point Cloud Data file format
VERSION 0.7
FIELDS x y z
SIZE 4 4 4
TYPE F F F
COUNT 1 1 1
WIDTH 1648
HEIGHT 1
VIEWPOINT 0 0 0 1 0 0 0
POINTS 1648
DATA ascii
1.9700058 -1.8977549 -0.74365157
1.9645188 -1.9158463 -0.74613231
1.9609362 -1.9359672 -0.74943995
1.9531004 -1.9520395 -0.75109375
1.952575 -1.9756078 -0.75577962
1.9417593 -1.9889269 -0.75633085
1.9268495 -1.9980365 -0.75522834
1.9112378 -2.0063422 -0.75385016
1.8955971 -2.0145316 -0.75247192
1.8760006 -2.0183809 -0.74943995
1.8590294 -2.0248978 -0.74751049
1.8452781 -2.0348425 -0.74695921
1.8263433 -2.0389674 -0.74420285
1.8163463 -2.0530145 -0.74530536
1.7999192 -2.0597785 -0.74365157
1.7897595 -2.0736942 -0.74475408
1.778873 -2.0868313 -0.74558103
1.7716076 -2.1043243 -0.74806178
1.7586625 -2.1151552 -0.74806178
1.7499218 -2.1311059 -0.74999124
1.7428683 -2.1492686 -0.7527476
1.7320516 -2.1629231 -0.75385016
1.7199403 -2.1750178 -0.75440139
1.7118877 -2.1923485 -0.75688213
1.6954682 -2.1990051 -0.75550395
1.6866024 -2.2154851 -0.75770909
1.674132 -2.2273288 -0.75826031
1.6420997 -2.2128599 -0.74943995
1.6296273 -2.2244446 -0.74999124
1.6142575 -2.2320654 -0.74916428
1.5994141 -2.2403638 -0.748613
1.5823144 -2.2454214 -0.74695921
1.5712519 -2.2590332 -0.74833739
1.560082 -2.272594 -0.74971557
1.5423332 -2.2765534 -0.7477861
1.5326105 -2.2923665 -0.74999124
1.5179865 -2.3009248 -0.74971557
1.5075115 -2.3158345 -0.75164503
1.4932735 -2.3250408 -0.75164503
1.47795 -2.3325357 -0.75109375
1.4646292 -2.3431904 -0.75164503
1.4517379 -2.3545878 -0.75247192
1.4367635 -2.3626299 -0.75219631
1.4182833 -2.3648069 -0.74999124
1.4047254 -2.3751194 -0.75054246
1.3896412 -2.3828635 -0.75026685
1.3740355 -2.389679 -0.74971557
1.3612435 -2.4014096 -0.75081813
1.3488281 -2.4139121 -0.75219631
1.3358467 -2.4255106 -0.75329888
1.3213975 -2.4345064 -0.75357449
1.3087022 -2.4468064 -0.75495267
1.2945608 -2.456491 -0.75550395
1.2799067 -2.4652412 -0.75577962
1.2577512 -2.4593558 -0.75136942
1.2387444 -2.459301 -0.74888867
1.226622 -2.472883 -0.75081813
1.2038299 -2.4648166 -0.74585664
1.1911834 -2.4773543 -0.74751049
1.1714354 -2.4750597 -0.74447846
1.1521665 -2.4734879 -0.74172211
1.1449809 -2.4979866 -0.74723482
1.1300273 -2.5058413 -0.74751049
1.1200892 -2.5250285 -0.75136942
1.1095735 -2.5433068 -0.75495267
1.0943263 -2.5509505 -0.75522834
1.0820162 -2.5655882 -0.75770909
1.0691996 -2.5792825 -0.75991416
1.0551671 -2.5902452 -0.76129234
0 -0 -0
1.0250605 -2.6074717 -0.76267052
1.009042 -2.6137123 -0.76267052
0.98957747 -2.6108663 -0.75991416
0.97655648 -2.6249969 -0.76239491
0.95812309 -2.624619 -0.76046544
0.93875855 -2.6213992 -0.75770909
0.922019 -2.6252961 -0.7571578
0.90370148 -2.6245422 -0.75522834
0.88911813 -2.6345916 -0.75660652
0.87504917 -2.6463859 -0.75853598
0.85849851 -2.6507909 -0.75826031
0.83960122 -2.6477623 -0.75577962
0.82419425 -2.6556182 -0.75660652
0.80788416 -2.6606255 -0.75660652
0.79044855 -2.6618466 -0.75550395
0.7706154 -2.6546462 -0.7519207
0.75326252 -2.6556256 -0.75081813
0.73592669 -2.6564922 -0.74971557
0.72312796 -2.6739483 -0.75357449
0.70130903 -2.6578877 -0.74751049
0.69121873 -2.6863444 -0.75467706
0.67448866 -2.6896026 -0.75440139
0.65569061 -2.6843529 -0.75164503
0.63831741 -2.6845849 -0.75054246
0.62768543 -2.7137368 -0.7579847
0.60975641 -2.71191 -0.75633085
0.59023154 -2.7024531 -0.75247192
0.57064629 -2.6919188 -0.74833739
0.55644274 -2.7066681 -0.75164503
0.54095197 -2.7156878 -0.75329888
0.52227515 -2.7085733 -0.75026685
0.50582218 -2.712672 -0.75054246
0.48967963 -2.7185626 -0.75136942
0.47249544 -2.7186749 -0.75054246
0.45389804 -2.7101467 -0.74723482
0.43940371 -2.7261665 -0.75109375
0.42193165 -2.7240617 -0.74971557
0.40605783 -2.7323041 -0.75136942
0.38955629 -2.7366476 -0.7519207
0 -0 -0
0.35718322 -2.7507544 -0.75467706
0.34041625 -2.7538481 -0.75495267
0.32295153 -2.7511117 -0.75357449
0.30563954 -2.7492201 -0.75247192
0.28846344 -2.7481756 -0.75164503
0.27159551 -2.7498939 -0.75164503
0.2548061 -2.7524657 -0.7519207
0.23816112 -2.7568505 -0.7527476
0.22170287 -2.764009 -0.75440139
0.20409906 -2.7566895 -0.7519207
0.18731093 -2.7598081 -0.75247192
0.17019552 -2.7580273 -0.75164503
0.15316246 -2.7571001 -0.75109375
0.13624233 -2.757988 -0.75109375
0.11915039 -2.7549305 -0.74999124
0.10245889 -2.7613733 -0.75164503
0.085752562 -2.7696364 -0.75385016
0.068924703 -2.7768371 -0.75577962
0.051903144 -2.7781689 -0.75605524
0.034782477 -2.7726679 -0.75440139
0.017762754 -2.771868 -0.75412577
0.00075415941 -2.7709634 -0.75385016
-0.01617117 -2.7574584 -0.74999124
-0.033033326 -2.7525015 -0.748613
-0.050008211 -2.7570524 -0.74999124
-0.066877842 -2.7547717 -0.74943995
-0.083924986 -2.7591136 -0.75081813
-0.10095796 -2.7614286 -0.75164503
-0.11777724 -2.7578759 -0.75081813
-0.13511795 -2.7657425 -0.75329888
-0.15240164 -2.7706203 -0.75495267
-0.16939898 -2.7696331 -0.75495267
-0.18638994 -2.7685416 -0.75495267
-0.20400673 -2.7759738 -0.75743341
-0.22164553 -2.7823358 -0.75963855
-0.23830307 -2.7761347 -0.75826031
-0.25471696 -2.7679195 -0.75633085
-0.27178964 -2.7672613 -0.75660652
-0.28766748 -2.7550247 -0.75357449
-0.30541104 -2.7608511 -0.75577962
-0.3212314 -2.7493775 -0.75302321
-0.3377434 -2.7444923 -0.75219631
-0.35519254 -2.7471352 -0.75357449
-0.37101018 -2.7372835 -0.75136942
-0.38887736 -2.7425694 -0.75357449
-0.40555748 -2.7391808 -0.75329888
-0.42133176 -2.7299905 -0.75136942
-0.43853167 -2.7302012 -0.75219631
-0.45543376 -2.7284074 -0.75247192
-0.47282216 -2.7293501 -0.75357449
-0.49057877 -2.7320745 -0.75522834
-0.50610429 -2.7223973 -0.75329888
-0.52298045 -2.7201846 -0.75357449
-0.54003567 -2.7188103 -0.75412577
-0.55574316 -2.710737 -0.7527476
-0.57216674 -2.7063353 -0.75247192
-0.58794391 -2.6990166 -0.75136942
-0.60281187 -2.6878543 -0.74916428
-0.61994082 -2.6869149 -0.74999124
-0.63730264 -2.6868019 -0.75109375
-0.65377653 -2.6828411 -0.75109375
-0.673024 -2.6899695 -0.75440139
-0.68856108 -2.682065 -0.75329888
-0.70647264 -2.6833673 -0.75495267
-0.72467631 -2.6854784 -0.75688213
-0.73909247 -2.6735692 -0.75467706
-0.75548327 -2.6689837 -0.75467706
-0.76810277 -2.6513712 -0.75081813
-0.7851758 -2.6493733 -0.75164503
-0.80197459 -2.6463459 -0.75219631
-0.81620711 -2.6349473 -0.75026685
-0.8317796 -2.6280565 -0.74971557
-0 -0 -0
-0.86637652 -2.6249545 -0.7519207
-0.88154638 -2.6168561 -0.75109375
-0.89571249 -2.605943 -0.74943995
-0.91263914 -2.6031196 -0.75026685
-0.92827094 -2.5965655 -0.74999124
-0.94188261 -2.5844984 -0.74806178
-0.95839214 -2.5804727 -0.748613
-0.97250724 -2.5700481 -0.74723482
-0.992751 -2.5756934 -0.75081813
-1.0085365 -2.5695536 -0.75081813
-1.0082387 -2.5231462 -0.73841447
-1.0432512 -2.5649981 -0.75329888
-1.0556626 -2.5505545 -0.75081813
-1.0694281 -2.5395992 -0.74943995
-1.0895309 -2.5435934 -0.7527476
-1.1047338 -2.535979 -0.75247192
-1.116771 -2.5212421 -0.74999124
-1.1349819 -2.520478 -0.7519207
-1.1472265 -2.5064735 -0.74971557
-1.1629895 -2.5002589 -0.74999124
-1.1807728 -2.4982908 -0.75164503
-1.1960797 -2.4909985 -0.75164503
-1.2121842 -2.4853408 -0.75219631
-1.2303971 -2.4838862 -0.75412577
-1.2438874 -2.4728546 -0.75302321
-1.2607856 -2.4686003 -0.75412577
-1.2710431 -2.4514298 -0.75109375
-1.2824802 -2.4367793 -0.74888867
-1.3023885 -2.4381917 -0.7519207
-1.3141186 -2.4242382 -0.74999124
-1.3303583 -2.4186563 -0.75081813
-1.3493886 -2.4180031 -0.75329888
-1.3684609 -2.417207 -0.75577962
-1.3880527 -2.4171014 -0.75853598
-1.4072108 -2.4160154 -0.76101673
-1.4229863 -2.4089909 -0.76156801
-1.4407039 -2.4051623 -0.7632218
-1.4569312 -2.3987422 -0.7640487
-1.4701104 -2.3873017 -0.7632218
-1.4781147 -2.367635 -0.75963855
-1.4992956 -2.3690815 -0.7632218
-1.5143226 -2.3606465 -0.76349747
-1.5261595 -2.3472805 -0.76211923
-1.5368317 -2.3322527 -0.76018977
-1.5537819 -2.3267765 -0.76156801
-1.5674908 -2.3164027 -0.76129234
-1.5789571 -2.3027766 -0.75991416
-1.5952502 -2.2962031 -0.76101673
-1.6087563 -2.2855854 -0.76074106
-1.62554 -2.2795849 -0.76211923
-1.6417478 -2.2726851 -0.7632218
-1.6562295 -2.2633445 -0.76349747
-1.6729474 -2.2570012 -0.76487565
-1.6890727 -2.249769 -0.76597816
-1.7005183 -2.2363017 -0.76487565
-1.7159673 -2.2281103 -0.76570255
-1.7260599 -2.212991 -0.7640487
-1.7384146 -2.2008498 -0.76349747
-1.7548877 -2.1938953 -0.76487565
-1.769526 -2.1845803 -0.76542693
-1.7871636 -2.1788847 -0.76735634
-1.8078681 -2.1767528 -0.77066404
-1.8137673 -2.1567895 -0.76735634
-1.8250978 -2.1434238 -0.76652944
-1.8419806 -2.1365538 -0.76818329
-1.8531595 -2.1230385 -0.76735634
-1.8661513 -2.1116278 -0.76735634
-1.8790729 -2.1001375 -0.76735634
-1.8906332 -2.0871432 -0.76680511
-1.9079514 -2.0804629 -0.76873457
-1.920681 -2.068717 -0.76873457
-1.9300469 -2.0533903 -0.76735634
-1.943935 -2.042902 -0.76790762
-1.951099 -2.0253966 -0.76570255
-1.9715424 -2.0216463 -0.76901019
-1.9832346 -2.008827 -0.76873457
-1.9962026 -1.9973001 -0.76901019
-2.0077367 -1.9843383 -0.76873457
-2.0219376 -1.9739965 -0.76956147
-2.0284772 -1.956214 -0.76735634
-2.0362666 -1.939752 -0.76570255
-2.0467305 -1.9259034 -0.76515126
-2.0578051 -1.9126542 -0.76487565
-2.067378 -1.8980411 -0.7640487
-2.0804093 -1.8866118 -0.76459998
-2.0890825 -1.8712454 -0.76349747
-2.0954859 -1.8539324 -0.76156801
-2.1053746 -1.8397746 -0.76101673
-2.1115301 -1.8224244 -0.75908726
-2.118284 -1.8056918 -0.75743341
-2.1241767 -1.7883259 -0.75550395
-2.1454563 -1.783864 -0.75936288
-2.1496763 -1.765175 -0.75688213
-2.1574805 -1.7495294 -0.75577962
-2.1659241 -1.7344555 -0.75495267
-2.192358 -1.7336563 -0.76074106
-2.1893182 -1.7095208 -0.75577962
-2.1990051 -1.6954682 -0.75550395
-2.2078373 -1.6807786 -0.75495267
-2.2181089 -1.6672 -0.75495267
-2.2259815 -1.6518397 -0.75412577
-2.2283213 -1.6324683 -0.75136942
-2.2375174 -1.6182014 -0.75109375
-2.2450573 -1.6027659 -0.75026685
-2.2540638 -1.5884064 -0.74999124
-2.2645569 -1.5750949 -0.75026685
-2.2694242 -1.5579053 -0.748613
-2.2781448 -1.5434119 -0.74833739
-2.2843761 -1.5272667 -0.74723482
-2.2904949 -1.5111035 -0.74613231
-2.2989182 -1.4964963 -0.74585664
-2.3032048 -1.4792447 -0.74420285
-2.3098023 -1.4635409 -0.7433759
-2.3114035 -1.4447541 -0.74089515
-2.3185885 -1.4295352 -0.74034393
-2.3191037 -1.4102859 -0.73758751
-2.3202949 -1.3915788 -0.73510677
-2.3271351 -1.3763367 -0.73455554
-2.3297241 -1.358641 -0.73262608
-2.3396833 -1.3452791 -0.7331773
-2.3537469 -1.3342168 -0.73510677
-2.3610501 -1.3192804 -0.73483115
-2.3766782 -1.3089432 -0.7373119
-2.3855097 -1.2947941 -0.73758751
-2.3840864 -1.2751442 -0.73455554
-2.3910153 -1.2600434 -0.73427987
-2.3952894 -1.2435765 -0.7331773
-2.3883266 -1.2214131 -0.72849149
-2.3923423 -1.2050054 -0.72738898
-2.3919413 -1.1864581 -0.72490823
-2.397449 -1.1709151 -0.72435695
-2.4193149 -1.1632662 -0.72904277
-2.4177189 -1.144286 -0.72628641
-2.425566 -1.1298357 -0.72656202
-2.4342003 -1.1157328 -0.72711331
-2.4383719 -1.0995899 -0.72628641
-2.4477088 -1.0857774 -0.72711331
-2.4560869 -1.0715071 -0.72766459
-0.24451883 -0.10450745 -0.035539187
-0.36826238 -0.15494505 -0.073852777
-0.37897348 -0.15673302 -0.076884791
-0.3639048 -0.14787483 -0.071923316
-0.37997591 -0.15171333 -0.07660915
-0.31738555 -0.12439971 -0.0570389
-0.3073824 -0.11829403 -0.053731252
-0.33237046 -0.12560779 -0.061173461
-0.32412603 -0.12021308 -0.058417086
-0.29415795 -0.10701015 -0.049045417
-0.28756952 -0.1026095 -0.046840318
-0 -0 -0
-0.27063012 -0.092811152 -0.04132757
-0 -0 -0
-0.25258365 -0.083143033 -0.035539187
-0.24211559 -0.07803601 -0.032231539
-0.24258985 -0.076548949 -0.032231539
-0 -0 -0
-0 -0 -0
-0 -0 -0
-0 -0 -0
-0 -0 -0
-0 -0 -0
-0 -0 -0
-0 -0 -0
-0 -0 -0
-0 -0 -0
-0.25560421 -0.062067498 -0.034712274
-0.25691542 -0.060720466 -0.034987912
-0 -0 -0
-0.25201428 -0.056297135 -0.033334088
-0.25047678 -0.054339256 -0.032782812
-0 -0 -0
-0.24641705 -0.050292905 -0.031404626
-0.24954914 -0.049343742 -0.032231539
-0 -0 -0
-0 -0 -0
-0.24663106 -0.044059843 -0.031128988
-0 -0 -0
-0 -0 -0
-0 -0 -0
-0 -0 -0
-0 -0 -0
-0 -0 -0
-0 -0 -0
-0 -0 -0
-0 -0 -0
-0 -0 -0
-0 -0 -0
-0 -0 -0
-0.23883511 -0.023226798 -0.028096978
-0 -0 -0
-0 -0 -0
-0 -0 -0
-0 -0 -0
-0 -0 -0
-0 -0 -0
-0 -0 -0
-0.2646493 -0.012716423 -0.03526355
-0.2656827 -0.011133999 -0.035539187
-0.26670662 -0.0095393695 -0.035814822
-0.2686817 -0.0079624793 -0.036366098
-0 0 -0
-0.28335226 0.021536618 -0.044243008
-0.27844292 0.022862956 -0.042807877
-0.27257428 0.024041645 -0.04108572
-0 0 -0
-0.2779749 0.027984306 -0.042807877
-0.27398971 0.029266316 -0.041659772
-0.27761057 0.031393379 -0.042807877
-0.28026479 0.033448514 -0.043668956
-0.27340457 0.034304611 -0.041659772
-0.27983323 0.036885276 -0.043668956
-0.27960163 0.038601607 -0.043668956
-0.27935952 0.040316481 -0.043668956
-0.28478676 0.042909164 -0.045391113
-0 0 -0
-0.28707308 0.046875183 -0.046252191
-0.2820611 0.047815979 -0.04481706
-0 0 -0
-0 0 -0
-0.25949916 0.04882985 -0.038215458
-0.2573157 0.050047059 -0.037641406
-0.26357198 0.052974764 -0.039650589
-0 0 -0
-0.27506846 0.058861457 -0.043381929
-0.28217897 0.062228665 -0.045678139
-0.2845917 0.064606301 -0.046539217
-0.28325799 0.066129789 -0.046252191
-0.28005514 0.06718488 -0.045391113
-0.27685013 0.068203188 -0.044530034
-0.27735415 0.070139259 -0.04481706
-0.27784482 0.072084077 -0.045104086
-0.27924672 0.074287541 -0.045678139
-0.28063199 0.076510914 -0.046252191
-0.28107885 0.078492731 -0.046539217
-0.28151187 0.0804829 -0.046826243
-0.28009444 0.081936091 -0.046539217
-0 0 -0
-0.27266359 0.083380021 -0.044530034
-0.27214685 0.085051484 -0.044530034
-0.27344257 0.087309897 -0.045104086
-0.27653974 0.090188712 -0.046252191
-0.27870411 0.092802539 -0.04711327
-0.27812943 0.094510891 -0.04711327
-0.28025576 0.097167738 -0.047974348
-0.27965429 0.098885521 -0.047974348
-0.27994215 0.10092801 -0.048261374
-0.28201109 0.10364561 -0.049122453
-0.28136984 0.10537404 -0.049122453
-0.28161162 0.10744344 -0.049409479
-0.28273013 0.10987016 -0.049983531
-0.28560814 0.11302636 -0.051131636
-0.28402206 0.11441538 -0.05084461
-0.28242975 0.11578919 -0.050557584
-0.27818331 0.11603126 -0.049409479
-0.27394465 0.11622563 -0.048261374
-0.27234831 0.11752135 -0.047974348
-0.26899508 0.11802515 -0.04711327
-0.26564604 0.11849227 -0.046252191
-0.26491398 0.12012001 -0.046252191
-0.26590869 0.12255206 -0.046826243
-0.26948106 0.12623002 -0.048261374
-0.27215484 0.12954129 -0.049409479
-0.2739372 0.13246976 -0.050270557
-0.2739774 0.13457371 -0.050557584
-0.27571318 0.13754486 -0.051418662
-0.27230534 0.13792571 -0.050557584
-0.26805311 0.13782863 -0.049409479
-0.26127002 0.13634503 -0.047400296
-0.25704959 0.13613868 -0.046252191
-0.25705135 0.13817024 -0.046539217
-0.25787696 0.140669 -0.04711327
-0.25868151 0.14318305 -0.047687322
-0.26446515 0.14854617 -0.049983531
-0.26770106 0.15255325 -0.051418662
-0.26924255 0.1556405 -0.052279741
-0.27075613 0.15875235 -0.053140819
-0.27059847 0.16090332 -0.053427845
-0.26633209 0.16057 -0.052279741
-0.26534185 0.16220115 -0.052279741
-0.27896363 0.17296427 -0.057446212
-0.26252219 0.16493246 -0.051992714
-0.26311734 0.16757536 -0.052566767
-0.26368988 0.17023173 -0.053140819
-0.25544369 0.16709942 -0.050557584
-0.25600636 0.16972834 -0.051131636
-0.25813249 0.17344488 -0.052279741
-0.25311446 0.17231508 -0.05084461
-0.25519818 0.17605259 -0.051992714
-0.25724542 0.17982207 -0.053140819
-0.25301853 0.179171 -0.051992714
-0.25113815 0.18015882 -0.051705688
-0.25080076 0.18226244 -0.051992714
-0.2496777 0.1837979 -0.051992714
-0.24777946 0.18475093 -0.051705688
-0.25273907 0.19090927 -0.054001898
-0.25080425 0.1918716 -0.053714871
-0.25188741 0.19517536 -0.05457595
-0.24843082 0.1949349 -0.053714871
-0.24498673 0.19465943 -0.052853793
-0.24676403 0.19857214 -0.054001898
-0.24998316 0.20372958 -0.055724055
-0.24578191 0.20281012 -0.05457595
-0.24526571 0.20493127 -0.054862976
-0.24619082 0.20829645 -0.055724055
-0 0 -0
-0.24000931 0.20815055 -0.054288924
-0.23083521 0.20263778 -0.051131636
-0 0 -0
-0 0 -0
-0 0 -0
-0 0 -0
-0 0 -0
-0 0 -0
-0 0 -0
-0 0 -0
-0 0 -0
-0 0 -0
-0 0 -0
-0 0 -0
-0 0 -0
-0 0 -0
-0 0 -0
-0 0 -0
-0 0 -0
-0 0 -0
-0 0 -0
-0 0 -0
-0 0 -0
-0 0 -0
-0 0 -0
-0 0 -0
-0 0 -0
-0 0 -0
-0 0 -0
-0 0 -0
-0 0 -0
-1.6905268 2.1651917 -0.78218728
-0 0 -0
-0 0 -0
-1.6440593 2.187516 -0.77902997
-0 0 -0
-0 0 -0
-0 0 -0
-1.5859863 2.221745 -0.77702081
-0 0 -0
-1.5662551 2.2520535 -0.78103918
-1.5545744 2.2647815 -0.78218728
-1.5487024 2.2861772 -0.78649265
-0 0 -0
-0 0 -0
-0 0 -0
-0 0 -0
-0 0 -0
-1.4477773 2.316443 -0.77759486
-1.4330342 2.3244669 -0.77730781
-0 0 -0
-1.4029245 2.3394122 -0.77644676
-1.3900056 2.3504508 -0.77730781
-1.3770039 2.3614185 -0.77816892
-1.360103 2.36567 -0.77673376
-1.342258 2.3681359 -0.7747246
-1.3272352 2.3754907 -0.77443755
-1.3094025 2.3777146 -0.77242839
-0 0 -0
-1.2805771 2.394449 -0.77271539
-1.2636298 2.3980231 -0.77128029
-1.2475691 2.4031804 -0.77041918
-1.2306211 2.4065247 -0.76898408
-1.2149707 2.4123189 -0.76841003
-1.2009966 2.4214451 -0.76898408
-1.1852764 2.4270468 -0.76841003
-0 0 -0
-1.1509002 2.4318829 -0.76525271
-1.1383812 2.4441099 -0.76697487
-1.1249579 2.4545329 -0.76812297
-1.1094826 2.460516 -0.76783597
-1.0932003 2.4646497 -0.76697487
-0 0 -0
-1.0602323 2.4717159 -0.76496571
-1.0509955 2.4922998 -0.76955813
-1.0367824 2.5013568 -0.77041918
-1.0192491 2.5023475 -0.76869702
-1.0049423 2.5112228 -0.76955813
-0.99021488 2.5191252 -0.77013218
-0.97818494 2.5340917 -0.77300245
-0.963974 2.5436296 -0.77415055
-0.94801486 2.5485985 -0.77386349
-0.92940646 2.5462675 -0.77128029
-0.91054004 2.5429025 -0.76841003
-0.89333493 2.5439217 -0.76697487
-0.87802035 2.5502613 -0.76726192
-0.86082631 2.5510616 -0.76582676
-0.84455651 2.5544765 -0.76525271
-0.82975078 2.5623448 -0.76611382
-0.81343466 2.5655613 -0.76553977
-0.80278051 2.5869744 -0.77070624
-0.78994882 2.6019354 -0.77386349
-0.77233523 2.601223 -0.77214134
-0.75715977 2.6086731 -0.77300245
-0 0 -0
-0 0 -0
-0 0 -0
-0 0 -0
-0 0 -0
-0 0 -0
-0 0 -0
-0 0 -0
-0 0 -0
-0 0 -0
-0 0 -0
-0 0 -0
-0 0 -0
-0 0 -0
-0 0 -0
-0 0 -0
-0 0 -0
-0 0 -0
-0 0 -0
-0 0 -0
-0 0 -0
-0 0 -0
-0.04968093 0.34188536 -0.062612683
-0 0 -0
-0.04548173 0.34246927 -0.062612683
-0 0 -0
-0 0 -0
-0 0 -0
-0 0 -0
-0.031862862 0.3122434 -0.053140819
-0 0 -0
-0 0 -0
-0 0 -0
-0 0 -0
-0 0 -0
-0 0 -0
-0 0 -0
-0 0 -0
-0 0 -0
-0.098754019 2.6637335 -0.75779003
-0.082378604 2.6633317 -0.75750303
-0 0 -0
-0 0 -0
-0.033480227 2.6758912 -0.76094735
-0.01700943 2.6674249 -0.75836408
-0.00063984125 2.6789742 -0.7618084
0.015798047 2.6789277 -0.7618084
0.032139797 2.6711175 -0.75951219
0.048671421 2.6785321 -0.7618084
0.065034576 2.6753101 -0.76094735
0.081093885 2.6633711 -0.75750303
0.097718067 2.6704814 -0.75979924
0.11364748 2.6593044 -0.75664192
0.12953781 2.6499462 -0.75405872
0.1458482 2.6500578 -0.75434572
0.16204697 2.6481569 -0.75405872
0.17751518 2.635644 -0.7506144
0.19333056 2.6297286 -0.74917924
0.20999825 2.6351769 -0.75118846
0.22550444 2.6262038 -0.74889225
0.24170251 2.6257246 -0.74917924
0.25912622 2.6375382 -0.75319761
0.27440563 2.6273243 -0.7506144
0.29020411 2.6227348 -0.7497533
0.3087469 2.6418357 -0.75606787
0.32412896 2.6332366 -0.75405872
0.33991024 2.6283484 -0.75319761
0.35706392 2.6338067 -0.75549382
0.3709242 2.6154439 -0.7506144
0.38795048 2.6197515 -0.75262356
0.40328491 2.6125884 -0.75118846
0.41641301 2.5920959 -0.74573493
0.43325892 2.5951607 -0.74745709
0.44950229 2.594341 -0.74803114
0.46473345 2.5877631 -0.74688303
0.48077843 2.5858045 -0.74717009
0.49591038 2.5790434 -0.74602199
0.512474 2.5797098 -0.74717009
0.5292573 2.5812082 -0.74860519
0.54309952 2.568541 -0.74573493
0.55803227 2.5614169 -0.74458683
0.57436854 2.5607486 -0.74544793
0.59071755 2.5599759 -0.74630898
0.60574961 2.5535073 -0.74544793
0.62276965 2.555326 -0.74717009
0.63773829 2.5486691 -0.74630898
0.65408051 2.5474911 -0.74717009
0.67116523 2.5489872 -0.74889225
0.68829292 2.5503695 -0.7506144
0.70162767 2.5377896 -0.74803114
0.71718609 2.5334368 -0.74803114
0.73218352 2.5271485 -0.74745709
0.74631292 2.5180168 -0.74602199
0.76314038 2.5179732 -0.74745709
0.77914369 2.5150731 -0.74803114
0.79224545 2.5029399 -0.74573493
0.80876857 2.501677 -0.74688303
0.82650864 2.5039434 -0.74917924
0.84185696 2.4988251 -0.74917924
0.85436743 2.4854605 -0.74659604
0.87087125 2.4837868 -0.74774414
0.88254327 2.4684761 -0.74458683
0.89438879 2.4540157 -0.74171656
0.90942949 2.4484816 -0.74171656
0.92375708 2.4410639 -0.74114251
0.93630332 2.4290941 -0.73913336
0.95294231 2.4277611 -0.74056846
0.96532977 2.4156427 -0.73855931
0.98230165 2.4149971 -0.74028146
1.0004021 2.4168887 -0.74286467
0 0 -0
1.0246994 2.3921051 -0.7388463
0 0 -0
1.0500935 2.3705938 -0.73597604
1.0693442 2.3745849 -0.73942035
1.0842932 2.3688498 -0.73970741
1.0959769 2.3560734 -0.7376982
1.1136909 2.3562312 -0.73999441
1.1260523 2.3450367 -0.73855931
1.1416808 2.3406656 -0.73942035
1.1619799 2.3456309 -0.74343872
1.1741962 2.3341792 -0.74200362
1.1906769 2.3311951 -0.74343872
1.209813 2.3331976 -0.74659604
1.2218738 2.3214929 -0.74516088
1.2338365 2.3097284 -0.74372578
1.2493563 2.3046401 -0.74458683
1.2593153 2.2893786 -0.74200362
1.2728717 2.2807722 -0.74171656
1.2887316 2.2762527 -0.74286467
1.2983773 2.260828 -0.74028146
1.3194628 2.2652316 -0.74458683
1.3347999 2.2595665 -0.74544793
1.3471613 2.2488692 -0.74458683
1.363423 2.2446535 -0.74602199
1.380689 2.2419534 -0.74803114
1.3984808 2.239938 -0.75032735
1.4142491 2.2345519 -0.75147545
1.4248277 2.2209959 -0.7497533
1.4399962 2.2146201 -0.7506144
1.4503931 2.2009449 -0.74889225
1.4612088 2.1880221 -0.74745709
1.4692345 2.1710842 -0.74458683
1.4809021 2.1596589 -0.74372578
1.4935788 2.1497452 -0.74343872
1.5089481 2.1436725 -0.74458683
1.5187339 2.1296954 -0.74286467
1.5345794 2.1242177 -0.74429983
1.5487165 2.1163073 -0.74487388
1.5628144 2.1083033 -0.74544793
1.5739948 2.0963771 -0.74458683
1.5885688 2.0889664 -0.74544793
1.6007718 2.0784211 -0.74516088
1.6146735 2.07007 -0.74573493
1.6285331 2.0616264 -0.74630898
1.6429485 2.0538385 -0.74717009
0 0 -0
1.669852 2.0357435 -0.74803114
1.6841488 2.027669 -0.74889225
1.6965587 2.017297 -0.74889225
1.7014482 1.9981005 -0.74544793
1.7136763 1.9876231 -0.74544793
1.7201674 1.9705784 -0.74286467
1.7233407 1.9499416 -0.7388463
1.7371901 1.9414715 -0.73970741
1.7464963 1.9279372 -0.73855931
1.7557019 1.9143618 -0.7374112
1.7732841 1.9098682 -0.73999441
1.7836566 1.8975563 -0.73942035
1.7972482 1.8886572 -0.74028146
1.8147871 1.8838001 -0.74286467
1.822297 1.8685164 -0.74114251
1.834401 1.8579812 -0.74142957
1.8471218 1.848045 -0.74200362
1.8584265 1.8366765 -0.74200362
1.8758328 1.8312585 -0.74458683
1.8884135 1.8210435 -0.74516088
1.9002455 1.8100824 -0.74544793
1.9203895 1.8069183 -0.74917924
1.9286326 1.7924937 -0.74803114
1.9459482 1.7864536 -0.7506144
1.9575831 1.775123 -0.7509014
1.9591583 1.7547737 -0.74717009
1.9698886 1.7427195 -0.74717009
1.97405 1.7249299 -0.74458683
1.9824204 1.7109083 -0.74372578
1.9950689 1.7005754 -0.74458683
2.0039997 1.6870687 -0.74401277
2.0202086 1.6796373 -0.74630898
2.0334389 1.6696401 -0.74745709
2.0443897 1.6577348 -0.74774414
2.056767 1.6469547 -0.74860519
2.066082 1.6337098 -0.7483182
2.0790887 1.6233585 -0.7494663
2.0874925 1.6094018 -0.74889225
2.0988531 1.5977226 -0.7494663
2.111681 1.587115 -0.7506144
2.130614 1.580974 -0.75405872
2.1325445 1.5622135 -0.75118846
2.1420898 1.549099 -0.75118846
2.1429758 1.5298078 -0.74803114
2.1546721 1.5182842 -0.74889225
2.1615875 1.503395 -0.74803114
2.1755116 1.4933541 -0.7497533
2.1838403 1.4794403 -0.7494663
2.202436 1.4723972 -0.75291061
2.2122288 1.4593827 -0.75319761
2.2283692 1.4504813 -0.75578088
2.2275524 1.4305735 -0.75233656
2.2395258 1.4189279 -0.75348467
2.2457523 1.4036376 -0.75262356
2.2510602 1.3878222 -0.75147545
2.2562585 1.3719944 -0.75032735
2.2670996 1.3596014 -0.75118846
2.2679768 1.3412797 -0.74860519
2.2761641 1.3273385 -0.74860519
2.278451 1.3100075 -0.74659604
2.2822783 1.2936425 -0.74516088
2.2859907 1.2772801 -0.74372578
2.2988207 1.2659998 -0.74544793
2.3090718 1.2532403 -0.74630898
2.3184078 1.2399514 -0.74688303
2.3361442 1.231057 -0.75032735
2.350457 1.2202275 -0.75262356
2.3561938 1.2049109 -0.75204951
2.3720999 1.1947361 -0.75491977
2.3853943 1.1831355 -0.75692898
2.3917482 1.1680567 -0.75664192
2.3997335 1.153774 -0.75692898
2.4171603 1.1439404 -0.76037329
2.4189227 1.1266631 -0.75865114
0 0 -0
2.4264524 1.0941406 -0.75664192
2.4243622 1.0753515 -0.75377166
2.422133 1.0566293 -0.7509014
2.4268095 1.040993 -0.75032735
2.4234405 1.0219926 -0.74717009
2.4217 1.0038058 -0.74458683
2.4375739 0.99289823 -0.74774414
2.44451 0.9782784 -0.74803114
2.4495747 0.96291071 -0.74774414
2.4679503 0.95268631 -0.75176251
2.4710617 0.93650806 -0.7509014
2.4785573 0.92199546 -0.75147545
2.4940679 0.91037869 -0.75463277
2.4914889 0.89215541 -0.75204951
2.5068598 0.88033807 -0.75520682
2.5104024 0.86431682 -0.75463277
2.5074885 0.84614408 -0.75204951
2.518091 0.83254433 -0.75377166
2.5131259 0.81383604 -0.7506144
2.5180724 0.79840046 -0.7506144
2.5201788 0.78208429 -0.7497533
2.5212631 0.76549447 -0.74860519
2.5240757 0.74946541 -0.74803114
2.5313871 0.73476368 -0.74889225
0 0 -0
2.5485227 0.70594215 -0.75147545
2.5537312 0.69054103 -0.75176251
2.5699625 0.67803013 -0.75549382
2.5722189 0.66177183 -0.75491977
2.5818064 0.64737195 -0.75664192
2.5866609 0.63174498 -0.75692898
2.5886242 0.61541933 -0.75635493
2.5942185 0.59995508 -0.75692898
2.5969162 0.58381629 -0.75664192
2.6032574 0.56848282 -0.75750303
2.61888 0.55507559 -0.76123434
2.6156678 0.5376488 -0.75922519
0 0 -0
2.6211281 0.50532907 -0.75893813
2.6185288 0.4881857 -0.75721598
2.6167607 0.47126269 -0.75578088
2.61394 0.45421618 -0.75405872
2.6166778 0.43816879 -0.75405872
2.6136425 0.42119297 -0.75233656
2.6237512 0.4063175 -0.75463277
2.6205094 0.38936859 -0.75291061
2.6114681 0.37166747 -0.7494663
2.6108518 0.35525063 -0.74860519
2.6205823 0.34020728 -0.7509014
2.6150146 0.3231847 -0.74860519
2.6178999 0.30724442 -0.74889225
2.620688 0.2912809 -0.74917924
2.6157568 0.27449831 -0.74717009
2.6364584 0.26031727 -0.75291061
2.6418214 0.24448679 -0.75405872
2.6232293 0.22655028 -0.74803114
2.6408033 0.21174459 -0.75291061
2.6449187 0.19574779 -0.75377166
2.6508489 0.17983729 -0.75520682
2.6557269 0.1638028 -0.75635493
2.6595514 0.14766254 -0.75721598
2.6613641 0.13138787 -0.75750303
2.6487217 0.11448237 -0.75348467
2.6359723 0.097736977 -0.7494663
2.6432247 0.081765488 -0.75147545
2.6273968 0.065148979 -0.74659604
2.6411557 0.049270563 -0.7506144
2.6337454 0.032971274 -0.7483182
2.6367719 0.016827362 -0.74917924
2.6454468 0.00064642431 -0.75176251
2.6415694 -0.015561482 -0.7506144
2.6347194 -0.031685952 -0.74860519
2.6268132 -0.047709126 -0.74630898
2.6235981 -0.063754961 -0.74544793
2.624115 -0.07988143 -0.74573493
2.6245327 -0.096016638 -0.74602199
2.6248512 -0.11215998 -0.74630898
2.630811 -0.128594 -0.7483182
2.6385806 -0.14521147 -0.7509014
2.6452887 -0.16187018 -0.75319761
2.6509356 -0.17855188 -0.75520682
2.6488349 -0.19474369 -0.75491977
2.641861 -0.21053387 -0.75319761
2.6405194 -0.22674006 -0.75319761
2.6209552 -0.24126136 -0.74774414
2.6213322 -0.25752687 -0.7483182
2.6130338 -0.27290672 -0.74630898
2.6141663 -0.28925216 -0.74717009
2.623759 -0.30662629 -0.7506144
2.6218283 -0.3227196 -0.7506144
2.614099 -0.33806109 -0.74889225
2.6252639 -0.35590199 -0.75291061
2.6116505 -0.37038448 -0.7494663
2.6188037 -0.38780972 -0.75233656
2.6144817 -0.40357801 -0.75176251
2.6110103 -0.41946021 -0.75147545
2.6112218 -0.43594766 -0.75233656
2.6151042 -0.45310926 -0.75434572
2.6019044 -0.46727955 -0.75118846
2.6055801 -0.48446441 -0.75319761
2.6034992 -0.50062412 -0.75348467
2.5909836 -0.51471883 -0.7506144
2.5849617 -0.53002864 -0.7497533
2.5900948 -0.54766691 -0.75233656
2.5866857 -0.5635491 -0.75233656
2.5915904 -0.58130068 -0.75491977
2.585175 -0.59654409 -0.75405872
2.5870578 -0.61372429 -0.75578088
2.5934796 -0.63208616 -0.75893813
2.5821192 -0.64612406 -0.75664192
2.5781059 -0.66195548 -0.75664192
2.5684383 -0.67629606 -0.75491977
2.558692 -0.69054294 -0.75319761
2.5479445 -0.70444006 -0.75118846
2.5555549 -0.72345799 -0.75491977
2.5483077 -0.73832405 -0.75405872
2.5519943 -0.75639987 -0.75664192
2.5518882 -0.77343559 -0.75807709
2.5397751 -0.78680819 -0.75578088
2.5403786 -0.80411398 -0.75750303
2.5326626 -0.81880111 -0.75664192
2.5221338 -0.83252186 -0.75491977
2.5160704 -0.8476755 -0.75463277
2.5099161 -0.86278605 -0.75434572
2.5009596 -0.87690097 -0.75319761
2.5009432 -0.89416736 -0.75491977
2.4927099 -0.9085108 -0.75405872
2.4870884 -0.92378867 -0.75405872
2.4786861 -0.93801343 -0.75319761
2.4746711 -0.95389462 -0.75377166
2.4589648 -0.9652065 -0.7506144
2.4467704 -0.97778517 -0.74860519
2.4495966 -0.99639302 -0.75147545
2.4354722 -1.008104 -0.74889225
2.4274755 -1.0222844 -0.7483182
2.4237983 -1.0382926 -0.74917924
2.419138 -1.0539112 -0.7497533
2.4205067 -1.0722301 -0.75233656
2.4217415 -1.0906055 -0.75491977
2.415004 -1.1054444 -0.75491977
2.418596 -1.1250948 -0.75836408
2.4081836 -1.1382749 -0.75721598
2.3994272 -1.1521997 -0.75664192
2.3923123 -1.1669006 -0.75664192
2.3722346 -1.1751735 -0.75233656
2.3709681 -1.1927233 -0.75434572
2.3593407 -1.2050682 -0.75291061
2.3502016 -1.2186396 -0.75233656
2.3350525 -1.2290183 -0.7497533
2.3274674 -1.2433228 -0.7497533
2.3147433 -1.2548391 -0.74803114
2.3053219 -1.2680943 -0.74745709
2.295825 -1.2812812 -0.74688303
2.2854199 -1.2939271 -0.74602199
2.2707937 -1.3041064 -0.74372578
2.2726793 -1.3238053 -0.74717009
2.2669876 -1.3391881 -0.74803114
2.2628355 -1.355536 -0.7494663
2.2503829 -1.3669066 -0.74803114
2.248477 -1.3847104 -0.75032735
2.239938 -1.3984808 -0.75032735
2.2345519 -1.4142491 -0.75147545
2.2250261 -1.4274157 -0.75118846
2.2202401 -1.4436541 -0.75262356
2.2081416 -1.4551402 -0.75147545
2.1991715 -1.4686617 -0.75147545
2.1948771 -1.4853513 -0.75319761
2.1857219 -1.4987909 -0.75319761
2.167047 -1.5056109 -0.7497533
2.1648157 -1.523845 -0.75233656
2.154645 -1.5365428 -0.75204951
2.1482813 -1.5519798 -0.75319761
2.1387181 -1.5651321 -0.75319761
2.1252279 -1.5753716 -0.75176251
2.1216478 -1.5929861 -0.75405872
2.1164069 -1.6094555 -0.75578088
2.1087677 -1.6241657 -0.75664192
2.0964971 -1.6353058 -0.75578088
2.0811636 -1.64398 -0.75377166
2.0650551 -1.6519291 -0.75147545
2.0459511 -1.6573296 -0.74803114
2.0394452 -1.6728913 -0.7494663
2.0166197 -1.6749632 -0.74458683
2.017297 -1.6965587 -0.74889225
2.0112236 -1.7126329 -0.7506144
2.0115554 -1.7343287 -0.75491977
0 -0 -0
1.9872512 -1.7563443 -0.75377166
1.9728692 -1.7653095 -0.75233656
1.9577423 -1.7735208 -0.7506144
1.9418836 -1.7809654 -0.74860519
1.9217972 -1.7843697 -0.74487388
1.9087193 -1.7941589 -0.74401277
1.8949 -1.8031942 -0.74286467
1.8844897 -1.815452 -0.74315172
1.8870245 -1.8403634 -0.74889225
1.8791035 -1.8552738 -0.75032735
1.8731022 -1.8721888 -0.75262356
1.8662908 -1.8884181 -0.75463277
1.8653702 -1.9108058 -0.75922519
1.8489581 -1.9173867 -0.75721598
1.8351773 -1.9266139 -0.75635493
1.8252896 -1.9399319 -0.75721598
1.8087893 -1.9461814 -0.75520682
1.7974613 -1.9579493 -0.75549382
1.7860568 -1.9696513 -0.75578088
1.7720212 -1.9784318 -0.75491977
1.7655581 -1.9957272 -0.75750303
1.7539092 -2.0072443 -0.75779003
1.7428111 -2.0194194 -0.75836408
1.727903 -2.0271578 -0.75721598
1.7154322 -2.0377219 -0.75721598
1.698 -2.0423143 -0.75491977
1.6842214 -2.0512135 -0.75434572
1.6710007 -2.0607648 -0.75405872
1.6535373 -2.0649951 -0.75176251
1.6438047 -2.0788603 -0.75319761
1.6327857 -2.0911732 -0.75405872
1.6193392 -2.1003935 -0.75377166
1.6104801 -2.1156273 -0.75578088
1.5963181 -2.1239371 -0.75520682
1.5832559 -2.133692 -0.75520682
1.5729628 -2.1472316 -0.75664192
1.555831 -2.1514075 -0.75463277
1.5414884 -2.1593535 -0.75405872
1.5304157 -2.1719046 -0.75520682
1.5154204 -2.178894 -0.75434572
1.503106 -2.1897316 -0.75491977
1.4917895 -2.2020864 -0.75606787
1.4782495 -2.2111983 -0.75606787
1.4641269 -2.2194273 -0.75578088
1.449959 -2.2275662 -0.75549382
1.429539 -2.2259398 -0.75176251
1.4091936 -2.2241471 -0.74803114
1.3980567 -2.2368145 -0.7494663
1.3838032 -2.2445352 -0.74917924
1.3734864 -2.2587147 -0.75118846
1.3600937 -2.2679214 -0.75147545
1.3505377 -2.2836468 -0.75405872
1.3365 -2.2918906 -0.75405872
1.3252747 -2.305032 -0.75578088
1.3087463 -2.3089523 -0.75434572
1.2968886 -2.3211215 -0.75578088
1.2821604 -2.328196 -0.75549382
1.2696769 -2.3393879 -0.75664192
1.2530419 -2.3429101 -0.75520682
1.2399811 -2.3530974 -0.75606787
1.2268424 -2.3632126 -0.75692898
1.2114474 -2.3689897 -0.75635493
1.193014 -2.3686769 -0.75377166
1.1750555 -2.3690858 -0.75147545
1.1592369 -2.3736682 -0.7506144
1.1446506 -2.3807366 -0.7506144
1.1259271 -2.3790548 -0.74774414
1.1105002 -2.3841815 -0.74717009
1.096249 -2.3918216 -0.74745709
1.0831259 -2.4019966 -0.74860519
1.0730233 -2.4191072 -0.75204951
1.058925 -2.427402 -0.75262356
1.0466516 -2.4400172 -0.75463277
1.0361222 -2.4569874 -0.75807709
1.0221261 -2.4659538 -0.75893813
1.0055321 -2.4686298 -0.75779003
0.98894393 -2.4711952 -0.75664192
0.97306228 -2.4754333 -0.75606787
0.95888871 -2.4840386 -0.75692898
0.93650806 -2.4710617 -0.7509014
0.92433053 -2.484843 -0.75348467
0.9093945 -2.4913678 -0.75377166
0.89247793 -2.4923911 -0.75233656
0.88160604 -2.5104756 -0.75635493
0.86400539 -2.5094967 -0.75434572
0.85134405 -2.5229208 -0.75692898
0.84455651 -2.5544765 -0.76525271
0.82621413 -2.5514073 -0.7626695
0.81314552 -2.5646482 -0.76525271
0.79767734 -2.5705042 -0.76553977
0.7830016 -2.5790172 -0.76668787
0.76797909 -2.5865283 -0.76754892
0.74756145 -2.5755506 -0.7626695
0.72782958 -2.5662637 -0.75836408
0.71206957 -2.5706813 -0.75836408
0.69403601 -2.5666788 -0.75578088
0.67876202 -2.5727415 -0.75635493
0.66343969 -2.5787137 -0.75692898
0.64527881 -2.5734432 -0.75405872
0.63355994 -2.5941062 -0.75922519
0.61763084 -2.5979447 -0.75922519
0.60361743 -2.610086 -0.7618084
0.58821994 -2.6165447 -0.7626695
0.57031846 -2.611681 -0.76008624
0.55547202 -2.6207545 -0.7618084
0.53938091 -2.6241136 -0.7618084
0.52214932 -2.6217363 -0.76008624
0.50424349 -2.615484 -0.75721598
0.48888633 -2.6222959 -0.75836408
0.47126269 -2.6167607 -0.75578088
0.45552483 -2.6214907 -0.75635493
0.43722206 -2.6110086 -0.75233656
0 -0 -0
0.40602514 -2.6218579 -0.75405872
0.3897897 -2.6233521 -0.75377166
0.37234023 -2.6162102 -0.7509014
0 -0 -0
0.34045309 -2.6224823 -0.75147545
0.32540908 -2.6330788 -0.75405872
0.30891299 -2.6321714 -0.75319761
0.29349425 -2.6406822 -0.75520682
0.27748492 -2.6443388 -0.75578088
0.26162916 -2.6498048 -0.75692898
0.24650744 -2.6637609 -0.76066029
0.23048627 -2.6690409 -0.7618084
0.21341972 -2.6618109 -0.75922519
0.19680202 -2.6592488 -0.75807709
0.18022379 -2.6565833 -0.75692898
0.16421267 -2.6624198 -0.75836408
0.14766254 -2.6595514 -0.75721598
0.13120061 -2.657537 -0.75635493
0.11493275 -2.6592491 -0.75664192
0.098718949 -2.6627762 -0.75750303
0.082524583 -2.6681192 -0.75893813
0.066198401 -2.6704905 -0.75951219
0.049689226 -2.6641421 -0.75750303
0.033387691 -2.6682281 -0.75865114
0.017026499 -2.6702986 -0.75922519
0.00064491958 -2.6531103 -0.75405872
-0.015603942 -2.6482747 -0.75262356
-0.031865101 -2.649087 -0.75291061
-0.047940791 -2.6392641 -0.75004035
-0 -0 -0
-0.080088437 -2.6308172 -0.74774414
-0.096264765 -2.6312337 -0.74803114
-0.1124079 -2.6305935 -0.74803114
-0.12897152 -2.6384649 -0.7506144
-0.14515841 -2.637624 -0.7506144
-0.16187018 -2.6452887 -0.75319761
-0.17842229 -2.6490242 -0.75463277
-0.19467305 -2.6478796 -0.75463277
-0.21214074 -2.6619132 -0.75922519
-0.22945842 -2.6720138 -0.7626695
-0.24426116 -2.6533864 -0.75750303
-0.26081967 -2.6546974 -0.75836408
-0.27680388 -2.6501889 -0.75750303
-0.29305995 -2.6484406 -0.75750303
-0.30930495 -2.6465926 -0.75750303
-0.3240115 -2.6322858 -0.75377166
-0 -0 -0
-0.35603109 -2.6262133 -0.75319761
-0.37227347 -2.6249275 -0.75348467
-0.38949865 -2.6301742 -0.75578088
-0.40533665 -2.6258414 -0.75520682
-0.42265975 -2.6308708 -0.75750303
-0.44069242 -2.6395652 -0.76094735
-0.45704415 -2.6377552 -0.76123434
-0.47610611 -2.6509283 -0.76611382
-0.49008116 -2.6357148 -0.76238245
-0.504794 -2.6251333 -0.76008624
-0.51958251 -2.6154101 -0.75807709
-0.534078 -2.6046662 -0.75578088
-0.55064559 -2.6041515 -0.75664192
-0.56640971 -2.599788 -0.75635493
-0.58277118 -2.5981326 -0.75692898
-0.59719145 -2.5879748 -0.75491977
-0 -0 -0
-0.63026834 -2.586035 -0.75664192
-0.64099944 -2.5616775 -0.75032735
-0.65551233 -2.5530574 -0.74889225
-0.67409712 -2.5601022 -0.75233656
-0.68904293 -2.5531435 -0.75147545
-0.70674115 -2.556253 -0.75377166
-0.72528732 -2.5620058 -0.75692898
-0.74179482 -2.5602672 -0.75779003
-0.76239753 -2.5721972 -0.7629565
-0.77900064 -2.5702205 -0.76381761
-0.79532427 -2.5672221 -0.76439166
-0.81192988 -2.5650332 -0.76525271
-0.8288337 -2.5636482 -0.76640081
-0.84094036 -2.5476003 -0.7629565
-0.85104406 -2.5260546 -0.75779003
-0.86247426 -2.5090103 -0.75405872
-0.87309271 -2.4901137 -0.7497533
-0.88641798 -2.4792984 -0.74803114
-0.90161401 -2.4738128 -0.74803114
-0.91577423 -2.4655404 -0.74717009
-0.93394023 -2.467937 -0.7497533
-0.95320475 -2.4728839 -0.75319761
-0.96765929 -2.4652054 -0.75262356
-0.98312318 -2.4601111 -0.75291061
-0.99819964 -2.4540324 -0.75291061
-1.0121382 -2.4452066 -0.75204951
-1.0286114 -2.4424808 -0.75319761
-1.0447116 -2.4387646 -0.75405872
-1.0588899 -2.4305522 -0.75348467
-1.0741719 -2.424885 -0.75377166
-1.0902117 -2.4208682 -0.75463277
-1.1042472 -2.4123914 -0.75405872
-1.1186242 -2.4047022 -0.75377166
-1.1354067 -2.4021225 -0.75520682
-1.1472193 -2.3890672 -0.75319761
-1.1669006 -2.3923123 -0.75664192
-1.1828344 -2.387682 -0.75750303
-1.1974627 -2.3803792 -0.75750303
-1.2133542 -2.3755455 -0.75836408
-1.2226115 -2.3578534 -0.75491977
-1.2379491 -2.3520021 -0.75549382
-1.2510022 -2.3418279 -0.75463277
-1.2626064 -2.329056 -0.75291061
-1.2754873 -2.3187478 -0.75204951
-0 -0 -0
-1.3071522 -2.3087547 -0.75405872
-1.322726 -2.3031821 -0.75491977
-1.3368332 -2.2950225 -0.75491977
-1.3518652 -2.2884259 -0.75549382
-1.3713002 -2.2891247 -0.75865114
-1.3893015 -2.2872155 -0.76094735
-1.4028068 -2.2778325 -0.76066029
-1.4223412 -2.2781179 -0.76381761
-1.4393686 -2.2742028 -0.76553977
-1.4558837 -2.2693584 -0.76697487
-1.4723936 -2.2643969 -0.76841003
-1.4830952 -2.2505221 -0.76668787
-1.4984733 -2.2437687 -0.76754892
-1.5122126 -2.2345319 -0.76754892
-1.5248108 -2.2236316 -0.76697487
-1.5340507 -2.207942 -0.76467866
-1.5442591 -2.1937892 -0.7629565
-1.559917 -2.1873913 -0.7641046
-1.5738705 -2.178555 -0.76439166
-1.5860761 -2.1673112 -0.76381761
-1.6004862 -2.1590772 -0.76439166
-1.6148549 -2.1507475 -0.76496571
-1.6227996 -2.1339383 -0.76238245
-1.6364475 -2.1246996 -0.7626695
-1.6494536 -2.1146185 -0.7626695
-1.6600212 -2.1014521 -0.7615214
-1.6776739 -2.097209 -0.76381761
-1.6917171 -2.0883636 -0.76439166
-1.7044992 -2.0779443 -0.76439166
-1.7264029 -2.0784957 -0.76869702
-1.7391237 -2.0678637 -0.76869702
-1.7610997 -2.0680895 -0.77300245
-1.7643687 -2.0463662 -0.76869702
-1.7794127 -2.0383873 -0.76984513
-1.7912519 -2.0267131 -0.76955813
-1.8030148 -2.0149705 -0.76927108
-1.8179183 -2.0067081 -0.77041918
-1.830197 -1.9955157 -0.77041918
-1.8404504 -1.9821432 -0.76955813
-1.8584856 -1.9770923 -0.77214134
-1.8870983 -1.9829926 -0.77931702
-1.8812778 -1.9527577 -0.77156729
-1.8945625 -1.9425486 -0.77214134
-1.9024062 -1.9267991 -0.77041918
-1.9148705 -1.9157671 -0.77070624
-1.927271 -1.9046546 -0.77099323
-1.9416645 -1.8954687 -0.77214134
-1.9498091 -1.880196 -0.77070624
-1.9585334 -1.8655553 -0.76955813
-1.9762249 -1.8594079 -0.77214134
-1.9861928 -1.8459433 -0.77156729
-1.9988939 -1.8350166 -0.77214134
-2.0108256 -1.8233602 -0.77242839
-2.0148373 -1.8045998 -0.76955813
-2.020848 -1.7877622 -0.76754892
-2.0310578 -1.7746989 -0.76726192
-2.0368307 -1.7578242 -0.76525271
-2.044661 -1.7428091 -0.7641046
-2.0509176 -1.7265309 -0.76238245
-2.059999 -1.71269 -0.7618084
-2.0763941 -1.7048783 -0.7641046
-2.0830941 -1.6890907 -0.7626695
-2.0911751 -1.674482 -0.7618084
-2.1036651 -1.6634008 -0.7626695
-2.1077895 -1.645748 -0.76037329
-2.1246781 -1.6380448 -0.7629565
-2.1346889 -1.6249772 -0.7629565
-2.1484494 -1.6147244 -0.76439166
-2.1598558 -1.6026523 -0.76496571
-2.1657839 -1.5865407 -0.76353055
-2.1684897 -1.5681729 -0.76094735
-2.1765113 -1.5537254 -0.76037329
-2.184437 -1.5392385 -0.75979924
-2.1906939 -1.5236195 -0.75865114
-2.1905215 -1.5036478 -0.75520682
-2.1997066 -1.4901787 -0.75520682
-2.2072155 -1.4755894 -0.75463277
-2.2170277 -1.4625455 -0.75491977
-2.2187326 -1.4442146 -0.75233656
-2.2251337 -1.4290217 -0.75147545
-2.2314317 -1.4138047 -0.7506144
-2.2351894 -1.397042 -0.74889225
-2.2429039 -1.3827986 -0.74860519
-2.2472529 -1.3665236 -0.74717009
-2.2514868 -1.3502475 -0.74573493
-2.2589045 -1.33592 -0.74544793
-2.264576 -1.3205879 -0.74458683
-2.2693136 -1.3047594 -0.74343872
-2.2822783 -1.2936425 -0.74516088
-2.2818084 -1.2749457 -0.74229062
-2.2862313 -1.2590739 -0.74114251
-2.2972822 -1.2468483 -0.74229062
-2.3015099 -1.2309235 -0.74114251
-2.3013904 -1.2127627 -0.73855931
-2.3028357 -1.1955318 -0.73655009
-2.3058627 -1.1792005 -0.73511499
-2.3216121 -1.1693351 -0.73798525
-2.3218765 -1.1516658 -0.73568904
-2.334065 -1.1399174 -0.7374112
-2.3444693 -1.1272331 -0.73855931
-2.3530738 -1.1136453 -0.73913336
-2.3633368 -1.1008024 -0.74028146
-2.3674338 -1.0850843 -0.73942035
-2.3897688 -1.0776185 -0.74458683
-2.3753164 -1.0536225 -0.7376982
-2.379102 -1.0378801 -0.73683715
-2.3775008 -1.0198674 -0.73425388
-2.3766513 -1.0022855 -0.73195767
-0 -0 -0
-0.42338312 -0.17349689 -0.096194744
-0.42266068 -0.17018475 -0.095620692
-0.42815533 -0.16933842 -0.097055823
-0.43186772 -0.16774185 -0.097916901
-0 -0 -0
-0 -0 -0
-0 -0 -0
-0.30326173 -0.10967977 -0.055724055
-0.303929 -0.10781693 -0.055724055
-0 -0 -0
-0 -0 -0
-0 -0 -0
-0 -0 -0
-0.32901126 -0.10538208 -0.062612683
-0 -0 -0
-0 -0 -0
-0 -0 -0
-0 -0 -0
-0.27770934 -0.079842955 -0.045678139
-0.28188711 -0.079158694 -0.046826243
-0.28976607 -0.079424687 -0.049122453
-0.28932163 -0.077401266 -0.048835427
-0.29071894 -0.075862832 -0.049122453
-0.29396671 -0.074775308 -0.049983531
-0.3037267 -0.075238831 -0.052853793
-0 -0 -0
-0 -0 -0
-0.31347233 -0.071522757 -0.055437028
-0 -0 -0
-0 -0 -0
-0.2706314 -0.056695089 -0.041946799
-0.23715027 -0.04831237 -0.031613857
-0 -0 -0
-0 -0 -0
-0 -0 -0
-0 -0 -0
-0 -0 -0
-0 -0 -0
-0 -0 -0
-0 -0 -0
-0 -0 -0
-0 -0 -0
-0 -0 -0
-0 -0 -0
-0 -0 -0
-0 -0 -0
-0 -0 -0
-0 -0 -0
-0 -0 -0
-0 -0 -0
-0 -0 -0
-0 -0 -0
-0 -0 -0
-0.25774899 -0.016952399 -0.036493301
-0 -0 -0
-0.26367828 -0.014069037 -0.038215458
-0 -0 -0
-0 -0 -0
-0.2926169 -0.010089081 -0.046826243
-0.29746148 -0.008410031 -0.048261374
-0 -0 -0
-0.29658443 -0.0047475202 -0.047974348
-0.296608 -0.0029276228 -0.047974348
-0.29087284 -0.0011087438 -0.046252191
-0.29087415 0.0006760392 -0.046252191
-0 0 -0
-0 0 -0
-0.28698191 0.00593518 -0.045104086
-0.27832291 0.0074298074 -0.042520851
-0 0 -0
-0.2887381 0.011299212 -0.045678139
-0 0 -0
-0.282839 0.014523258 -0.043955982
-0.28752512 0.016553095 -0.045391113
-0.28741813 0.018317003 -0.045391113
-0 -0 -0
-0 -0 -0
-0 -0 -0
-0.2871348 -0.0014864289 -0.048332155
-0.28427422 0.00027661238 -0.04744003
-0.28617665 0.0020318062 -0.04803478
-0.28138533 0.0037311115 -0.046547905
-0.28040254 0.0054404112 -0.04625053
-0.28036389 0.0071608266 -0.04625053
-0.28031468 0.0088809719 -0.04625053
-0.27834666 0.01053129 -0.04565578
-0.2782768 0.012238995 -0.04565578
-0.28201097 0.014132049 -0.04684528
-0.27524567 0.015496048 -0.044763658
-0.26942748 0.016835723 -0.042979408
-0.26931909 0.018488582 -0.042979408
-0.28062701 0.020978846 -0.046547905
-0.26716843 0.021640783 -0.042384658
-0.2670306 0.023279689 -0.042384658
-0.2611782 0.024393579 -0.040600408
-0 0 -0
-0 0 -0
-0 0 -0
-0 0 -0
-0 0 -0
-0 0 -0
-0 0 -0
-0 0 -0
-0 0 -0
-0 0 -0
-0 0 -0
-0 0 -0
-0 0 -0
-0 0 -0
-0 0 -0
-0 0 -0
-0 0 -0
-0 0 -0
-0 0 -0
-0 0 -0
-0 0 -0
-0 0 -0
-0 0 -0
-0 0 -0
-0 0 -0
-0 0 -0
-0.25819603 0.068346061 -0.042087283
-0 0 -0
-0 0 -0
-0 0 -0
-0 0 -0
-0 0 -0
-0 0 -0
-0 0 -0
-0 0 -0
-0 0 -0
-0 0 -0
-0 0 -0
-0.25788632 0.089016266 -0.043871533
-0 0 -0
-0 0 -0
-0 0 -0
-0.25562409 0.095318303 -0.043871533
-0.25503439 0.096884988 -0.043871533
-0 0 -0
-0 0 -0
-0 0 -0
-0 0 -0
-0.25900033 0.10758257 -0.04625053
-0 0 -0
-0.26731521 0.11488665 -0.049521655
-0.268356 0.11728707 -0.050116405
-0.26937732 0.11970455 -0.050711155
-0.26689649 0.12057137 -0.050116405
-0.26615167 0.12220675 -0.050116405
-0.2653968 0.12383753 -0.050116405
-0.2637687 0.12505579 -0.04981903
-0.26299641 0.12667188 -0.04981903
-0.26221421 0.12828322 -0.04981903
-0.25971091 0.12904237 -0.04922428
-0.26062024 0.13149133 -0.04981903
-0.25810781 0.1322197 -0.04922428
-0.25644401 0.13336158 -0.048926905
-0.2556209 0.13493258 -0.048926905
-0.25478813 0.1364985 -0.048926905
-0.25478524 0.13851416 -0.04922428
-0.25393054 0.14007489 -0.04922428
-0.25390005 0.14209549 -0.049521655
-0.25967076 0.14741276 -0.051900655
-0.26124543 0.15042932 -0.052792776
-0.26114258 0.15250988 -0.053090151
-0.25937974 0.15362389 -0.052792776
-0.27563396 0.16551314 -0.059037652
-0.2550267 0.15530874 -0.051900655
-0.26382554 0.16287687 -0.055469152
-0.25796139 0.16145961 -0.053684901
-0.25696585 0.1630394 -0.053684901
-0.26560497 0.17079785 -0.057253402
-0.26695356 0.17398533 -0.058145527
-0.27385408 0.18087231 -0.061119273
-0.27273911 0.18254924 -0.061119273
-0.2716139 0.1842193 -0.061119273
-0.26496586 0.18210374 -0.059037652
-0.27874297 0.19407415 -0.064687774
-0.27910855 0.19687971 -0.065282524
-0.2802276 0.20025124 -0.066174649
-0.27047932 0.19581817 -0.062903523
-0.27081388 0.19860154 -0.063498273
-0.26805598 0.19912262 -0.062903523
-0 0 -0
-0 0 -0
-0 0 -0
-0 0 -0
-0 0 -0
-0 0 -0
-0 0 -0
-0 0 -0
-0 0 -0
-0 0 -0
-0 0 -0
-0 0 -0
-0 0 -0
-0 0 -0
-0 0 -0
-0 0 -0
-0 0 -0
-0 0 -0
-0 0 -0
-0 0 -0
-0 0 -0
-0 0 -0
-0 0 -0
-0 0 -0
-0 0 -0
-0 0 -0
-0 0 -0
-0 0 -0
-0 0 -0
-0 0 -0
-1.7606361 1.9177566 -0.76976359
-0 0 -0
-0 0 -0
-1.7573082 1.9863033 -0.78492969
-0 0 -0
-0 0 -0
-0 0 -0
-0 0 -0
-0 0 -0
-0 0 -0
-0 0 -0
-1.6314646 2.0373502 -0.77184522
-1.6207099 2.0495689 -0.77273732
-1.6081034 2.0594747 -0.77273732
-1.5948534 2.068547 -0.77243996
-1.5844448 2.0813324 -0.77362949
-1.5762342 2.0971203 -0.77600849
-1.5644749 2.1082857 -0.77660322
-0 0 -0
-1.5452007 2.1366081 -0.78017169
-1.5448234 2.1639197 -0.78701133
-1.5243657 2.1632128 -0.78314549
-1.5148808 2.1780117 -0.78522712
-1.4950026 2.1778209 -0.78165859
-1.4901816 2.199599 -0.78641659
-1.4665725 2.1936221 -0.78076649
-1.453611 2.2033763 -0.78106385
-1.4452739 2.2202549 -0.78403759
-1.4274949 2.2226551 -0.78165859
-1.41383 2.2313721 -0.78165859
-1.3889762 2.2221954 -0.77511632
-1.3703029 2.2225497 -0.77214259
-1.3531665 2.2252061 -0.77006096
-1.3380139 2.2310109 -0.76916885
-1.3160348 2.2252095 -0.76411349
-1.3119785 2.2497365 -0.77006096
-1.2986257 2.2585719 -0.77035832
-1.2903942 2.276464 -0.77392685
-1.2805943 2.2918394 -0.77660322
-1.26789 2.3021626 -0.77749532
-0 0 -0
-1.2269316 2.2939768 -0.76916885
-1.2128329 2.3014619 -0.76916885
-1.1973685 2.3063185 -0.76827675
-1.1805855 2.308522 -0.76649249
-1.1702651 2.3233962 -0.76916885
-1.1589576 2.33652 -0.77125049
-1.1508862 2.3564548 -0.77571112
-1.1384748 2.3677742 -0.77719796
-1.1247422 2.376441 -0.77779269
-1.1032839 2.3685856 -0.77273732
-1.0899236 2.3779142 -0.77362949
-1.073742 2.3810759 -0.77243996
-1.0552391 2.3788927 -0.76946622
-1.0417683 2.3879478 -0.77035832
-1.0222017 2.382889 -0.76649249
-1.0053344 2.3838382 -0.76470822
-0.99288291 2.3952537 -0.76649249
-0.97960854 2.4048374 -0.76768196
-0.96128541 2.4019394 -0.76470822
-0.94338429 2.3997958 -0.76203185
-0.93208152 2.4144456 -0.76500559
-0.91792625 2.4219048 -0.76560032
-0.90504658 2.4328601 -0.76738459
-0.88977426 2.4374709 -0.76708722
-0 0 -0
-0.85599774 2.437397 -0.76351875
-0.84351379 2.449825 -0.76589775
-0.82968777 2.4585729 -0.76708722
-0.80918902 2.4473014 -0.76173449
-0 0 -0
-0.78227186 2.4670577 -0.76500559
-0 0 -0
-0 0 -0
-0 0 -0
-0 0 -0
-0 0 -0
-0 0 -0
-0 0 -0
-0 0 -0
-0 0 -0
-0 0 -0
-0 0 -0
-0 0 -0
-0 0 -0
-0 0 -0
-0 0 -0
-0 0 -0
-0 0 -0
-0 0 -0
-0 0 -0
-0 0 -0
-0 0 -0
-0 0 -0
-0 0 -0
-0 0 -0
-0 0 -0
-0 0 -0
-0.035266984 0.25029489 -0.037626658
-0 0 -0
-0 0 -0
-0 0 -0
