# .PCD v0.7 - Point Cloud Data file format
VERSION 0.7
FIELDS x y z
SIZE 4 4 4
TYPE F F F
COUNT 1 1 1
WIDTH 1675
HEIGHT 1
VIEWPOINT 0 0 0 1 0 0 0
POINTS 1675
DATA ascii
9.1671 -0.84429455 -0.7791642
9.1676941 -0.9011113 -0.77969444
9.1669464 -0.95786363 -0.78013635
9.1599064 -1.0139834 -0.78004795
9.1505442 -1.0698215 -0.77978283
9.1507282 -1.1267999 -0.78040141
9.1446295 -1.1830543 -0.7804898
9.1362114 -1.2390085 -0.78040141
9.1274509 -1.2949041 -0.78031307
9.1163778 -1.3504469 -0.78004795
9.1000443 -1.4051429 -0.77934098
9.0843668 -1.4598472 -0.77872235
9.0909576 -1.5181849 -0.78013635
9.0834341 -1.5742775 -0.78031307
9.0794859 -1.6310393 -0.78084332
9.0761623 -1.6879939 -0.78146189
9.0763941 -1.7457213 -0.78243399
9.0684433 -1.8019625 -0.78269911
9.0464821 -1.8553706 -0.78172702
9.0222578 -1.908165 -0.7805782
9.0152464 -1.9645488 -0.78102005
9.0069103 -2.0207005 -0.78137356
8.993371 -2.0757036 -0.78128517
8.9688358 -2.128088 -0.78022468
8.9449635 -2.180485 -0.77925259
8.9401131 -2.2375054 -0.78004795
8.9426165 -2.29653 -0.78155029
8.9389534 -2.3541477 -0.78252238
8.9262629 -2.4094708 -0.78269911
8.9093904 -2.4636652 -0.78252238
8.8739796 -2.512588 -0.78066653
8.8430872 -2.5625553 -0.77925259
8.827198 -2.6167672 -0.77925259
8.8004894 -2.6677024 -0.7782805
8.773489 -2.7184086 -0.7773084
8.750946 -2.7703869 -0.77677816
8.7205133 -2.8197398 -0.77554095
8.6916971 -2.8694479 -0.77448046
8.6616554 -2.9185908 -0.77333164
8.6416998 -2.9710352 -0.77315485
8.6261272 -3.0249925 -0.77341998
8.6214733 -3.0828948 -0.77474558
8.6183043 -3.1415358 -0.77624792
8.5998001 -3.1947043 -0.77633631
8.5800352 -3.2474115 -0.77633631
8.559948 -3.2999966 -0.77633631
8.5562286 -3.3590086 -0.77792698
8.5576563 -3.4203167 -0.78004795
8.5475807 -3.4772649 -0.78110844
8.5306854 -3.5315511 -0.78155029
8.5483294 -3.6004519 -0.78535032
8.4976931 -3.6406767 -0.78261077
8.475194 -3.692749 -0.78261077
8.4041071 -3.7233002 -0.77792698
8.4038095 -3.785022 -0.78013635
8.4075985 -3.8489532 -0.7827875
8.4190454 -3.9168539 -0.78623402
8.4182682 -3.9795058 -0.78853172
8.4071608 -4.0375524 -0.78985733
8.3876009 -4.0916815 -0.79038757
8.3694773 -4.1466074 -0.79109454
8.3501053 -4.2010169 -0.79171318
8.187562 -4.1823974 -0.77810377
8.1705875 -4.2371416 -0.77898747
8.1444349 -4.2871957 -0.77898747
8.1258831 -4.3413124 -0.77978283
8.1008444 -4.3920398 -0.77995956
8.091198 -4.4512644 -0.78172702
8.1698475 -4.5600505 -0.79250848
8.2405291 -4.6660404 -0.80258298
8.2221098 -4.7224684 -0.80364347
8.216217 -4.7863665 -0.80602956
8.2235718 -4.8584752 -0.80982959
8.2192411 -4.9241991 -0.81248075
8.1956825 -4.9786758 -0.81318772
8.16922 -5.0314813 -0.81362957
8.140729 -5.0830946 -0.81389469
8.1135941 -5.135613 -0.8143366
8.0911522 -5.1912169 -0.81530869
8.0716734 -5.2489104 -0.81663424
8.0484638 -5.3043675 -0.81760639
8.0281906 -5.3619504 -0.81893194
7.9959641 -5.4116678 -0.81902033
7.9716449 -5.4668245 -0.81999242
7.9297709 -5.5099511 -0.81910872
7.8966274 -5.5590773 -0.81919706
7.8518262 -5.5999069 -0.81804824
7.5363336 -5.4449863 -0.78729451
7.4031067 -5.4181824 -0.77633631
7.3129072 -5.4213896 -0.77006185
7.2882667 -5.4727373 -0.77103394
7.2854714 -5.5408697 -0.77448046
7.2726431 -5.6018786 -0.77686656
7.2774043 -5.6770291 -0.78128517
7.5746288 -5.9839892 -0.8188436
7.5463252 -6.0371981 -0.8198157
7.5308113 -6.1009436 -0.82229012
7.5140285 -6.1640935 -0.82467622
7.4752989 -6.2094464 -0.82458782
7.4385824 -6.2564793 -0.82476455
7.4303885 -6.3278356 -0.82829946
7.3959479 -6.3772111 -0.82882971
7.334167 -6.4028201 -0.82617855
7.2969813 -6.4496799 -0.82644367
7.2780538 -6.5129299 -0.8289181
7.250504 -6.5688334 -0.83042043
7.2225413 -6.6246438 -0.83192277
7.1788378 -6.6661248 -0.83156925
7.1457834 -6.7175522 -0.83254135
7.1174192 -6.7736316 -0.83413208
7.0735707 -6.8151026 -0.83386695
7.0309081 -6.8576813 -0.83377856
7.0113797 -6.9230876 -0.8366065
6.9638371 -6.9610491 -0.83598793
6.9090905 -6.9916034 -0.83448559
6.8674526 -7.0352907 -0.83466232
6.818624 -7.0715599 -0.83395535
6.7476249 -7.084415 -0.83042043
6.7081242 -7.1300373 -0.83095068
6.68188 -7.1900334 -0.83324832
6.6598663 -7.2551117 -0.83616465
6.6272683 -7.3091216 -0.83775538
6.6028972 -7.3726497 -0.84049493
6.5595155 -7.4152637 -0.84076005
6.511271 -7.4523721 -0.84040654
6.4641199 -7.4906759 -0.84022981
6.4277287 -7.5415692 -0.84155536
2.9788418 -3.539115 -0.37282628
2.934145 -3.5297523 -0.36964485
2.8915725 -3.5222847 -0.36672854
2.852967 -3.5190711 -0.36434248
2.8151331 -3.5162942 -0.36204478
2.7762055 -3.5116241 -0.35957035
2.7447982 -3.5160306 -0.35815638
2.7067516 -3.5115068 -0.35577032
2.6966178 -3.543108 -0.35744941
2.643707 -3.5181818 -0.35285404
2.6054504 -3.511939 -0.35037959
2.5673707 -3.5053604 -0.34790516
2.5306375 -3.5000618 -0.34560746
2.4946456 -3.4952557 -0.34339815
2.5179048 -3.574008 -0.35029122
2.4123223 -3.4691806 -0.33730042
2.3504028 -3.4247887 -0.33093759
2.2907965 -3.3822436 -0.32483986
2.2644644 -3.3879552 -0.32395613
2.2540553 -3.4175837 -0.32563522
2.2395637 -3.4413679 -0.32669568
2.2178674 -3.4542067 -0.32660732
2.1902337 -3.457653 -0.32554686
2.1689768 -3.4710271 -0.32554686
2.2406859 -3.6351962 -0.34127721
2.2162685 -3.645472 -0.3409237
2.1918094 -3.6555853 -0.34057021
2.1566617 -3.6475308 -0.33836091
2.123703 -3.6426251 -0.33650506
2.0908861 -3.6374531 -0.33464924
2.0616512 -3.6380823 -0.33341202
2.0358887 -3.6445768 -0.33279341
2.0115657 -3.6535101 -0.33243993
1.9862593 -3.6605313 -0.33190969
1.9642311 -3.6735282 -0.33199805
0 -0 -0
0 -0 -0
1.7996818 -3.5201607 -0.31317466
1.7565415 -3.488435 -0.30893278
1.7275796 -3.4839773 -0.30743042
1.7039843 -3.4900367 -0.30698857
0 -0 -0
1.6520797 -3.4917772 -0.30513275
0 -0 -0
0 -0 -0
1.5920316 -3.5315833 -0.30610484
1.5699284 -3.5403748 -0.30601647
1.5465825 -3.5462892 -0.30566299
1.5228304 -3.5511348 -0.30522111
1.5056568 -3.5714257 -0.3062816
1.486003 -3.586118 -0.30681181
0 -0 -0
0 -0 -0
1.4350476 -3.6517985 -0.31052348
1.4194291 -3.6781909 -0.31220257
1.3989514 -3.6924198 -0.31273279
1.3797417 -3.7102699 -0.31361651
1.3648055 -3.7401872 -0.31564909
1.3495537 -3.7700601 -0.31768167
1.3333263 -3.7980061 -0.31953749
1.3161582 -3.8240104 -0.32121658
1.3210143 -3.9160125 -0.32908174
1.3085304 -3.9590368 -0.33235154
0 -0 -0
1.2694821 -4.0051804 -0.33517948
0 -0 -0
0 -0 -0
0 -0 -0
0 -0 -0
1.2487612 -4.4044714 -0.36858439
1.2352732 -4.4610076 -0.3730914
1.2817191 -4.7415848 -0.39818925
1.2508224 -4.7426181 -0.39757064
1.2482545 -4.8534236 -0.40702653
1.254548 -5.004952 -0.42019406
1.2287774 -5.032876 -0.42204991
1.2342741 -5.1934352 -0.4360128
1.241661 -5.3707438 -0.45147803
1.2340267 -5.490994 -0.46172926
1.245151 -5.7037978 -0.48037592
1.2165322 -5.741538 -0.48311546
1.2033406 -5.8562207 -0.49283648
1.2117449 -6.0862274 -0.51298547
1.2028508 -6.2412376 -0.52632976
1.190456 -6.3875489 -0.53887868
1.2246839 -6.8025451 -0.57564175
1.188037 -6.8393731 -0.57829297
1.1541098 -6.8946719 -0.58262318
1.1330185 -7.0333996 -0.59446514
1.3681884 -8.8376503 -0.7558338
1.311008 -8.8261738 -0.75406635
1.2568269 -8.8340521 -0.75406635
1.20421 -8.8534412 -0.75512683
1.1480684 -8.8468342 -0.75388962
1.0936415 -8.8527231 -0.75380123
1.0377923 -8.846406 -0.75265241
0.98239195 -8.8427076 -0.75176865
0.92738795 -8.8416348 -0.75115007
0.8715533 -8.8312979 -0.74973607
0.81780803 -8.8414392 -0.75017798
0.76397109 -8.8512526 -0.75061983
0.70916879 -8.8498163 -0.75008959
0.65397179 -8.8420801 -0.7490291
0.59916615 -8.8379765 -0.74832213
0.54511005 -8.8444691 -0.74858725
0.49077591 -8.846652 -0.74849886
0.43599349 -8.8395481 -0.74761516
0.38187584 -8.8450432 -0.74788028
0.19570842 -5.2896466 -0.43203601
0 -0 -0
0.11831607 -4.7887802 -0.38740778
0.088410378 -4.7615304 -0.38493335
0 -0 -0
0.029673921 -4.7154417 -0.38077983
0 -0 -0
-0.028105944 -4.7005095 -0.37945423
-0.056815371 -4.6892924 -0.37848213
-0 -0 -0
-0.11396863 -4.6723099 -0.37706816
-0.14227144 -4.659575 -0.37600771
-0 -0 -0
-0.1989305 -4.6455359 -0.37494722
-0.22791761 -4.6541767 -0.37583095
-0 -0 -0
-0 -0 -0
-0 -0 -0
-0.34111869 -4.6342673 -0.3746821
-0 -0 -0
-0 -0 -0
-0 -0 -0
-0 -0 -0
-0 -0 -0
-0.51102382 -4.6146116 -0.37432861
-0 -0 -0
-0 -0 -0
-0 -0 -0
-0.62746358 -4.6253567 -0.37653792
-0.65709126 -4.6302958 -0.37733328
-0.68782461 -4.641942 -0.37874725
-0 -0 -0
-0 -0 -0
-0.78857005 -4.720849 -0.38705429
-0.82738513 -4.7728467 -0.39217991
-0.85190111 -4.741209 -0.38979384
-0 -0 -0
-0 -0 -0
-0 -0 -0
-1.7935448 -8.7449646 -0.75441986
-1.8601513 -8.7951908 -0.75998735
-1.9183234 -8.8030767 -0.76175481
-1.9768802 -8.8115511 -0.7636106
-2.0286698 -8.7895489 -0.7627269
-2.0804942 -8.7682133 -0.76193154
-2.1170375 -8.6846361 -0.75548029
-2.17222 -8.6792135 -0.75618732
-2.2177544 -8.6358128 -0.75344777
-2.2661357 -8.6047039 -0.75185704
-2.3113637 -8.562748 -0.74929422
-1.7456532 -6.3124042 -0.54347408
-1.7498941 -6.1798544 -0.5322507
-1.7816818 -6.147953 -0.53030652
-1.8185221 -6.1340399 -0.5300414
-1.8607484 -6.1380186 -0.5314554
-2.5276964 -8.1578846 -0.72013122
-2.5704904 -8.1194296 -0.71801025
-2.5966675 -8.0305252 -0.71120554
-2.6259105 -7.9539042 -0.70554972
-2.6613083 -7.8979959 -0.70183808
-2.7009764 -7.8560843 -0.69945198
-2.7362759 -7.8027043 -0.69600546
-2.7579439 -7.7126088 -0.68911237
-2.7833855 -7.6356454 -0.68345654
-2.8145771 -7.5764046 -0.67947972
-2.8430316 -7.5114799 -0.67497271
-2.8718712 -7.4492812 -0.67073083
-2.9015107 -7.3907223 -0.66684246
-2.9368243 -7.347806 -0.66445637
-2.9675927 -7.2945857 -0.66109818
-2.9696274 -7.1731596 -0.65120047
-3.0073996 -7.1401153 -0.64978647
-3.0217364 -7.0528569 -0.64315856
-3.0534177 -7.0077009 -0.64059573
-3.081028 -6.9542255 -0.63723755
-3.1072795 -6.8988605 -0.63370264
-3.127579 -6.8316622 -0.6290189
-3.1438103 -6.7572508 -0.62362814
-3.1749969 -6.7162204 -0.62150723
-3.2126975 -6.6894288 -0.62080026
-3.2152543 -6.590807 -0.61302346
-3.2560763 -6.5718474 -0.61311179
-3.2802241 -6.5197105 -0.6099304
-3.2734983 -6.408092 -0.60082799
-3.3274288 -6.4161825 -0.60365593
-3.350497 -6.3647943 -0.60056287
-3.3613272 -6.2914014 -0.5952605
-3.3580916 -6.1935978 -0.5874837
-3.4104342 -6.199059 -0.59013486
-3.424135 -6.1345263 -0.58571625
-3.4322655 -6.0613928 -0.58041388
-3.4634402 -6.0298533 -0.57935339
-3.4868367 -5.9852495 -0.57696736
-3.5067768 -5.9354405 -0.57405102
-3.5298209 -5.8915949 -0.57175332
-3.5503912 -5.844285 -0.56910217
-3.5752151 -5.8045793 -0.56724632
-3.5812225 -5.7352166 -0.56229746
-3.5923741 -5.6752596 -0.5583207
-3.60938 -5.6254435 -0.55540437
-3.6329691 -5.5864892 -0.55363691
-3.6348407 -5.5150204 -0.54842293
-3.6464839 -5.4594798 -0.54488802
-3.6854968 -5.4452519 -0.54577178
-3.6946161 -5.3872113 -0.54197174
-3.7224865 -5.3570781 -0.54117638
-3.7432463 -5.3170314 -0.53932053
-3.7601852 -5.2720661 -0.53693449
-3.7953799 -5.2529321 -0.53737634
-3.7834206 -5.1692576 -0.53074837
-3.8370149 -5.1755538 -0.53401816
-3.8489628 -5.1256266 -0.53110188
-3.8429575 -5.0527554 -0.52562279
-3.8617322 -5.0132971 -0.52385533
-3.8575003 -4.9447393 -0.51881808
-3.8890028 -4.9225402 -0.51899481
-3.9154005 -4.893918 -0.51846457
-3.9183948 -4.8365197 -0.51466453
-3.9391532 -4.8016038 -0.51342732
-3.9640861 -4.7719798 -0.51280874
-3.9932916 -4.7475667 -0.51280874
-4.02493 -4.7260084 -0.5131622
-4.0310874 -4.674819 -0.51006919
-4.038734 -4.6259837 -0.50724125
-4.0235057 -4.5518556 -0.50140864
-4.0593305 -4.5359898 -0.50246912
-4.0610046 -4.4822063 -0.49902257
-4.0675592 -4.4344473 -0.49628302
-4.0872364 -4.4013762 -0.4953109
-4.1100726 -4.37186 -0.49478069
-4.1272073 -4.3364568 -0.49354345
-4.1488996 -4.3060293 -0.49292484
-4.1620288 -4.2669425 -0.49124578
-4.1650376 -4.2179332 -0.48832947
-4.1901355 -4.1915932 -0.48824111
-4.1867285 -4.1370969 -0.4846178
-4.1742578 -4.0744514 -0.47993407
-4.2185392 -4.0674305 -0.48232013
-4.2217793 -4.0208592 -0.47966895
-4.2224317 -3.9723542 -0.47675264
-4.227026 -3.928062 -0.47436658
-4.2224317 -3.8757801 -0.47092003
-4.2461333 -3.8497987 -0.47092003
-4.2548356 -3.8103812 -0.46915257
-4.2661991 -3.7736423 -0.46773863
-4.2915235 -3.7493606 -0.46800372
-4.3091698 -3.7184021 -0.46738511
-4.3175011 -3.6796145 -0.46570605
-4.3232331 -3.6389406 -0.46376184
-4.3041191 -3.5779576 -0.45898971
-4.3113651 -3.5394709 -0.45731062
-4.3237171 -3.5054219 -0.45625016
-4.3210411 -3.4595253 -0.45351061
-4.3249974 -3.4193549 -0.4515664
-4.3458972 -3.3927529 -0.4515664
-4.3737326 -3.3714967 -0.45236176
-4.3895817 -3.3409765 -0.45183152
-4.380537 -3.2918367 -0.44856173
-4.4078522 -3.2702384 -0.44935709
-4.3989072 -3.2219396 -0.44617566
-4.3798509 -3.1668701 -0.44193378
-4.3805537 -3.1266253 -0.4399012
-4.4037271 -3.1025567 -0.44034305
-4.4578447 -3.0999336 -0.44414309
-4.439826 -3.0471551 -0.44016632
-4.4460697 -3.0114756 -0.43884072
-4.3965611 -2.9387434 -0.43159416
-4.3829145 -2.8908682 -0.42823598
-4.4055791 -2.8671811 -0.42876622
-4.3753152 -2.8094141 -0.42372897
-4.4000435 -2.7873127 -0.42452434
-4.4094615 -2.7555108 -0.42372897
-4.3906741 -2.7064478 -0.42001733
-4.4191132 -2.6867015 -0.42125455
-4.444912 -2.6651711 -0.42222664
-4.4217424 -2.6145234 -0.41816151
-4.4437246 -2.5908554 -0.41878012
-4.4414039 -2.5531142 -0.41692427
-4.4526534 -2.5233583 -0.41648242
-4.4810958 -2.5032775 -0.417808
-4.4867735 -2.4704494 -0.4168359
-4.4335618 -2.4058113 -0.40994284
-4.5088468 -2.4109759 -0.41604054
-4.4733257 -2.356796 -0.41100329
-4.4779778 -2.3242555 -0.4100312
-4.4806256 -2.2908397 -0.40888235
-4.4848118 -2.2583752 -0.40791026
-4.5324941 -2.247633 -0.41126841
-4.5381446 -2.2158458 -0.41047308
-4.5265188 -2.1758733 -0.40799862
-4.5334821 -2.1450756 -0.40738001
-4.5564914 -2.1218445 -0.40835211
-4.5132833 -2.0681152 -0.40287301
-0.26172867 -0.11758901 0.012125465
-0.26244527 -0.11598086 0.012125465
-0.26315197 -0.11436834 0.012125465
-0.25835624 -0.1103955 0.012655701
-0.25902873 -0.10880817 0.012655701
-0.25417045 -0.10492831 0.013185939
-4.5139747 -1.8382219 -0.39483109
-0 -0 -0
-0 -0 -0
-0 -0 -0
-0 -0 -0
-0 -0 -0
-0 -0 -0
-0 -0 -0
-0 -0 -0
-0 -0 -0
-0 -0 -0
-0 -0 -0
-0 -0 -0
-0 -0 -0
-0 -0 -0
-0 -0 -0
-0 -0 -0
-0 -0 -0
-0 -0 -0
-0 -0 -0
-0 -0 -0
-0 -0 -0
-0 -0 -0
-0 -0 -0
-0 -0 -0
-0 -0 -0
-0 -0 -0
-0 -0 -0
-0 -0 -0
-0 -0 -0
-0 -0 -0
-0 -0 -0
-0 -0 -0
-0 -0 -0
-0 -0 -0
-0 -0 -0
-0 -0 -0
-0 -0 -0
-0 -0 -0
-0 -0 -0
-0 -0 -0
-0 -0 -0
-0 -0 -0
-0 -0 -0
-0 -0 -0
-0 -0 -0
-0 -0 -0
-0 -0 -0
-0 -0 -0
-0 -0 -0
-0 -0 -0
-0 -0 -0
-0 -0 -0
-0 -0 -0
-0 -0 -0
-0 -0 -0
-0 -0 -0
-0 -0 -0
-0 -0 -0
-0 0 -0
-0 0 -0
-0 0 -0
-0.29139671 0.025782678 0.0080667445
-0.29123303 0.027570169 0.0080667445
-0 0 -0
-0 0 -0
-0 0 -0
-0.2667717 0.031781614 0.010492096
-0.26657167 0.033417895 0.010492096
-0 0 -0
-0 0 -0
-0 0 -0
-0 0 -0
-0 0 -0
-0 0 -0
-0 0 -0
-0.27048567 0.047515437 0.0098857582
-0 0 -0
-0 0 -0
-0 0 -0
-0 0 -0
-0 0 -0
-0 0 -0
-0.27499062 0.060612988 0.0091783637
-0 0 -0
-0 0 -0
-0.27286187 0.065428399 0.0092794197
-0 0 -0
-0.26914787 0.068028376 0.0095825894
-0.2687254 0.06967856 0.0095825894
-0.26829278 0.071326114 0.0095825894
-0.2659325 0.072439916 0.0097847013
-0 0 -0
-0.26406807 0.075420581 0.0098857582
-0.26073912 0.076190032 0.010188927
-0 0 -0
-0 0 -0
-0.25929254 0.080976479 0.010188927
-0.25879079 0.082565948 0.010188927
-0.26016852 0.084776826 0.0099868141
-0.26152879 0.087007694 0.0097847013
-0.26287138 0.089258425 0.0095825894
-0.26325747 0.091199294 0.0094815325
-0.26362959 0.093148239 0.0093804765
-0.26585683 0.095787361 0.0090773078
-0.26899397 0.098804094 0.0086730821
-0.26931298 0.10080528 0.0085720262
-0.27054566 0.10317233 0.0083699133
-0.27268532 0.10592219 0.0080667445
-0 0 -0
-0.26860076 0.10813471 0.0083699133
-0.26517498 0.10863806 0.0086730821
-0.26175323 0.10910349 0.0089762509
-0.26290753 0.11149184 0.008774139
-0.2631304 0.11350066 0.0086730821
-0.262429 0.11511306 0.0086730821
-0.26443863 0.11794788 0.0083699133
-0.26280549 0.11915375 0.0084709693
-0.26206943 0.12076405 0.0084709693
-0.2622228 0.12279535 0.0083699133
-0.26236105 0.12483306 0.0082688574
-0.26337811 0.12731363 0.0080667445
-0.26348326 0.1293693 0.0079656886
-0.26179594 0.13053609 0.0080667445
-0.26364747 0.13349877 0.0077635758
-0.26282337 0.13511397 0.0077635758
-0.2611092 0.13626032 0.0078646317
-0.25939089 0.13739073 0.0079656886
-0.25854301 0.13897973 0.0079656886
-0.25855687 0.14104339 0.0078646317
-0.25594953 0.14165676 0.0080667445
-0.25594103 0.14371511 0.0079656886
-0.25677943 0.14627454 0.0077635758
-0.25415817 0.14684509 0.0079656886
-0.25325236 0.14840181 0.0079656886
-0.25745642 0.15302277 0.0073593506
-0.25821283 0.15563335 0.0071572377
-0.25894681 0.15825891 0.0069551254
-0.25881454 0.16037206 0.006854069
-0.25866607 0.16248952 0.0067530125
-0.25598991 0.16299847 0.0069551254
-0.25248346 0.16293803 0.0072582942
-0.2489875 0.16284077 0.0075614629
-0.24881074 0.16491835 0.0074604065
-0.24861783 0.16699988 0.0073593506
-0.25168976 0.1713372 0.006854069
-0.25308406 0.17458238 0.0065509002
-0.25444794 0.17785104 0.0062477309
-0.25578114 0.18114296 0.0059445621
-0.25466487 0.18270899 0.0059445621
-0.25273639 0.18368025 0.0060456186
-0.25240356 0.18582036 0.0059445621
-0.25125864 0.18736558 0.0059445621
-0.24931261 0.18830118 0.0060456186
-0.24815252 0.1898274 0.0060456186
-0.2469831 0.19134645 0.0060456186
-0.24658479 0.19347535 0.0059445621
-0.24539301 0.19498472 0.0059445621
-0.24419197 0.19648676 0.0059445621
-0.24067497 0.19608749 0.0062477309
-0.2417624 0.19946857 0.0059445621
-0.24129505 0.20158893 0.0058435057
-0.2430823 0.20564707 0.0054392805
-0.24482872 0.20973462 0.0050350553
-0.2457848 0.21319668 0.0047318866
-0.2481979 0.21799663 0.0042266049
-0 0 -0
-0 0 -0
-0 0 -0
-0 0 -0
-0 0 -0
-0 0 -0
-0 0 -0
-0 0 -0
-0 0 -0
-0 0 -0
-0 0 -0
-0 0 -0
-0 0 -0
-0 0 -0
-0 0 -0
-0 0 -0
-0 0 -0
-0 0 -0
-0 0 -0
-0 0 -0
-0 0 -0
-0 0 -0
-0 0 -0
-0 0 -0
-0 0 -0
-0 0 -0
-0 0 -0
-0 0 -0
-0 0 -0
-0 0 -0
-0 0 -0
-0 0 -0
-0 0 -0
-4.4523578 6.0038161 -0.72145867
-4.3790054 5.9812465 -0.71519315
-4.3527102 6.0225186 -0.71701217
-4.3341608 6.0750327 -0.72024602
-4.3197112 6.1340523 -0.72428823
-4.3132157 6.2053781 -0.72984636
-4.2986913 6.2661867 -0.73409069
-4.294735 6.3435278 -0.74035621
-4.2695451 6.3904433 -0.74288261
-4.2570801 6.4572244 -0.74783438
-4.2401586 6.5182538 -0.75207871
-4.2285571 6.5885277 -0.75743473
-4.2088027 6.6471343 -0.7613759
-4.1974454 6.7200913 -0.76703507
-4.1785674 6.782145 -0.77138048
-4.1714816 6.8646255 -0.77815127
-4.1492233 6.9233761 -0.78209245
-4.1360159 6.9983854 -0.78795373
-4.1145306 7.0605969 -0.79229915
-4.0988784 7.1340218 -0.79795825
-4.0819893 7.2066526 -0.80351639
-4.0726047 7.2941117 -0.81079245
-4.0507903 7.3608041 -0.81564313
-4.0363712 7.4423699 -0.8222118
-4.0389171 7.5573788 -0.83262062
-4.0170312 7.6286778 -0.83797657
-3.9921312 7.6955752 -0.84282726
-3.978328 7.7854881 -0.85030544
-3.9617815 7.871964 -0.85737938
-3.9447644 7.9594188 -0.86455441
-3.9338009 8.061265 -0.87334627
-3.917428 8.1543064 -0.8811276
-3.9055874 8.2591391 -0.89022267
-3.8774986 8.3316584 -0.89567971
-3.8263035 8.3552933 -0.89567971
-3.7994781 8.4330406 -0.90174311
-3.7424235 8.4443703 -0.90042937
-3.6953082 8.4781189 -0.90164202
-3.6553636 8.5289831 -0.90477479
-3.6207259 8.5934277 -0.90942335
-3.5721154 8.6255932 -0.91053498
-3.535243 8.6869755 -0.91488039
-3.4933207 8.7371426 -0.91801316
-3.3778396 8.6009798 -0.90083361
-3.3912075 8.7932768 -0.91952902
-3.3400064 8.8213634 -0.92033744
-3.2906671 8.8547478 -0.92175227
-3.2352512 8.8719683 -0.92144907
-3.1941521 8.9291239 -0.92549133
-3.1449008 8.9645147 -0.92720926
-3.0895128 8.9827013 -0.92710823
-3.0425975 9.0260019 -0.92973572
-2.989341 9.0511141 -0.93044311
-2.9352787 9.0740194 -0.93094838
-2.8828492 9.1022921 -0.93206
-2.8292999 9.1274128 -0.93286842
-2.7741077 9.1474571 -0.93317163
-2.719059 9.1681223 -0.93357581
-2.6641376 9.1894112 -0.93408114
-2.6104128 9.2151575 -0.93509167
-2.554616 9.2338781 -0.93539482
-2.4909096 9.2234449 -0.9326663
-2.4319882 9.2298965 -0.93175679
-2.3745666 9.2417545 -0.93145365
-2.3011489 9.189558 -0.92448074
-2.2437768 9.1996384 -0.92407656
-2.1803963 9.1841927 -0.92104483
-2.1116962 9.1440811 -0.91548675
-2.0501046 9.1325979 -0.91296035
-1.9940295 9.1450052 -0.91296035
-1.9374676 9.1551218 -0.91275823
-1.8810565 9.1658621 -0.9126572
-1.8240048 9.1733284 -0.91225296
-1.765617 9.1736012 -0.91114134
-1.7071127 9.1725245 -0.90992868
-1.6479845 9.1671591 -0.90831178
-1.5876274 9.1535721 -0.90588641
-1.5294657 9.1513662 -0.90467376
-1.4604992 9.0810137 -0.89648819
-1.4036889 9.082922 -0.8957808
-1.3488054 9.0972681 -0.8963871
-1.2905846 9.0886278 -0.89466918
-1.2301141 9.0618706 -0.89113218
-1.1686165 9.0238619 -0.88648361
-1.1078752 8.9874163 -0.8820371
-1.0499359 8.9703293 -0.87961179
-0.99356169 8.964736 -0.87839907
-0.93646848 8.9508743 -0.87637794
-0.87851238 8.9257584 -0.87324524
-0.82016993 8.8923435 -0.869304
-0.76354814 8.8734198 -0.86687869
-0.70750588 8.8581028 -0.86485755
-0.65204543 8.847394 -0.86334169
-0.59801418 8.8551989 -0.86374593
-0.54281706 8.844799 -0.86233115
-0.48705879 8.8211422 -0.85960263
-0.43224341 8.8100529 -0.85818785
-0.37758246 8.798624 -0.85677302
-0.32318735 8.7898388 -0.85566145
-0.26815623 8.7558575 -0.85202342
-0.21299726 8.698657 -0.84606105
-0.15927505 8.6809006 -0.84414101
-0.10597102 8.67873 -0.84383786
-0.052717332 8.6792173 -0.84383786
0.00053032604 8.638587 -0.83969456
0.053415995 8.6195192 -0.83777446
0.10622894 8.61306 -0.8371681
0.15872402 8.5933466 -0.83524805
0.2107105 8.5623741 -0.83221638
0.26281428 8.546998 -0.83080161
0.31495821 8.5372705 -0.82999313
0.36583403 8.5003891 -0.82645613
0.41528893 8.4433327 -0.82089806
0.46604136 8.421752 -0.81897801
0.51660585 8.4008598 -0.817159
0.56693155 8.3796644 -0.81533998
0.61686987 8.356185 -0.81331885
0.66638255 8.3304253 -0.8110956
0.71534568 8.3013992 -0.80856919
0.76361132 8.2681255 -0.80563855
0.80905288 8.2098198 -0.80018151
0.85723269 8.1839228 -0.79805934
0.90644348 8.16961 -0.79714984
0.81328058 6.9425969 -0.67224425
0.85549831 6.934514 -0.6719411
0.96217662 7.4234247 -0.7225703
0.97512507 7.1778307 -0.6980136
0.96253592 6.7737875 -0.65718687
0.97981632 6.6043959 -0.6404115
1.0197128 6.594327 -0.64000732
1.0612633 6.5948215 -0.6407147
1.1008872 6.5832796 -0.64020938
1.1301925 6.5126877 -0.63364077
1.1584972 6.4410071 -0.62697101
1.1877881 6.3790073 -0.6213119
1.2163622 6.3168931 -0.61565274
1.2345051 6.2058835 -0.60494077
1.2641492 6.1572623 -0.60069638
1.2979871 6.1308975 -0.59877634
1.3307003 6.1004624 -0.596452
1.3593801 6.0533557 -0.59240979
1.3859636 5.9993434 -0.58766013
1.4128559 5.9491062 -0.58331472
1.4342283 5.8784699 -0.57684708
1.440998 5.7527919 -0.5646193
1.4735429 5.733243 -0.56350768
1.5079325 5.7212076 -0.56320453
1.5419703 5.7080059 -0.56280029
1.5729818 5.6840553 -0.56128442
1.6010436 5.6503682 -0.55875802
1.6320788 5.6280169 -0.55744427
1.6629001 5.6054983 -0.55613059
1.6952406 5.5885253 -0.55542314
1.731563 5.5846696 -0.55613059
1.7645947 5.5701466 -0.55572635
1.7877067 5.5251403 -0.55208832
1.8122069 5.4857287 -0.54905665
1.8207065 5.4000349 -0.5410732
1.8505678 5.3793545 -0.54006261
1.893428 5.3960595 -0.54309428
1.9308615 5.3965163 -0.54440802
1.9649608 5.3873711 -0.54471117
1.9969397 5.3724155 -0.54440802
2.0316293 5.3647132 -0.54491329
2.0630753 5.3484335 -0.54450911
2.0918508 5.325489 -0.54339749
2.1148784 5.2885375 -0.54076999
2.1367812 5.2496624 -0.53794044
2.1598105 5.2143946 -0.53551507
2.1894457 5.1955438 -0.53490871
2.2208915 5.1810975 -0.53480768
2.2625842 5.1901708 -0.53733408
2.3004382 5.1898317 -0.53884995
2.3367372 5.1855955 -0.53996158
2.3676825 5.1693506 -0.53975946
2.4035566 5.1637444 -0.54076999
2.4385998 5.1560936 -0.54157847
2.4688978 5.1383433 -0.54127526
2.4995067 5.1213098 -0.5410732
2.5291152 5.1023116 -0.54066896
2.5666397 5.0991373 -0.54208374
2.6087494 5.1045518 -0.54450911
2.65148 5.1105237 -0.54703552
2.693918 5.1152825 -0.54946083
2.7275999 5.1030436 -0.54996616
2.7602837 5.0888343 -0.55026931
2.7775395 5.0465283 -0.54733866
2.8225238 5.0545783 -0.55026931
2.8495605 5.0302401 -0.54946083
2.8793802 5.0109358 -0.54925871
2.9095714 4.9923143 -0.54915768
2.9345787 4.9649477 -0.54804605
2.9644761 4.9459949 -0.54794502
2.9963188 4.9302621 -0.54824817
3.0312126 4.9194064 -0.54915768
3.0639768 4.904933 -0.54966295
3.1025341 4.8994875 -0.55127984
3.1336133 4.8820324 -0.55148196
3.1624246 4.8610454 -0.55127984
3.1965742 4.8481936 -0.55208832
3.211334 4.8061566 -0.5493598
3.2508068 4.8011885 -0.55117881
3.2982211 4.8073997 -0.5544126
3.3446972 4.8115754 -0.55744427
3.3942132 4.819427 -0.56098127
3.4352808 4.8147049 -0.56300241
3.4740858 4.8064351 -0.5646193
3.5017486 4.78262 -0.56431609
3.5268786 4.7554507 -0.56360871
3.5619681 4.7416739 -0.5646193
3.5855722 4.712604 -0.5637098
3.6229246 4.7015457 -0.56512457
3.6743572 4.7082424 -0.56886363
3.7000921 4.6817064 -0.56835836
3.7474031 4.6822133 -0.57139009
3.7998717 4.6884975 -0.57523018
3.8418255 4.6812415 -0.5773524
3.8692048 4.6560502 -0.57715029
3.9111552 4.6482053 -0.57927245
3.9576721 4.6453204 -0.58210206
4.0062499 4.6442986 -0.58523476
4.0516906 4.6391082 -0.58786225
4.0846939 4.6193767 -0.58856964
4.1282268 4.6112719 -0.59089392
4.1651306 4.5954361 -0.59220767
4.1966133 4.5734572 -0.59271294
4.2225647 4.545435 -0.59240979
4.2694635 4.5397291 -0.59523934
4.3164506 4.533618 -0.59806895
4.3600698 4.5235195 -0.60039324
4.3995576 4.5087843 -0.60211116
4.4488182 4.5036416 -0.60524392
4.5009952 4.5008764 -0.60878092
4.533483 4.4780674 -0.60948831
4.5601625 4.4494715 -0.60938722
4.6060057 4.4393544 -0.61201471
4.649734 4.426784 -0.61433899
4.7007294 4.4206576 -0.61767387
4.7430754 4.4059477 -0.61979604
4.7876167 4.3929014 -0.62222141
4.8469214 4.3928337 -0.62666786
4.8856463 4.3736258 -0.62828475
4.9392257 4.3672853 -0.63192278
4.99366 4.3611054 -0.63566184
5.0700536 4.3732615 -0.6423316
5.1278467 4.3685169 -0.6464749
5.1735892 4.3529806 -0.6490013
5.2101498 4.3294182 -0.65031505
5.2550769 4.3125114 -0.65274036
5.2938075 4.290206 -0.65435725
5.3511066 4.2825036 -0.65839952
5.3975801 4.265624 -0.66102701
5.4777775 4.2746477 -0.66799986
5.5259719 4.2579551 -0.67082947
5.5694156 4.2372179 -0.67305273
5.6016746 4.2077441 -0.67386115
5.6361785 4.179811 -0.67497277
5.6761703 4.155726 -0.67679179
5.7184973 4.1330547 -0.67891395
5.827178 4.1573901 -0.68932277
5.8899989 4.1479011 -0.69397134
5.9284115 4.1207657 -0.69558823
5.9781985 4.1011925 -0.69861996
6.0724592 4.1112747 -0.70710868
6.1248732 4.0921721 -0.71044356
6.1772799 4.0725803 -0.71377838
6.2104926 4.0400243 -0.71478897
6.2828941 4.032464 -0.72054917
6.3125625 3.9970295 -0.72115552
6.3209352 3.9482095 -0.71923542
6.3425007 3.9077854 -0.71893227
6.3850651 3.8801587 -0.72115552
6.4795885 3.8833458 -0.72954315
6.5598273 3.8769145 -0.73621291
6.6273341 3.8621316 -0.74136674
6.70612 3.8531067 -0.74783438
6.8170748 3.861397 -0.75804102
6.963129 3.8878641 -0.77228999
7.0600743 3.8853476 -0.78077871
7.1589975 3.8827348 -0.78946954
7.2169094 3.8570185 -0.79341078
7.2571664 3.8214688 -0.79533082
7.2990251 3.7864859 -0.79745299
7.3575602 3.7597318 -0.80149525
7.4018207 3.7252471 -0.80392063
7.4236474 3.6793187 -0.80381954
7.4398246 3.6306453 -0.80311215
7.4476128 3.5780358 -0.80149525
7.4442425 3.5203655 -0.7986657
7.4440536 3.4645503 -0.79624033
7.4470801 3.4105268 -0.7942192
7.4624238 3.3623168 -0.79361284
7.4783659 3.31445 -0.79310757
7.4940019 3.2665143 -0.7926023
7.5093312 3.2185113 -0.79209703
7.523437 3.1700573 -0.79149067
7.5298777 3.1185071 -0.7900759
7.5553212 3.0748703 -0.79078329
7.5851321 3.0328846 -0.79199594
7.6063771 2.9873767 -0.79229915
7.6143527 2.936712 -0.79118752
7.6219935 2.8860621 -0.7900759
7.6330304 2.8368149 -0.78936851
7.6530972 2.7909484 -0.78967166
7.6719518 2.7446072 -0.78987378
7.6942806 2.6994567 -0.79048014
7.713522 2.6531651 -0.79078329
7.7296562 2.6057858 -0.79078329
7.7454996 2.5583086 -0.79078329
7.7553716 2.5088983 -0.79017693
7.7677746 2.4603643 -0.78987378
7.7741718 2.4100058 -0.78896427
7.7831006 2.3605273 -0.78835791
7.7955303 2.312161 -0.78815579
7.8143487 2.2656696 -0.78866112
7.8261886 2.2171369 -0.788459
7.8319745 2.1669533 -0.78765053
7.8403206 2.1175601 -0.78714526
7.8531661 2.0694129 -0.78714526
7.868607 2.0219302 -0.78744841
7.8779697 1.9728867 -0.78714526
7.8879938 1.92404 -0.78694314
7.903523 1.8765227 -0.78734738
7.9177966 1.8286635 -0.78765053
7.9269261 1.7796108 -0.78744841
7.9376965 1.7309386 -0.78744841
7.951088 1.6828188 -0.78775162
7.9651623 1.6347997 -0.78815579
7.972116 1.5853139 -0.78785264
7.9719234 1.534489 -0.78684211
7.9802108 1.4853634 -0.78674102
7.9637151 1.4317962 -0.78411359
7.977252 1.3837543 -0.78461885
7.9777417 1.3334697 -0.78381038
7.9828267 1.2840205 -0.78350723
7.9817061 1.2336483 -0.78259772
7.9871573 1.1843587 -0.7823956
8.0041237 1.1367255 -0.7834062
8.0060186 1.0869232 -0.78290087
8.0085907 1.0372683 -0.78249669
8.018754 0.98859531 -0.78290087
8.0345507 0.94052982 -0.78391147
8.0441256 0.89165092 -0.78431571
8.0534039 0.84268987 -0.78471988
8.0544624 0.79286993 -0.78431571
8.0532312 0.7428863 -0.78370935
8.0506992 0.69286251 -0.78300196
8.04389 0.6425814 -0.78189033
8.0456972 0.59306693 -0.78168821
8.0323095 0.54255092 -0.77997029
8.0285368 0.49282971 -0.77926284
8.028429 0.44339412 -0.77895969
8.0250368 0.3938325 -0.77835333
8.0243206 0.34445682 -0.77805018
8.0322475 0.2954326 -0.77865654
8.0279427 0.24596015 -0.77805018
8.0312901 0.19674543 -0.7782523
8.0333405 0.14748077 -0.77835333
8.0311098 0.098150298 -0.77805018
8.0275822 0.048846852 -0.77764595
8.0376787 -0.00041233806 -0.77865654
8.0514536 -0.049818799 -0.78007132
8.0529861 -0.099245459 -0.78027344
8.0512304 -0.14863728 -0.78017235
8.0501671 -0.1980359 -0.78017235
8.0488005 -0.24742706 -0.78017235
8.0530958 -0.29702979 -0.78077871
8.0660305 -0.34708077 -0.78229457
8.0339394 -0.39509612 -0.77926284
8.0432844 -0.44504532 -0.78047556
8.0433807 -0.49457321 -0.78077871
8.0372171 -0.5437153 -0.78047556
8.0208311 -0.59206647 -0.77916181
8.0120888 -0.6408729 -0.77865654
8.0010672 -0.6894232 -0.77794915
7.983808 -0.73731261 -0.77663541
7.9751735 -0.78589565 -0.77623117
7.9830642 -0.83616477 -0.77754492
7.998548 -0.88743907 -0.77966708
8.0008574 -0.93742788 -0.78047556
7.9880428 -0.98564875 -0.77976817
7.9778981 -1.0341318 -0.77936393
7.9723883 -1.0831978 -0.77946496
7.9655919 -1.1320951 -0.77946496
7.9457026 -1.1790495 -0.77815127
7.941268 -1.2282379 -0.77845442
7.9355464 -1.2772579 -0.77865654
7.9363909 -1.3274038 -0.77956605
7.9486809 -1.3796514 -0.78168821
7.9341912 -1.4273399 -0.78108186
7.8930087 -1.4699806 -0.77774704
7.8662562 -1.5149943 -0.77592802
7.8597398 -1.563815 -0.77623117
7.8470726 -1.6114112 -0.77592802
7.8555298 -1.6634482 -0.77784806
7.8500347 -1.7126787 -0.77835333
7.8529677 -1.7638676 -0.77976817
7.8468432 -1.81314 -0.78027344
7.8491216 -1.8644741 -0.78168821
7.8385 -1.9128363 -0.7817893
7.80442 -1.9553322 -0.77946496
7.804801 -2.0064044 -0.78077871
7.7981148 -2.0557783 -0.78138506
7.7930374 -2.1056652 -0.78219348
7.7847643 -2.1547704 -0.78269881
7.7618251 -2.1997821 -0.78168821
7.7414932 -2.2454255 -0.78098083
7.7256622 -2.2923179 -0.78077871
7.7019315 -2.3367884 -0.77976817
7.6921992 -2.3854768 -0.78027344
7.673624 -2.4314277 -0.7798692
7.6528816 -2.4766278 -0.77926284
7.6073136 -2.513546 -0.77602905
7.6049452 -2.5646288 -0.77744383
7.5975323 -2.6141582 -0.77835333
7.5832262 -2.6613858 -0.77855545
7.5676904 -2.7082007 -0.77865654
7.5556035 -2.7562897 -0.77916181
7.5376163 -2.8022513 -0.77906078
7.5165591 -2.8470385 -0.77865654
7.4980202 -2.8927474 -0.77855545
7.4755001 -2.9368804 -0.77805018
7.4545679 -2.981585 -0.77774704
7.4315257 -3.025393 -0.77724177
7.4063888 -3.0682685 -0.77653432
7.3846726 -3.1124959 -0.77623117
7.374579 -3.1616704 -0.77724177
7.3723669 -3.2144179 -0.77916181
7.3561425 -3.2612066 -0.77956605
7.3486915 -3.3120067 -0.78098083
7.3399882 -3.3624232 -0.78229457
7.3300414 -3.4124374 -0.78350723
7.3179579 -3.4616048 -0.78451777
7.2947865 -3.5055797 -0.78431571
7.2695637 -3.5485275 -0.78391147
7.2841964 -3.6111889 -0.78805476
7.2405758 -3.6450763 -0.78562939
7.2109876 -3.6858115 -0.78482097
7.1891189 -3.7304463 -0.784922
7.1194448 -3.7499082 -0.77956605
7.1506953 -3.8226094 -0.78583151
7.1428452 -3.8749549 -0.78765053
7.1503081 -3.9359856 -0.79128855
7.1225486 -3.977844 -0.79088432
7.0945444 -4.0195103 -0.79048014
7.0671601 -4.0614781 -0.79017693
7.0481229 -4.108273 -0.79088432
7.0330586 -4.1575189 -0.79209703
7.0159483 -4.2057109 -0.79310757
6.9908605 -4.2491975 -0.79320866
6.9680438 -4.2941012 -0.79361284
6.9474702 -4.340466 -0.79432023
6.9291115 -4.3883376 -0.79533082
6.9070773 -4.4339967 -0.79593718
6.8830762 -4.4784651 -0.79634136
6.8546367 -4.5200667 -0.79624033
6.8242917 -4.5603819 -0.79593718
6.8118315 -4.6127706 -0.79785722
6.7957039 -4.6629252 -0.79937309
6.7555299 -4.6965828 -0.79795825
6.7143855 -4.7293501 -0.79644245
6.6722841 -4.7612119 -0.79482555
6.6502004 -4.8073092 -0.79573506
6.6261959 -4.852139 -0.79644245
6.6162739 -4.9075251 -0.79896885
6.605125 -4.9623742 -0.80139422
6.5935516 -5.0172706 -0.80381954
6.5823402 -5.0728188 -0.80634594
6.5644212 -5.1235199 -0.80806392
6.5718813 -5.1945539 -0.81311673
6.5492039 -5.2422419 -0.81432939
6.5385528 -5.2998724 -0.817159
6.5166755 -5.3487306 -0.81857377
6.4806733 -5.3860717 -0.81816953
6.4490256 -5.4270163 -0.81837165
6.4103041 -5.461967 -0.81766427
6.3729033 -5.4979472 -0.817159
6.3345537 -5.5330195 -0.81655264
6.3027201 -5.573761 -0.81685579
6.2698836 -5.6136565 -0.81705791
6.242691 -5.6587048 -0.8180685
6.2093182 -5.6982479 -0.81827062
6.1749663 -5.7369175 -0.81837165
6.148344 -5.7828794 -0.81958431
6.1271534 -5.834219 -0.82160544
6.0969696 -5.8772292 -0.82241392
6.055809 -5.9096642 -0.82170653
6.0031581 -5.9306269 -0.81938219
5.9631386 -5.9638319 -0.81887692
5.9285302 -6.0024323 -0.81918013
5.8901992 -6.037272 -0.81897801
5.8461413 -6.0661354 -0.81796741
5.8053808 -6.098289 -0.81746215
5.7651272 -6.1308956 -0.81705791
5.7321391 -6.171258 -0.8177653
5.6840777 -6.1953158 -0.81624949
5.6359372 -6.2190166 -0.81473362
5.5936913 -6.2490325 -0.81412727
5.5572195 -6.2854738 -0.81443048
5.5205107 -6.321702 -0.81473362
5.4816179 -6.3554564 -0.81473362
5.4425182 -6.3889713 -0.81473362
2.9537368 -3.5099828 -0.4281933
2.9226089 -3.5165613 -0.42667744
2.8839397 -3.51366 -0.42394891
2.8472958 -3.5127366 -0.42152357
2.7877765 -3.4827526 -0.41535914
2.7534029 -3.4833984 -0.41323695
2.7142315 -3.477479 -0.41030633
2.6800938 -3.4775162 -0.40818414
2.6382289 -3.4669714 -0.40474823
2.5995822 -3.4600229 -0.40181759
2.5658605 -3.459125 -0.39969543
2.5340111 -3.4603527 -0.39787641
2.5051568 -3.4653525 -0.39656267
2.4734483 -3.466079 -0.39474365
2.4389622 -3.4624796 -0.39241937
2.4131293 -3.4708436 -0.39161092
2.3282049 -3.3928709 -0.38019153
2.2889411 -3.3799033 -0.37685668
2.2665017 -3.3914025 -0.37655354
2.2440073 -3.4027536 -0.37625036
2.2290521 -3.425633 -0.37736198
2.2187357 -3.4559927 -0.37938309
2.1974883 -3.4695415 -0.37938309
2.1624582 -3.4610188 -0.37675563
2.135442 -3.4649041 -0.37564403
2.1022613 -3.4583852 -0.37331972
2.0774224 -3.4652452 -0.37261233
2.0490363 -3.465935 -0.37119755
2.0142097 -3.4552319 -0.36846903
1.9845471 -3.4528599 -0.36675107
1.9540095 -3.448523 -0.364831
1.9313585 -3.4578414 -0.36452782
1.9086665 -3.4670119 -0.36422464
1.8797704 -3.4646642 -0.36260775
1.8500377 -3.4603381 -0.36078873
1.8241364 -3.462821 -0.35977817
1.7959845 -3.4607008 -0.35826233
1.7720007 -3.4663398 -0.357656
1.7484627 -3.4727035 -0.3571507
1.7222632 -3.4735603 -0.35603911
1.6996088 -3.4813802 -0.35573593
1.6743392 -3.4836719 -0.35482642
1.6495308 -3.4866843 -0.35401797
1.6276861 -3.4958379 -0.35391691
1.6045489 -3.502141 -0.35351267
1.5805787 -3.5064778 -0.35290635
1.5574216 -3.5124714 -0.35250214
1.5394168 -3.5301702 -0.35341164
1.523604 -3.5532668 -0.35492748
1.5025452 -3.5643821 -0.3551296
1.4821684 -3.5772114 -0.35553381
0 -0 -0
0 -0 -0
1.4302515 -3.6400042 -0.35947502
1.4114685 -3.6579943 -0.36048558
1.3967446 -3.6870563 -0.36270881
1.3837956 -3.7216702 -0.36553839
0 -0 -0
1.3571148 -3.7917683 -0.37129858
0 -0 -0
0 -0 -0
1.3105992 -3.8858728 -0.37877676
1.2945285 -3.9174597 -0.38130316
1.283935 -3.9669805 -0.38574964
1.2763852 -4.0278988 -0.3914088
1.3019971 -4.1981578 -0.40868944
1.2828512 -4.2279658 -0.41101372
1.276961 -4.3034811 -0.41818872
1.277945 -4.4058366 -0.4281933
1.2630839 -4.4566712 -0.43274084
1.2301462 -4.444201 -0.43061864
1.2689679 -4.6965938 -0.456388
1.2469673 -4.7302675 -0.45911652
1.2478626 -4.8544269 -0.47134432
1.2511449 -4.9942126 -0.48518905
1.2397983 -5.0810547 -0.49347565
1.251779 -5.2705512 -0.51247424
1.2429087 -5.3799191 -0.52308518
1.2418897 -5.5301447 -0.53794044
1.2299643 -5.6387558 -0.54845029
1.2288975 -5.8048525 -0.56492245
1.6561873 -8.0694437 -0.79896885
1.6299109 -8.1965504 -0.8110956
1.3129443 -6.8200712 -0.66769671
1.2710725 -6.8279991 -0.66769671
1.2333745 -6.8591704 -0.67012209
1.193133 -6.8773923 -0.67123371
1.15845 -6.9297228 -0.67588228
1.1234851 -6.98385 -0.68073297
1.2793467 -8.2776575 -0.8130157
1.2275114 -8.2784634 -0.81230825
1.1776708 -8.2927341 -0.8130157
1.1256958 -8.2919168 -0.81220722
1.0726264 -8.2818947 -0.81048924
1.0217894 -8.2883205 -0.81048924
0.97137612 -8.2983866 -0.81089348
0.92120612 -8.3111124 -0.81160086
0.87008935 -8.3156195 -0.81149983
0.81807607 -8.3109007 -0.81048924
0.76660973 -8.3108101 -0.80998397
0.71500498 -8.3084192 -0.80927658
0.66369569 -8.3086824 -0.80887234
0.61248308 -8.3096218 -0.80856919
0.56108326 -8.3072681 -0.80796283
0.51034355 -8.3145266 -0.80836707
0.45849618 -8.3026009 -0.80685121
0.40827307 -8.3201628 -0.80836707
0.35602316 -8.2946806 -0.80553752
0.2009134 -5.4522634 -0.51641542
0.14780617 -4.80901 -0.45093095
0.117763 -4.7879457 -0.44870773
0.087784633 -4.7557526 -0.44537285
0.058277871 -4.729342 -0.44264433
0.029080803 -4.6997647 -0.43961266
0.00024636317 -4.6829414 -0.4378947
-0.028361633 -4.6629577 -0.43587357
-0.056848429 -4.6527476 -0.434863
-0.08545161 -4.6552954 -0.43516618
-0.11386669 -4.648716 -0.43455985
-0.14220425 -4.6419635 -0.43395349
-0.1706105 -4.6390152 -0.43375137
-0.19915758 -4.6398687 -0.43395349
-0.22845672 -4.6554518 -0.43567145
-0.25922206 -4.6936965 -0.43971372
-0.28599748 -4.6592488 -0.43637884
-0.31384051 -4.6464877 -0.43526724
-0.34285858 -4.6514196 -0.43597463
-0.37115428 -4.6462531 -0.43567145
-0.39880064 -4.6339765 -0.43466088
-0 -0 -0
-0.45778626 -4.6505151 -0.43688414
-0.48579374 -4.6426716 -0.43637884
-0.51602912 -4.6554241 -0.43799576
-0.54296172 -4.6383367 -0.43658096
-0.57067996 -4.6289935 -0.43597463
-0.60060859 -4.6372442 -0.43718731
-0.62958723 -4.6374149 -0.43759152
-0.66097277 -4.6541486 -0.43971372
-0.69083321 -4.6588621 -0.44062322
-0.72199398 -4.6712494 -0.44234118
-0.75269973 -4.6795001 -0.44365489
-0.78550494 -4.6993241 -0.4461813
-0.81653833 -4.7071586 -0.44749504
-0.85087049 -4.7324133 -0.45062777
-0.88773072 -4.7691588 -0.45497322
-0.92620337 -4.8114901 -0.45992497
-0.96289712 -4.8418183 -0.46366405
-1.6458571 -8.0146894 -0.79330969
-1.7003657 -8.0297451 -0.79593718
-1.7517253 -8.0288801 -0.79694772
-1.798775 -8.0082741 -0.79593718
-1.8447412 -7.9835157 -0.79452235
-1.8870205 -7.9439769 -0.79159176
-1.9338403 -7.9245172 -0.79078329
-1.9862986 -7.9279423 -0.79240018
-2.0363932 -7.9213862 -0.79300654
-2.0816607 -7.8962364 -0.79169279
-2.1111178 -7.8132057 -0.78431571
-1.7591223 -6.3561673 -0.6321249
-1.7334934 -6.1174536 -0.60807347
-1.7743242 -6.1181679 -0.60928619
-1.8155119 -6.1195641 -0.61059994
-1.8547606 -6.1140208 -0.61120623
-2.3651342 -7.626636 -0.77330053
-2.388736 -7.5389557 -0.7655192
-2.4162552 -7.4664202 -0.75935477
-2.4426625 -7.3928881 -0.75308931
-2.4806633 -7.3560796 -0.75076497
-2.5076182 -7.2880406 -0.74510586
-2.5361395 -7.226521 -0.74015409
-2.569031 -7.178977 -0.73671818
-2.5894966 -7.0985923 -0.72974527
-2.6208656 -7.0499334 -0.72620833
-2.6542027 -7.0076704 -0.72337872
-2.6760151 -6.936492 -0.71741641
-2.6854093 -6.8356819 -0.7082203
-2.7221274 -6.8061442 -0.70680553
-2.7477016 -6.7496934 -0.70246011
-2.7768764 -6.7032962 -0.69922626
-2.8028798 -6.6503797 -0.69528508
-2.8452017 -6.6367135 -0.69568932
-2.8663802 -6.5744472 -0.69073755
-2.8663316 -6.4657907 -0.68063194
-2.900635 -6.4362912 -0.67931819
-2.9313688 -6.3993788 -0.67719603
-2.9550388 -6.3479023 -0.67345691
-2.976486 -6.2927809 -0.66931361
-3.0059896 -6.2555695 -0.66719145
-3.0137582 -6.174428 -0.66011751
-3.0343482 -6.1210594 -0.65617627
-3.0467901 -6.0525661 -0.65051717
-3.0671122 -6.0009828 -0.64677805
-3.086 -5.9476132 -0.64283687
-3.1099141 -5.9048009 -0.64010835
-3.1263824 -5.8487606 -0.63586396
-3.1508219 -5.8084812 -0.63343865
-3.1710465 -5.7611513 -0.63020486
-3.2102184 -5.7485337 -0.63101327
-3.2233558 -5.6897788 -0.62646574
-3.2339103 -5.6276307 -0.62151396
-3.2543485 -5.5836172 -0.61868441
-3.2713301 -5.5344276 -0.6152485
-3.274529 -5.4630566 -0.6091851
-3.303853 -5.4360609 -0.60837668
-3.3256605 -5.3970551 -0.60615343
-3.3450048 -5.3546119 -0.60352594
-3.3644865 -5.3129759 -0.60099953
-3.3959479 -5.2905574 -0.60079747
-3.4207485 -5.2579474 -0.59938264
-3.4343209 -5.2086225 -0.59594673
-3.4579225 -5.1750455 -0.59443092
-3.4778938 -5.1364326 -0.5923087
-3.5008998 -5.1026926 -0.59079289
-3.5196471 -5.0631461 -0.58856964
-3.5340302 -5.017869 -0.585639
-3.5479906 -4.9726071 -0.58270836
-3.5615294 -4.9273639 -0.57977772
-3.5717077 -4.8781295 -0.57634181
-3.6039433 -4.8593183 -0.57674605
-3.6199448 -4.818821 -0.57442176
-3.645829 -4.7917686 -0.57381541
-3.6636212 -4.7543373 -0.57189536
-3.6872141 -4.7247105 -0.57098585
-3.715518 -4.7012167 -0.57088476
-3.7038763 -4.6278501 -0.56431609
-3.7228041 -4.5934448 -0.56280029
-3.7300861 -4.5451407 -0.55946541
-3.7420042 -4.5030417 -0.55693901
-3.7541876 -4.4617295 -0.55451363
-3.773104 -4.4287672 -0.55319995
-3.7898078 -4.3934813 -0.55158305
-3.8036025 -4.3551607 -0.54956192
-3.8170702 -4.3168368 -0.54754078
-3.8275566 -4.2755475 -0.54511541
-3.8423581 -4.2394524 -0.54339749
-3.858207 -4.2048025 -0.54188162
-3.877162 -4.1737618 -0.54087108
-3.8836107 -4.1296048 -0.53804147
-3.8903501 -4.086247 -0.53531295
-3.8918707 -4.0379491 -0.53187704
-3.9005902 -3.9976184 -0.52955276
-3.8893816 -3.9375193 -0.52439886
-3.9106541 -3.9107671 -0.52399468
-3.9190021 -3.8713198 -0.52177143
-3.927726 -3.8326123 -0.51964927
-3.9368393 -3.7946346 -0.51762813
-3.955004 -3.7656062 -0.51692075
-3.9620879 -3.7262762 -0.51469749
-3.9673803 -3.6856477 -0.51227212
-3.9723241 -3.6450953 -0.50984681
-3.9665983 -3.5952699 -0.50600666
-3.9789457 -3.5622389 -0.50469291
-3.9768746 -3.5166733 -0.50145912
-3.9893842 -3.484354 -0.50024641
-4.0295253 -3.476052 -0.50277281
-4.0447187 -3.4461014 -0.50196439
-4.0406618 -3.4000859 -0.49862954
-4.0522647 -3.3676004 -0.49741685
-4.0728517 -3.3426728 -0.49741685
-4.0693212 -3.2982054 -0.49428412
-4.0685067 -3.2563937 -0.4915556
-4.0673332 -3.2147167 -0.48882708
-4.0744309 -3.1799088 -0.48721015
-4.0993829 -3.1590981 -0.48791757
-4.1036439 -3.1224425 -0.4859975
-4.1044278 -3.0834644 -0.48367319
-4.1064868 -3.0457797 -0.48155102
-4.1082387 -3.0081863 -0.47942883
-4.1185546 -2.9770956 -0.47841826
-4.1205449 -2.9402151 -0.47639716
-4.0986457 -2.8868141 -0.47144538
-4.1236348 -2.8667202 -0.47235489
-4.1419678 -2.8419268 -0.47245595
-4.1486168 -2.8092096 -0.4711422
-4.1591568 -2.7792807 -0.47033376
-4.1512113 -2.7372839 -0.46730208
-4.1479115 -2.6987443 -0.46487674
-4.1610432 -2.6710932 -0.4644725
-4.1571794 -2.6327412 -0.46204716
-4.1555338 -2.5961182 -0.45992497
-4.1722322 -2.5710931 -0.46002603
-4.1794267 -2.5402792 -0.45901546
-4.177866 -2.5043607 -0.45699432
-4.1768794 -2.4690635 -0.45507425
-4.1859331 -2.4398828 -0.45436686
-4.2051387 -2.41663 -0.45487216
-4.2034388 -2.3814683 -0.45295209
-4.1971226 -2.3439944 -0.45052674
-4.1887627 -2.3057292 -0.44789928
-4.1940851 -2.2752421 -0.44688872
-4.2114768 -2.2513402 -0.44729292
-4.2155275 -2.2203588 -0.4461813
-4.223773 -2.1917031 -0.44557497
-4.22651 -2.1603143 -0.44436231
-4.2441292 -2.1365759 -0.44486758
-4.2678571 -2.1157944 -0.44608027
-4.2512517 -2.0751729 -0.44274539
-4.2603173 -2.0473258 -0.44234118
-4.2656035 -2.017745 -0.44153273
-4.2679815 -1.9869175 -0.4404211
-4.2981849 -1.9689747 -0.44244224
-4.3183494 -1.9462415 -0.44335175
-4.309289 -1.9104393 -0.44102743
-4.3072491 -1.878001 -0.4395116
-4.3205199 -1.8523204 -0.43971372
-4.3327212 -1.8261615 -0.43981478
-4.3475218 -1.8010643 -0.44021899
-4.3575692 -1.7739795 -0.44011793
-0.25457826 -0.10300548 0.0098857582
-0.25520548 -0.10144148 0.0098857582
-0.25582311 -0.099873655 0.0098857582
-0.26480529 -0.10147159 0.0089762509
-0 -0 -0
-0 -0 -0
-0.26381782 -0.095575251 0.0092794197
-0 -0 -0
-0.26402998 -0.092007145 0.0093804765
-0.26081836 -0.089114629 0.0097847013
-0 -0 -0
-0.25621256 -0.08407075 0.010391039
-0.25767207 -0.082797348 0.010289983
-0 -0 -0
-0.25866872 -0.079629086 0.010289983
-0.262014 -0.078888714 0.0099868141
-0 -0 -0
-0.2696631 -0.077564724 0.0092794197
-0.27396953 -0.076969281 0.0088751949
-0.27443665 -0.075286783 0.0088751949
-0.27489343 -0.073601454 0.0088751949
-0.27244902 -0.071170963 0.0091783637
-0.2719155 -0.069256365 0.0092794197
-0.27136874 -0.067350999 0.0093804765
-0.26984087 -0.065225273 0.0095825894
-0 -0 -0
-0.27256247 -0.062344573 0.0093804765
-0 -0 -0
-0.27428037 -0.05920098 0.0092794197
-0.27756223 -0.058116563 0.0089762509
-0.28084102 -0.056994081 0.0086730821
-0.28411636 -0.055833526 0.0083699133
-0.2844536 -0.05408917 0.0083699133
-0.28771776 -0.052870493 0.0080667445
-0.28803673 -0.051104095 0.0080667445
-0.28343844 -0.048516393 0.0085720262
-0 -0 -0
-0.27712986 -0.043971758 0.0092794197
-0.27444202 -0.041833136 0.0095825894
-0 -0 -0
-0.27789229 -0.038863257 0.0092794197
-0.27812552 -0.037157409 0.0092794197
-0 -0 -0
-0 -0 -0
-0 -0 -0
-0 -0 -0
-0.27319378 -0.028024552 0.0098857582
-0.27336058 -0.02634774 0.0098857582
-0 -0 -0
-0 -0 -0
-0 -0 -0
-0.27392486 -0.0196312 0.0098857582
-0 -0 -0
-0 -0 -0
-0.27423981 -0.014585813 0.0098857582
-0 -0 -0
-0 -0 -0
-0 -0 -0
-0 -0 -0
-0 -0 -0
-0.28652853 -0.0046260841 0.0086730821
-0 -0 -0
-0.28059444 -0.001110762 0.0092794197
-0 0 -0
-0 0 -0
-0.27161497 0.003887682 0.010188927
-0.27258059 0.0055788178 0.01008787
-0 0 -0
-0 0 -0
-0.28038335 0.010938499 0.0092794197
-0.28428563 0.012854739 0.0088751949
-0.28519478 0.014653949 0.008774139
-0 0 -0
-0.28697869 0.018287212 0.0085720262
-0 -0 -0
-0 -0 -0
-0 -0 -0
-0 -0 -0
-0 -0 -0
-0 0 -0
-0 0 -0
-0 0 -0
-0 0 -0
-0 0 -0
-0 0 -0
-0 0 -0
-0 0 -0
-0 0 -0
-0 0 -0
-0 0 -0
-0 0 -0
-0 0 -0
-0 0 -0
-0 0 -0
-0 0 -0
-0 0 -0
-0 0 -0
-0 0 -0
-0 0 -0
-0 0 -0
-0 0 -0
-0 0 -0
-0 0 -0
-0 0 -0
-0 0 -0
-0 0 -0
-0 0 -0
-0 0 -0
-0 0 -0
-0 0 -0
-0 0 -0
-0 0 -0
-0 0 -0
-0 0 -0
-0 0 -0
-0 0 -0
-0 0 -0
-0 0 -0
-0 0 -0
-0 0 -0
-0 0 -0
-0 0 -0
-0 0 -0
-0 0 -0
-0 0 -0
-0 0 -0
-0 0 -0
-0 0 -0
-0 0 -0
-0 0 -0
-0 0 -0
-0 0 -0
-0 0 -0
-0 0 -0
-0 0 -0
-0 0 -0
-0 0 -0
-0 0 -0
-0 0 -0
-0 0 -0
-0 0 -0
-0 0 -0
-0 0 -0
-0 0 -0
-0 0 -0
-0 0 -0
-0 0 -0
-0 0 -0
-0 0 -0
-0 0 -0
-0 0 -0
-0 0 -0
-0 0 -0
-0 0 -0
-0 0 -0
-0 0 -0
-0 0 -0
-0 0 -0
-0 0 -0
-0 0 -0
-0 0 -0
-0 0 -0
-0 0 -0
-0 0 -0
-0 0 -0
-0 0 -0
-0 0 -0
-0 0 -0
-0 0 -0
-0 0 -0
-0 0 -0
-0 0 -0
-0 0 -0
-0 0 -0
-0 0 -0
-0 0 -0
-0 0 -0
-0 0 -0
-0 0 -0
-0 0 -0
-0 0 -0
-0 0 -0
-0 0 -0
-0 0 -0
-0 0 -0
-0 0 -0
-0 0 -0
-0 0 -0
-0 0 -0
-0 0 -0
-0 0 -0
-0 0 -0
-0 0 -0
-0 0 -0
-0 0 -0
-0 0 -0
-0 0 -0
-0 0 -0
-0.27374589 0.24851771 -0.0039569959
-0 0 -0
-0.23572439 0.21940589 0.0014517863
-0.27346906 0.25759766 -0.0046330937
-0.27548233 0.26269567 -0.005196509
-0.27458084 0.26507041 -0.0053091915
-0.24734104 0.24177495 -0.001252605
-0.27554974 0.27260864 -0.0059852893
-0.27808851 0.27850887 -0.0066613872
-0 0 -0
-0.25382686 0.26057029 -0.0032808983
-0.27912247 0.29001763 -0.0076755341
-0.25129548 0.26438498 -0.0033935814
-0.272138 0.28980276 -0.0071121193
-0.24329706 0.26235408 -0.0026048005
-0.24974625 0.27262554 -0.0039569959
-0.27676946 0.30580389 -0.0088023636
-0.24903363 0.27863041 -0.0044077281
-0.24468578 0.27717635 -0.0039569959
-0.26259437 0.30111951 -0.007337485
-0.23087889 0.26812246 -0.0021540688
-0.25501201 0.29978207 -0.0066613872
-0.24164933 0.2876586 -0.0046330937
-0 0 -0
-0 0 -0
-0 0 -0
-0 0 -0
-0 0 -0
-0 0 -0
-0 0 -0
-4.0236773 5.2864242 -0.71543723
-4.0257897 5.3570828 -0.72197282
-4.0550137 5.4654689 -0.73380458
-4.0337329 5.5070801 -0.73617089
