# .PCD v0.7 - Point Cloud Data file format
VERSION 0.7
FIELDS x y z
SIZE 4 4 4
TYPE F F F
COUNT 1 1 1
WIDTH 1617
HEIGHT 1
VIEWPOINT 0 0 0 1 0 0 0
POINTS 1617
DATA ascii
1.8174642 -3.3010514 -0.76075464
1.8041742 -3.325037 -0.76387078
1.7860448 -3.3403573 -0.76490951
0 -0 -0
0 -0 -0
1.7287108 -3.3813758 -0.76698691
1.7079306 -3.3919194 -0.76698691
1.6909977 -3.4102221 -0.76885659
1.6631731 -3.4064701 -0.76553267
0 -0 -0
0 -0 -0
0 -0 -0
0 -0 -0
0 -0 -0
1.5279379 -3.4457068 -0.76096243
1.5055933 -3.4523275 -0.7603392
1.4816825 -3.4552078 -0.75888497
1.4623543 -3.4687409 -0.7599237
1.437672 -3.4695158 -0.75805402
0 -0 -0
0 -0 -0
0 -0 -0
1.3503315 -3.4991903 -0.75701535
1.3246757 -3.4964335 -0.75452244
1.3052433 -3.5099967 -0.7557689
1.2833463 -3.5170205 -0.75556111
1.2610825 -3.5229869 -0.75514567
0 -0 -0
1.2091573 -3.5132246 -0.74953663
1.1913309 -3.5316999 -0.75202954
1.1650325 -3.525012 -0.74891341
1.142176 -3.5283718 -0.74808246
1.1208005 -3.5362461 -0.74829018
1.0987915 -3.5421224 -0.74808246
1.07249 -3.5338218 -0.74475861
1.0566336 -3.5600281 -0.74912119
1.0418593 -3.5908692 -0.75452244
1.0171374 -3.5877838 -0.75244504
1.0000653 -3.6118684 -0.75639212
0.97967184 -3.6245465 -0.7578463
0.95516783 -3.6219771 -0.75597662
0.93609422 -3.640085 -0.75867724
0.90779376 -3.6220398 -0.75348371
0.88323146 -3.6180394 -0.75140631
0.86237246 -3.6291006 -0.75265276
0.83347636 -3.6057327 -0.7464205
0.81584191 -3.6308208 -0.75078309
0.79772204 -3.6548715 -0.75493789
0.77284729 -3.6482143 -0.75244504
0.75596225 -3.6797159 -0.75826174
0.73107696 -3.6727731 -0.7557689
0.70778674 -3.6733477 -0.75493789
0.68720627 -3.6881993 -0.75722307
0.66178894 -3.6769433 -0.75389922
0.63988507 -3.6847897 -0.75473017
0.6177482 -3.691541 -0.75535339
0.59586382 -3.7000904 -0.75639212
0.57584381 -3.721077 -0.76013142
0.55012566 -3.705189 -0.75597662
0.53137749 -3.7365789 -0.7620011
0.50580275 -3.7203841 -0.7578463
0.48321724 -3.7253578 -0.75826174
0.45962992 -3.7224276 -0.75701535
0.43621081 -3.7203202 -0.75597662
0.41359127 -3.7248712 -0.75639212
0.39052391 -3.7253931 -0.75597662
0.36736965 -3.7247989 -0.75535339
0.34459794 -3.727957 -0.75556111
0.32205376 -3.7338994 -0.75639212
0.29913694 -3.7358053 -0.75639212
0.27642542 -3.7404969 -0.75701535
0.25340274 -3.7411466 -0.75680757
0.23050295 -3.7436073 -0.75701535
0.20731136 -3.7410445 -0.75618434
0.18387052 -3.7324762 -0.75410694
0.16096503 -3.7335341 -0.75410694
0.13805346 -3.7344515 -0.75410694
0.11492502 -3.7283843 -0.75265276
0.092264086 -3.7378201 -0.75452244
0.069546394 -3.7500522 -0.75701535
0.046535194 -3.7504082 -0.75701535
0.023547193 -3.7545359 -0.7578463
0.00050700351 -3.7448277 -0.7557689
-0.022453535 -3.7418261 -0.75514567
-0.045447834 -3.7445521 -0.7557689
-0.068387575 -3.7422466 -0.75535339
-0.091443367 -3.7456682 -0.75618434
-0.11439487 -3.7440588 -0.75597662
-0.13765198 -3.7511067 -0.75763851
-0.16058221 -3.7482369 -0.75722307
-0.18338689 -3.743273 -0.75639212
-0.20619045 -3.7391472 -0.7557689
-0.22954778 -3.7446461 -0.75722307
-0.25245446 -3.7421911 -0.75701535
-0.27519616 -3.7376449 -0.75639212
-0.29750308 -3.7280853 -0.75473017
-0.32045627 -3.7271643 -0.75493789
-0.34242299 -3.7153871 -0.75286049
-0.36607453 -3.7219777 -0.75473017
-0.38819394 -3.7128513 -0.75327599
-0 -0 -0
-0.4344084 -3.7136374 -0.75452244
-0.45646963 -3.7050767 -0.75327599
-0.47630933 -3.6798937 -0.74849796
-0.50032532 -3.6875644 -0.75078309
-0.52170616 -3.6757085 -0.74891341
-0.54195726 -3.6569562 -0.74558955
-0.56677347 -3.6690297 -0.74891341
-0.58927554 -3.665483 -0.74891341
-0.61127216 -3.6589038 -0.74829018
-0.63588226 -3.667614 -0.75099081
-0.66044933 -3.6751964 -0.75348371
-0.68280864 -3.6701131 -0.75327599
-0.70586932 -3.6687362 -0.75389922
-0.72493607 -3.6470661 -0.75015986
-0.74946177 -3.6530902 -0.75244504
-0.77044606 -3.6417236 -0.75099081
-0.79277676 -3.6369276 -0.75099081
-0.81422126 -3.6281769 -0.75015986
-0.8360281 -3.6212065 -0.74974442
-0.85868323 -3.6179121 -0.75015986
-0.88225591 -3.6182773 -0.75140631
-0.90539044 -3.6165915 -0.75223726
-0.92999709 -3.6204426 -0.75431466
-0.94646537 -3.5929115 -0.74953663
-0.97129691 -3.5974247 -0.75182182
-0.99361271 -3.59234 -0.75202954
-1.0188335 -3.59747 -0.75452244
-1.0408881 -3.591151 -0.75452244
-1.0578997 -3.5678151 -0.75078309
-1.0845948 -3.5771711 -0.75431466
-1.102471 -3.5573676 -0.75140631
-1.1177837 -3.5300193 -0.74683601
-1.137316 -3.5165789 -0.74538183
-1.1545793 -3.4965298 -0.74247342
-1.1738257 -3.4828908 -0.74101925
-1.1939023 -3.4719224 -0.7401883
-1.2158304 -3.4663777 -0.7406038
-1.2360889 -3.456089 -0.73998058
-1.2656459 -3.4714155 -0.74517411
-1.2872629 -3.4645014 -0.74538183
-1.3133434 -3.4693456 -0.74829018
-1.3339026 -3.4593964 -0.74787474
-1.3547465 -3.4502361 -0.74766695
-1.3599193 -3.4018917 -0.73852634
-1.3999327 -3.4406002 -0.74932891
-1.4202693 -3.4301379 -0.74891341
-1.4492623 -3.4402902 -0.75327599
-1.4714997 -3.4340305 -0.75389922
-1.4972311 -3.4356983 -0.75639212
-1.5194726 -3.4291298 -0.75701535
-1.5396813 -3.417958 -0.75659984
-1.5516677 -3.3888788 -0.75202954
-1.5753204 -3.3855026 -0.75348371
-1.5998259 -3.3837323 -0.75535339
-1.6239454 -3.3809066 -0.75701535
-1.6450886 -3.3717577 -0.75722307
-1.670957 -3.3721185 -0.75971597
-1.6929352 -3.3644238 -0.7603392
-1.7162167 -3.3591995 -0.76158559
-1.7426498 -3.3598948 -0.76428628
-1.7645997 -3.3517356 -0.76490951
-1.7874368 -3.3451591 -0.76594818
-1.8097935 -3.3375683 -0.76677912
-1.8264667 -3.3195443 -0.76511723
-1.8496609 -3.3133998 -0.76636368
-1.8656192 -3.2943273 -0.764494
-1.8799518 -3.272639 -0.7620011
-1.9088594 -3.2762566 -0.76574045
-1.925941 -3.259429 -0.764494
-1.9519364 -3.2576201 -0.76698691
-1.9718881 -3.2455819 -0.76698691
-2.0009985 -3.2484138 -0.7707262
-2.0224469 -3.238564 -0.77134943
-2.050127 -3.2384918 -0.77446556
-2.0683749 -3.2233815 -0.77384233
-2.0881143 -3.2106295 -0.77384233
-2.1007779 -3.1871383 -0.77114171
-2.1159482 -3.1676805 -0.76947975
-2.1320553 -3.1497772 -0.76823336
-2.1463633 -3.1293752 -0.76636368
-2.1649661 -3.1153431 -0.7661559
-2.1671491 -3.0780039 -0.7599237
-2.2001934 -3.084559 -0.76511723
-2.2207971 -3.0733795 -0.76574045
-2.2367246 -3.0557482 -0.76470172
-2.2565973 -3.0435381 -0.76511723
-2.2769916 -3.0319812 -0.76574045
-2.2914078 -3.0125024 -0.76428628
-2.3068647 -2.9945111 -0.76324755
-2.3191788 -2.9725871 -0.76117015
-2.3270669 -2.9452519 -0.75763851
-2.3395953 -2.9240434 -0.7557689
-2.3531828 -2.9043121 -0.75431466
-2.3647554 -2.8822558 -0.75223726
-2.3786461 -2.8631768 -0.75099081
-2.393651 -2.8455331 -0.75015986
-2.4053581 -2.8240898 -0.74829018
-2.4168923 -2.8026099 -0.7464205
-2.4359732 -2.7899382 -0.74704373
-2.4407382 -2.7610128 -0.74309665
-2.4563289 -2.7445269 -0.74268121
-2.4678688 -2.723604 -0.74101925
-2.4739554 -2.6968756 -0.7376954
-2.4857974 -2.6766272 -0.73624122
-2.4927948 -2.651346 -0.73333287
-2.5049701 -2.6317489 -0.73208642
-2.5183563 -2.6135113 -0.73125541
-2.5261495 -2.5896063 -0.72876257
-2.5344317 -2.5664005 -0.72647738
-2.5445991 -2.5452666 -0.72481549
-2.5511239 -2.5206666 -0.72211486
-2.5588429 -2.4974494 -0.71982968
-2.5677817 -2.4755905 -0.71796
-2.5758402 -2.4530416 -0.7158826
-2.5872815 -2.4338388 -0.71484393
-2.5985839 -2.4145882 -0.7138052
-2.6097476 -2.3952906 -0.71276647
-2.6243958 -2.3792324 -0.71276647
-2.6309299 -2.3559058 -0.71048135
-2.6453359 -2.3397183 -0.71048135
-2.6566961 -2.3208683 -0.7096504
-2.6671839 -2.3013279 -0.70861167
-2.6782765 -2.2823808 -0.70778072
-2.688489 -2.2627544 -0.70674199
-2.6970572 -2.241838 -0.70528781
-2.7062261 -2.2215226 -0.70404136
-2.7129681 -2.1993308 -0.70217168
-2.7172492 -2.1753061 -0.69967884
-2.7236397 -2.153132 -0.69780916
-2.7290897 -2.1303596 -0.69573176
-2.7281656 -2.1028235 -0.6919924
-2.7347903 -2.0813043 -0.69033045
-2.7451637 -2.0627217 -0.68970722
-2.7475564 -2.0382614 -0.68700659
-2.7710588 -2.0294571 -0.689915
-2.7818739 -2.0112696 -0.6894995
-2.7885895 -1.9901842 -0.68804532
-2.7935519 -1.9679652 -0.68617564
-2.7943318 -1.942968 -0.6832673
-2.8045881 -1.9246786 -0.68285179
-2.8074367 -1.9013988 -0.68056667
-2.8117318 -1.8792441 -0.67869699
-2.8281088 -1.8651881 -0.67994344
-2.8222842 -1.836594 -0.67558086
-2.8310308 -1.8176564 -0.67495763
-2.8363464 -1.7965866 -0.67350346
-2.8373628 -1.772928 -0.67101055
-2.8440247 -1.7529182 -0.66997188
-2.8513837 -1.7334017 -0.66914088
-2.8594491 -1.7143641 -0.66851765
-2.8673885 -1.6952927 -0.66789442
-2.8650615 -1.6702754 -0.66477835
-2.8837364 -1.65754 -0.66685575
-2.8895977 -1.6374028 -0.66581702
-2.8936126 -1.6163019 -0.66436285
-2.896621 -1.5947416 -0.66270089
-2.8994737 -1.5732055 -0.66103899
-2.9064844 -1.554001 -0.66041577
-2.9064457 -1.5311217 -0.65813065
-2.9131813 -1.5119072 -0.65750742
-2.9197905 -1.4926677 -0.65688419
-2.9157898 -1.4681239 -0.65376806
-2.923867 -1.4497707 -0.65356034
-2.9327075 -1.4318029 -0.65356034
-2.9361482 -1.411238 -0.65231389
-2.9385629 -1.3902665 -0.65085971
-2.9426045 -1.3701446 -0.64982098
-2.9509563 -1.3520633 -0.64982098
-2.9645472 -1.3363438 -0.65106744
-2.9709027 -1.3173352 -0.65065193
-2.9726536 -1.2963434 -0.64919776
-2.980552 -1.2780792 -0.64919776
-0.26545325 -0.11151741 -0.02161229
-0.26251796 -0.10838831 -0.020781327
-0.2885437 -0.11710749 -0.026598074
-0.28925684 -0.11533482 -0.026598074
-0.26811007 -0.10496927 -0.02161229
-0.28517506 -0.10966293 -0.025351629
-0.27486619 -0.10375118 -0.022858737
-0 -0 -0
-0 -0 -0
-0 -0 -0
-0 -0 -0
-0 -0 -0
-0 -0 -0
-0 -0 -0
-0 -0 -0
-0 -0 -0
-0 -0 -0
-0 -0 -0
-0 -0 -0
-0 -0 -0
-0 -0 -0
-0 -0 -0
-0 -0 -0
-0 -0 -0
-0 -0 -0
-0 -0 -0
-0 -0 -0
-0 -0 -0
-0 -0 -0
-0 -0 -0
-0 -0 -0
-0 -0 -0
-0 -0 -0
-0 -0 -0
-0 -0 -0
-0 -0 -0
-0 -0 -0
-0 -0 -0
-0 -0 -0
-0 -0 -0
-0 -0 -0
-0 -0 -0
-0 -0 -0
-0 -0 -0
-0 -0 -0
-0 -0 -0
-0 -0 -0
-0 -0 -0
-0 -0 -0
-0 -0 -0
-0 -0 -0
-0 -0 -0
-0 -0 -0
-0 -0 -0
-0 -0 -0
-0 -0 -0
-0 -0 -0
-0 -0 -0
-0 -0 -0
-0 -0 -0
-0 -0 -0
-0.27284443 0.019011037 -0.021857064
-0 0 -0
-0.27745038 0.022777289 -0.022955444
-0.28021967 0.024748828 -0.023614472
-0.28297511 0.026755197 -0.0242735
-0.28280562 0.028490996 -0.0242735
-0.28262547 0.030225722 -0.0242735
-0.2824347 0.03195931 -0.0242735
-0.28223327 0.033691697 -0.0242735
-0 0 -0
-0.27309853 0.035969246 -0.022296418
-0 0 -0
-0.27167159 0.039174542 -0.022076741
-0.27142611 0.040840752 -0.022076741
-0.27213356 0.042660587 -0.022296418
-0 0 -0
-0.27447307 0.046497796 -0.022955444
-0.27322248 0.048008189 -0.022735769
-0.27292275 0.049683746 -0.022735769
-0.27357072 0.05154207 -0.022955444
-0.27516288 0.053600725 -0.023394797
-0.2757844 0.055484463 -0.023614472
-0.27830192 0.057782318 -0.0242735
-0 0 -0
-0.28328285 0.062476777 -0.025591556
-0.28669614 0.065092884 -0.026470259
-0.28534222 0.066625193 -0.026250584
-0.2830326 0.067911923 -0.025811231
-0.27977169 0.06893561 -0.025152205
-0.27650899 0.069921859 -0.024493176
-0.27230152 0.07062187 -0.023614472
-0.27186307 0.072291352 -0.023614472
-0.2704742 0.073697731 -0.023394797
-0.26907834 0.07508979 -0.02317512
-0.26954946 0.07701131 -0.023394797
-0.27000707 0.078941435 -0.023614472
-0.27045113 0.080880053 -0.023834148
-0.27181327 0.083116189 -0.0242735
-0.26850829 0.083898008 -0.023614472
-0.26798844 0.08554396 -0.023614472
-0.26931104 0.087799102 -0.024053825
-0.26784289 0.089138031 -0.023834148
-0.26636845 0.09046226 -0.023614472
-0 0 -0
-0.26523829 0.093724199 -0.023614472
-0.27015689 0.097356729 -0.024932528
-0.2704688 0.099352635 -0.025152205
-0 0 -0
-0.2683191 0.10231294 -0.024932528
-0.26768625 0.10395738 -0.024932528
-0.26160881 0.10342337 -0.023614472
-0.26006579 0.10465866 -0.023394797
-0.25761625 0.10550539 -0.022955444
-0.25696403 0.10708411 -0.022955444
-0.2589919 0.10981242 -0.023614472
-0.26010165 0.11217958 -0.024053825
-0.26297563 0.11535549 -0.024932528
-0.26493093 0.11816985 -0.025591556
-0.26774839 0.12141895 -0.026470259
-0.26876709 0.12388326 -0.026909612
-0.26800188 0.12553005 -0.026909612
-0.26810586 0.1275948 -0.027129287
-0.26994783 0.1305217 -0.027788315
-0.26826787 0.13174216 -0.027568638
-0.27093974 0.13514094 -0.028447343
-0.26923683 0.13635671 -0.028227666
-0.2683951 0.13800615 -0.028227666
-0.26926944 0.14055993 -0.02866702
-0.26840189 0.14220949 -0.02866702
-0.26666683 0.14338836 -0.028447343
-0.26663658 0.14549248 -0.02866702
-0.26659051 0.1476016 -0.028886694
-0.26737729 0.15019664 -0.029326046
-0.26729643 0.15232062 -0.029545723
-0.26382846 0.15248366 -0.028886694
-0.26036865 0.1526099 -0.028227666
-0.25942737 0.15420462 -0.028227666
-0.2534748 0.15275253 -0.026909612
-0.25253275 0.15430495 -0.026909612
-0.25158119 0.15585156 -0.026909612
-0.25062016 0.15739229 -0.026909612
-0.25539598 0.16261707 -0.028447343
-0.25602865 0.16524543 -0.028886694
-0.25500992 0.16681328 -0.028886694
-0.25803682 0.17108564 -0.029985074
-0.25859764 0.17375995 -0.030424427
-0.25913528 0.17644756 -0.030863779
-0.25884867 0.17859125 -0.031083453
-0.25774798 0.18017615 -0.031083453
-0.25822568 0.18288784 -0.031522807
-0.26105136 0.18732706 -0.032621186
-0.26147109 0.19007827 -0.033060536
-0.26029986 0.19167906 -0.033060536
-0.26145852 0.19503091 -0.033719566
-0.26258576 0.19840413 -0.034378592
-0.26213607 0.20060723 -0.034598269
-0.26166919 0.20281224 -0.034817945
-0.26041985 0.204414 -0.034817945
-0.26144531 0.20783728 -0.035476971
-0.26168072 0.21066639 -0.035916325
-0.26189119 0.21350615 -0.036355678
-0.259826 0.21448541 -0.036136001
-0.25999776 0.21733214 -0.036575351
-0.25940183 0.21955618 -0.036795028
-0.26100412 0.22369316 -0.037673734
-0.26036131 0.22593231 -0.037893407
-0.26262367 0.2307575 -0.038991787
-0 0 -0
-0.26483122 0.23855001 -0.040529519
-0 0 -0
-0 0 -0
-0 0 -0
-0 0 -0
-0 0 -0
-0 0 -0
-0 0 -0
-0 0 -0
-0 0 -0
-0 0 -0
-0 0 -0
-0 0 -0
-0 0 -0
-0 0 -0
-0 0 -0
-0 0 -0
-0 0 -0
-0 0 -0
-0 0 -0
-0 0 -0
-0 0 -0
-0 0 -0
-0 0 -0
-0 0 -0
-0 0 -0
-0 0 -0
-2.2647469 2.8648539 -0.78259486
-0 0 -0
-0 0 -0
-0 0 -0
-0 0 -0
-2.1781263 2.9361112 -0.78347355
-2.161222 2.9509952 -0.7839129
-0 0 -0
-0 0 -0
-2.108784 2.9934671 -0.78479159
-2.0926034 3.0095546 -0.78567028
-2.0702355 3.016706 -0.78413254
-0 0 -0
-2.0276415 3.0337713 -0.78193581
-1.9993252 3.0314932 -0.77798164
-1.9860051 3.0518823 -0.78017843
-1.9619735 3.0557997 -0.77798164
-1.9452736 3.0710778 -0.77886033
-1.9356939 3.097851 -0.7828145
-1.9176726 3.1113312 -0.78325385
-1.9010782 3.1272082 -0.78435224
-1.8753363 3.1279347 -0.78149647
-1.8585895 3.1435823 -0.78259486
-1.8338641 3.1456547 -0.78017843
-1.8116128 3.151772 -0.77886033
-1.7946433 3.1670732 -0.77995872
-1.7737503 3.1754699 -0.77929968
-1.7551731 3.1880031 -0.77973902
-1.7337189 3.195282 -0.77886033
-1.7113221 3.2006969 -0.77754229
-1.6875609 3.2033677 -0.77556521
-1.6723648 3.2223227 -0.777762
-1.6543368 3.2359984 -0.77864069
-1.632696 3.2426023 -0.777762
-1.6149346 3.2569304 -0.77886033
-1.6039025 3.2851911 -0.78347355
-1.5904721 3.309041 -0.78698838
-1.5734738 3.3257937 -0.78874576
-1.551803 3.3327322 -0.78808671
-1.5370096 3.3546097 -0.79116219
-1.5083846 3.3461871 -0.78676867
-1.4862436 3.3518116 -0.78588998
-1.46487 3.3590791 -0.78545064
-1.4311689 3.3375151 -0.77798164
-1.4140716 3.3543255 -0.77995872
-1.3934631 3.3629389 -0.77995872
-1.3658175 3.3542562 -0.77578491
-1.3488312 3.3716326 -0.77798164
-1.3234833 3.3680401 -0.77512586
-1.3034943 3.377918 -0.77556521
-1.2785993 3.3749034 -0.77292907
-1.2551494 3.3753693 -0.77117169
-1.2330785 3.3793409 -0.770293
-1.21232 3.3868432 -0.770293
-1.19313 3.3988211 -0.77139139
-1.1703497 3.4005427 -0.77007329
-1.1513314 3.4132068 -0.77139139
-1.1312842 3.4229863 -0.77205038
-1.1102599 3.4298632 -0.77205038
-1.0894881 3.437541 -0.77227008
-1.0669316 3.439502 -0.77117169
-1.0463732 3.4478512 -0.77161103
-1.0227025 3.4457886 -0.76963395
-1.0015402 3.4519989 -0.76963395
-0.9784798 3.4515085 -0.76809621
-0.95832342 3.4612086 -0.76897496
-0.93783051 3.4698491 -0.76963395
-0.91577691 3.472708 -0.76897496
-0.89833409 3.4933803 -0.77248973
-0.87475049 3.4903092 -0.77051264
-0.85470414 3.5012977 -0.77183074
-0.83568203 3.5169177 -0.77424717
-0.8134287 3.5191274 -0.77358812
-0.78818983 3.5078697 -0.76985365
-0.7695592 3.5259848 -0.77292907
-0.74609286 3.5220501 -0.77095199
-0.72191989 3.514138 -0.76809621
-0.69996369 3.5165877 -0.76765686
-0.67726755 3.5150683 -0.76633883
-0.65586513 3.5201168 -0.76655847
-0.63477123 3.5269556 -0.76721752
-0.61228532 3.5259778 -0.76611912
-0.59128153 3.5335174 -0.76699787
-0 0 -0
-0.54474896 3.5202601 -0.76238465
-0.52442539 3.5322218 -0.76436174
-0.50233114 3.5324755 -0.76370269
-0.48222005 3.5470917 -0.76633883
-0.46219879 3.563529 -0.76941431
-0.43996701 3.5633931 -0.76875526
-0.4185473 3.5699017 -0.76963395
-0.39631289 3.5694935 -0.76897496
-0.37409925 3.5689473 -0.76831591
-0.3507621 3.556612 -0.76502079
-0.32821673 3.5509257 -0.76326334
-0.30516982 3.5382929 -0.75996822
-0.28329843 3.5381536 -0.75952888
-0.26208445 3.5466361 -0.76106662
-0.24025215 3.547204 -0.76084691
-0.21872093 3.5525064 -0.7617256
-0.19729462 3.5606003 -0.76326334
-0.17520508 3.5568719 -0.76216495
-0.15366912 3.5647027 -0.76370269
-0.13125788 3.5509546 -0.76040757
-0.10890221 3.5331659 -0.75623375
-0.087102309 3.5288911 -0.75513536
-0.065128021 3.5118017 -0.75118119
-0.043437418 3.5004294 -0.74854505
-0.021958372 3.5006299 -0.74854505
-0.00048021995 3.4919186 -0.74656796
0.021026107 3.5045381 -0.74942374
0.042516988 3.5033674 -0.7492041
0.063885406 3.496213 -0.74766636
0.085336566 3.495755 -0.74766636
0.10672427 3.4932153 -0.74722701
0.12772304 3.4807959 -0.74459088
0.14937297 3.4867694 -0.74612862
0.17086068 3.487736 -0.74656796
0.19117706 3.4671404 -0.74217445
0.21430786 3.4960876 -0.7489844
0 0 -0
0.25661844 3.4854112 -0.74722701
0.27823347 3.4866884 -0.74788606
0.29752484 3.4606166 -0.74239415
0.31947201 3.4664972 -0.74415153
0.34169415 3.4741802 -0.74634832
0.36249605 3.4671671 -0.74524993
0.38397881 3.4668167 -0.74568927
0.40558457 3.4673023 -0.74634832
0.42733034 3.4686213 -0.74722701
0.44860536 3.4659338 -0.74722701
0.47183573 3.4776161 -0.75052214
0.49316511 3.4746554 -0.75052214
0.51390254 3.4677041 -0.74964345
0.53621507 3.4712343 -0.75118119
0.55672824 3.463063 -0.75008279
0.57587278 3.4470735 -0.74722701
0.59751368 3.4463584 -0.74788606
0.61536437 3.4243848 -0.74371219
0.6343981 3.4099948 -0.74129575
0.6553095 3.406038 -0.74129575
0.67410058 3.3914285 -0.73887932
0.69646835 3.3948731 -0.74063671
0.71587014 3.3838551 -0.73909903
0.73453867 3.3698678 -0.73690224
0.75691342 3.3729119 -0.73865968
0.77407861 3.3529961 -0.73514485
0.78922325 3.3254042 -0.72987258
0.80914986 3.3186035 -0.72943324
0.82878548 3.3107374 -0.72877425
0.84859812 3.3037002 -0.7283349
0.87134153 3.3078642 -0.73053163
0.89009416 3.2968049 -0.7292136
0.91108733 3.2941017 -0.72987258
0.93687153 3.3081594 -0.73448581
0.95742428 3.3032854 -0.73470551
0.97850776 3.3001542 -0.7353645
0.99930543 3.2959552 -0.73580384
1.018932 3.2878981 -0.7353645
1.0364337 3.2732143 -0.73338741
1.0555967 3.264009 -0.73272842
1.0759107 3.2583969 -0.73294806
1.0899578 3.2341707 -0.72877425
1.1120046 3.2338791 -0.73031199
1.1344121 3.2343588 -0.73206937
1.1522633 3.2218266 -0.73075134
1.1770273 3.2284424 -0.73404646
1.1934137 3.2120156 -0.73184967
1.2120627 3.2018957 -0.73119068
1.2320377 3.1953084 -0.73141032
0 0 -0
1.2660823 3.1672683 -0.7283349
1.2862284 3.1612473 -0.72877425
1.3078423 3.1587031 -0.73009229
1.326062 3.147922 -0.72943324
1.3488132 3.1477954 -0.73141032
1.3669323 3.1367774 -0.73075134
1.3845713 3.1247637 -0.72987258
1.4057233 3.1206563 -0.73097098
1.4280963 3.1190672 -0.73272842
1.4447365 3.1049395 -0.73141032
1.4662646 3.1013074 -0.73272842
1.4928746 3.1080787 -0.73668259
1.5020716 3.0786972 -0.73163003
1.5218008 3.0711708 -0.73206937
1.5397389 3.0600328 -0.73163003
1.5518239 3.0374982 -0.7283349
1.5717807 3.0305169 -0.72899389
1.5917103 3.0234048 -0.72965294
1.6056311 3.0049787 -0.72745615
1.6268311 3.0002148 -0.72877425
1.6489739 2.9970129 -0.73053163
1.6649532 2.9825802 -0.72943324
1.6856277 2.9765518 -0.73053163
1.7067771 2.9712274 -0.73184967
1.7239933 2.9590135 -0.73141032
1.7450964 2.953418 -0.73272842
1.7641888 2.9443281 -0.73316777
1.7847558 2.9376156 -0.7342661
1.8022351 2.9257789 -0.73404646
1.8191195 2.9130108 -0.73360711
1.8359149 2.9001458 -0.73316777
1.8547295 2.8904681 -0.73360711
1.8724302 2.8790333 -0.73360711
1.8911347 2.8691187 -0.73404646
1.9124988 2.8631384 -0.7355842
1.9256537 2.844888 -0.73382676
1.9386568 2.8265841 -0.73206937
1.9615339 2.8226449 -0.7342661
1.9647689 2.7906184 -0.72877425
1.9801544 2.7761281 -0.7281152
1.9965795 2.7631354 -0.72789556
2.0111902 2.7476845 -0.72701681
2.0297558 2.7376428 -0.72767586
2.0547209 2.7360554 -0.73075134
2.0726521 2.7249489 -0.73119068
2.0917156 2.7152705 -0.73206937
2.1161413 2.7123816 -0.73492515
2.1266937 2.6916933 -0.73272842
2.1468279 2.6831627 -0.73404646
2.1620224 2.6684239 -0.73360711
2.1746407 2.6505837 -0.73228908
2.1883686 2.6341898 -0.73141032
2.2070036 2.623698 -0.73228908
2.2205296 2.6071367 -0.73141032
2.2383969 2.5956786 -0.73206937
2.251714 2.5789566 -0.73119068
2.2694349 2.5672839 -0.73184967
2.2897007 2.5583975 -0.73338741
2.3092873 2.5486364 -0.73470551
2.3288403 2.5387311 -0.73602355
2.3463662 2.5265377 -0.73668259
2.3651671 2.5156457 -0.73778093
2.3805583 2.501086 -0.73778093
2.3911197 2.4815161 -0.73624319
2.4097083 2.4702883 -0.73734158
2.4275632 2.4582319 -0.73822027
2.441911 2.4426007 -0.73800063
2.4610176 2.431684 -0.73931867
2.4758918 2.4165378 -0.73931867
2.4955907 2.4060388 -0.74085641
2.5088935 2.3893356 -0.74041706
2.5220854 2.37256 -0.73997772
2.5451744 2.365006 -0.74261379
2.5596378 2.3493447 -0.74261379
2.5754509 2.3349049 -0.7430532
2.5911829 2.3203592 -0.74349254
2.600255 2.2998939 -0.7419548
2.6113782 2.2813294 -0.74107611
2.6238494 2.263989 -0.74063671
2.6324925 2.2434192 -0.73909903
2.6424751 2.2240844 -0.73800063
2.6583235 2.2096987 -0.73865968
2.6650436 2.1877773 -0.73668259
2.6822076 2.1744542 -0.73778093
2.7061644 2.1664877 -0.74085641
2.7201722 2.1504471 -0.74107611
2.7417772 2.1403165 -0.74349254
2.7587228 2.1264296 -0.74459088
2.7701652 2.1082811 -0.74415153
2.7799289 2.088901 -0.74327284
2.8044493 2.0805192 -0.74656796
2.8155878 2.06212 -0.74612862
2.8313508 2.0470903 -0.74700731
2.8375041 2.0251472 -0.74524993
2.8522699 2.0093832 -0.74590898
2.8581364 1.9873908 -0.74415153
2.8678632 1.9681609 -0.74349254
2.8831174 1.9527142 -0.74437124
2.892611 1.9333614 -0.74371219
2.8979027 1.9112815 -0.7419548
2.9071221 1.8918687 -0.74129575
2.9203179 1.875049 -0.7417351
2.9284706 1.8550079 -0.74085641
2.9464178 1.8411379 -0.74261379
2.9643044 1.8271172 -0.74437124
2.9704571 1.8058552 -0.7430532
2.9823184 1.7880962 -0.74327284
2.9890342 1.7672821 -0.74217445
3.0040367 1.7513639 -0.74327284
3.0189559 1.735328 -0.74437124
3.0329428 1.7186941 -0.74524993
3.0476906 1.7024293 -0.74634832
3.058934 1.6841671 -0.74656796
3.0709255 1.6662962 -0.74700731
3.0759289 1.6446637 -0.74568927
3.0756032 1.6203061 -0.7430532
3.0863535 1.6018531 -0.74327284
3.0961242 1.5828855 -0.74327284
3.1057782 1.5638583 -0.74327284
3.123183 1.5486701 -0.74524993
3.1343803 1.5303328 -0.74568927
3.1463494 1.5123389 -0.74634832
3.1564517 1.4934217 -0.74656796
3.1752856 1.4785527 -0.7489844
3.1789758 1.4566052 -0.74766636
3.1914115 1.4386744 -0.74854505
3.2001791 1.4190652 -0.74854505
3.2034597 1.3970644 -0.74722701
3.2227325 1.3819923 -0.74986315
3.2410417 1.3663576 -0.75227958
3.2475617 1.3456988 -0.75184023
3.2593722 1.3272173 -0.75271893
3.2620192 1.3050208 -0.75140083
3.2699652 1.2849809 -0.75140083
3.2777882 1.2648926 -0.75140083
3.2845752 1.2444113 -0.75118119
3.2948925 1.2252532 -0.75184023
3.3069313 1.2066836 -0.75293857
3.317029 1.1873555 -0.75359762
3.3242519 1.1669801 -0.75359762
3.3295047 1.1459266 -0.75315827
3.3420203 1.1273447 -0.75447631
3.3572123 1.1095698 -0.75645339
3.3723116 1.0916507 -0.75843048
3.3761561 1.0700548 -0.75777143
3.3854537 1.0501851 -0.75843048
3.3890331 1.0285436 -0.75777143
3.3868623 1.005234 -0.75579435
3.3939035 0.98470521 -0.75601405
3.3951883 0.96253318 -0.75491565
3.3906872 0.93882245 -0.75249922
3.402035 0.91952533 -0.75381732
3.4047828 0.89788812 -0.75315827
3.400779 0.87455326 -0.75096148
3.4212232 0.85745978 -0.75447631
3.4207332 0.83506513 -0.75315827
3.4115543 0.81068176 -0.74986315
3.4430807 0.79587674 -0.75601405
3.4355245 0.77195913 -0.75315827
3.4440093 0.75169545 -0.75403696
3.4504657 0.73095304 -0.75447631
3.4462848 0.70800352 -0.75249922
3.457262 0.6881752 -0.75403696
3.4547136 0.66565901 -0.75249922
3.4568145 0.64409202 -0.75205988
3.472224 0.62493914 -0.75469601
3.4702258 0.60262269 -0.75337791
3.4757826 0.58163983 -0.75381732
3.4744699 0.55952793 -0.75271893
3.4749453 0.53775179 -0.75205988
3.4916899 0.51842123 -0.75513536
3.4812827 0.4950684 -0.75205988
3.4890885 0.47435385 -0.75315827
3.4977384 0.45368728 -0.75447631
3.5014246 0.43233624 -0.75469601
3.5011046 0.41050392 -0.75403696
3.5054967 0.38922849 -0.75447631
3.4913239 0.36598825 -0.75074184
3.4964166 0.34484529 -0.75140083
3.503324 0.32383257 -0.75249922
3.4964972 0.30157888 -0.75052214
3.4992542 0.28019664 -0.75074184
3.5164747 0.25986555 -0.75425667
3.5160563 0.23815279 -0.75381732
3.523294 0.21693197 -0.75513536
3.5255327 0.19536301 -0.755355
3.5227675 0.17353636 -0.75447631
3.5227914 0.15187611 -0.75425667
3.5256069 0.13032924 -0.75469601
3.5146387 0.10833726 -0.75205988
3.5201137 0.086888559 -0.75315827
3.5157034 0.065199085 -0.75205988
3.5199394 0.043673024 -0.75293857
3.5211165 0.022080055 -0.75315827
3.5172834 0.00047523956 -0.75227958
3.5191712 -0.021118769 -0.75271893
3.529706 -0.042845398 -0.75513536
3.5293765 -0.064502463 -0.75513536
3.5357413 -0.086326025 -0.7566731
3.5322196 -0.10792895 -0.75601405
0 -0 -0
3.5208826 -0.15084578 -0.75381732
3.5159934 -0.17225443 -0.75293857
3.512922 -0.19371684 -0.75249922
3.5136147 -0.2153881 -0.75293857
3.5190403 -0.23740511 -0.75447631
3.5233548 -0.25942481 -0.75579435
3.5216968 -0.28103882 -0.75579435
3.518934 -0.30255836 -0.7555747
3.5121543 -0.32369518 -0.75447631
3.5159271 -0.34581414 -0.75579435
3.5079176 -0.36677033 -0.75447631
3.5026922 -0.38796446 -0.75381732
3.5021837 -0.40967658 -0.75425667
3.49089 -0.4300814 -0.75227958
3.4862504 -0.45124188 -0.75184023
3.4843829 -0.47275612 -0.75205988
3.4833481 -0.49440181 -0.75249922
3.4831438 -0.51619595 -0.75315827
3.4866595 -0.53860313 -0.75469601
3.4919577 -0.56138325 -0.7566731
3.5278969 -0.58940297 -0.76567978
3.504029 -0.60753214 -0.76106662
3.4858334 -0.62642801 -0.75777143
3.463702 -0.64440852 -0.75359762
3.457767 -0.66527998 -0.75315827
3.4450088 -0.68476927 -0.75118119
3.4512537 -0.70805478 -0.75359762
3.4535248 -0.73063362 -0.75513536
3.4708986 -0.75659639 -0.76018786
3.4614317 -0.77680951 -0.75908953
3.4613526 -0.7991327 -0.76018786
3.448791 -0.8185513 -0.75843048
3.4380174 -0.83830875 -0.75711244
3.4375403 -0.86057442 -0.75821084
3.4303055 -0.88116449 -0.75777143
3.418231 -0.9004541 -0.75623375
3.4116998 -0.92115641 -0.75601405
3.4022229 -0.94103134 -0.75513536
3.3916919 -0.96055853 -0.75403696
3.3866711 -0.98162335 -0.75425667
3.3787136 -1.0018299 -0.75381732
3.3669019 -1.0208421 -0.75249922
3.3568478 -1.0403254 -0.75162053
3.3494713 -1.0606083 -0.75140083
3.3391879 -1.0799382 -0.75052214
3.3241622 -1.0976509 -0.74854505
3.3293815 -1.1220814 -0.75140083
3.3159766 -1.1402662 -0.74986315
3.3089178 -1.1605911 -0.74986315
3.2989788 -1.1798859 -0.7492041
3.2806797 -1.1960921 -0.74656796
3.2888231 -1.221981 -0.75030249
3.286737 -1.244212 -0.75162053
3.2799509 -1.264707 -0.75184023
3.2803009 -1.2880203 -0.75381732
3.2795818 -1.311023 -0.7555747
3.2615373 -1.3270737 -0.75315827
3.2533331 -1.3470612 -0.75315827
3.2423096 -1.3658607 -0.75249922
3.2293849 -1.3838067 -0.75140083
3.2244101 -1.405156 -0.75227958
3.2112684 -1.4229366 -0.75118119
3.1926942 -1.4382029 -0.74876475
3.1811488 -1.4565465 -0.7481057
3.1712673 -1.4756265 -0.74788606
3.1586261 -1.4933881 -0.74700731
3.1476448 -1.5118955 -0.74656796
3.1435685 -1.5337491 -0.74788606
3.1445863 -1.5582101 -0.75052214
3.1349661 -1.5774757 -0.75052214
3.1313083 -1.5997907 -0.75205988
3.1257625 -1.6212212 -0.75315827
3.1097145 -1.6371866 -0.75162053
3.1064925 -1.6599171 -0.75337791
3.086817 -1.6738284 -0.75096148
3.0730703 -1.6908549 -0.75008279
3.0651925 -1.7111065 -0.75074184
3.0563331 -1.730844 -0.75118119
3.043118 -1.7481061 -0.75052214
3.0357058 -1.7687111 -0.75140083
3.0239563 -1.7868079 -0.75118119
3.0104256 -1.8038238 -0.75052214
3.0059695 -1.8263161 -0.75227958
2.993046 -1.8437022 -0.75184023
2.9858134 -1.8646176 -0.75293857
2.9800849 -1.8865577 -0.75447631
2.9684532 -1.9048077 -0.75447631
2.9616153 -1.9261788 -0.75579435
2.9456689 -1.9416289 -0.75469601
2.932889 -1.9591244 -0.75447631
2.9256589 -1.9803662 -0.75579435
2.9021919 -1.9905515 -0.75271893
2.8939281 -2.0111065 -0.75381732
2.8839262 -2.0305111 -0.75447631
2.873795 -2.0498686 -0.75513536
2.8643255 -2.0697498 -0.75601405
2.8507848 -2.0867097 -0.75579435
2.8340099 -2.1012559 -0.75469601
2.8210635 -2.1186056 -0.75469601
2.802577 -2.1317394 -0.75315827
2.789444 -2.1488955 -0.75315827
2.7862027 -2.1737752 -0.75601405
2.772047 -2.1902251 -0.75579435
2.7654097 -2.2126806 -0.75777143
2.7495077 -2.2277639 -0.75711244
2.7191985 -2.2309737 -0.75227958
2.716711 -2.2569714 -0.7555747
2.6946015 -2.2666874 -0.75315827
2.6791577 -2.2819128 -0.75271893
2.6769233 -2.3085067 -0.75623375
2.662708 -2.3248885 -0.75623375
2.6491234 -2.3418293 -0.75645339
2.6405182 -2.3632467 -0.75821084
2.6266906 -2.3800595 -0.75843048
2.6055691 -2.3901942 -0.75645339
2.6015735 -2.4160984 -0.75974852
2.5760417 -2.4219885 -0.75645339
2.566077 -2.4424591 -0.75799114
2.5587671 -2.4656069 -0.76040757
2.5491753 -2.4867125 -0.76216495
2.5186028 -2.4872212 -0.75733209
2.5046735 -2.5040083 -0.75777143
2.4810367 -2.5109992 -0.75513536
2.4614956 -2.5219851 -0.75381732
2.4459748 -2.5370409 -0.75381732
2.4337244 -2.5555348 -0.75491565
2.4186664 -2.5711305 -0.75513536
2.4041724 -2.5873528 -0.7555747
2.3889108 -2.6027746 -0.75579435
2.3702755 -2.6144917 -0.75491565
2.3541887 -2.6289864 -0.75491565
2.3328445 -2.6375341 -0.75315827
2.3198249 -2.6554732 -0.75425667
2.2920203 -2.6563582 -0.75030249
2.2731478 -2.6674008 -0.74942374
2.2661576 -2.6924975 -0.75271893
2.2477241 -2.7041004 -0.75205988
2.2286146 -2.7148242 -0.75118119
2.2155995 -2.7329957 -0.75249922
2.1969602 -2.7442536 -0.75184023
2.1800804 -2.7576823 -0.75184023
2.1631184 -2.7710071 -0.75184023
2.1472659 -2.7857733 -0.75227958
2.1283605 -2.7965667 -0.75162053
2.1135042 -2.8126938 -0.75249922
2.0909772 -2.8185558 -0.75052214
2.0684578 -2.8242476 -0.74854505
2.0510895 -2.8368862 -0.74854505
2.0325112 -2.8478296 -0.7481057
2.0161223 -2.8618426 -0.74854505
2.0085447 -2.8885803 -0.75249922
1.9963003 -2.9088955 -0.75469601
1.9800545 -2.9235137 -0.755355
1.968581 -2.9453433 -0.75799114
1.941882 -2.9443336 -0.75447631
1.9269705 -2.9611003 -0.75579435
1.911926 -2.9777949 -0.75711244
1.8868357 -2.978754 -0.75425667
1.8680062 -2.9894478 -0.75403696
1.8613952 -3.0199587 -0.75908953
1.838778 -3.024653 -0.75733209
1.8317162 -3.0551267 -0.76238465
1.8159132 -3.071348 -0.76370269
1.7940872 -3.0773745 -0.76238465
1.775171 -3.088325 -0.76238465
1.7533039 -3.0940654 -0.76106662
1.7247765 -3.087728 -0.7566731
1.7053279 -3.0973983 -0.75645339
1.6807107 -3.097512 -0.75381732
1.6644313 -3.1129291 -0.75513536
1.6521158 -3.1360323 -0.75843048
1.6355371 -3.1513069 -0.75974852
1.6135075 -3.1560702 -0.75843048
1.5993733 -3.1763692 -0.76106662
1.5789871 -3.1843746 -0.76062727
1.5572798 -3.1896191 -0.75952888
1.5431699 -3.2105467 -0.76238465
1.5192719 -3.2111351 -0.76018786
1.5053014 -3.2327802 -0.76326334
1.4838127 -3.2384074 -0.76238465
1.4534979 -3.2243235 -0.7566731
1.4352671 -3.2367492 -0.75755179
1.4165488 -3.248178 -0.75821084
1.3939023 -3.2505314 -0.7566731
1.3773394 -3.2671149 -0.75865018
1.3535352 -3.2664907 -0.75645339
0 -0 -0
0 -0 -0
1.2913979 -3.2863109 -0.755355
1.2761222 -3.3069167 -0.75843048
1.2506273 -3.3009984 -0.75513536
1.2334068 -3.3168406 -0.75711244
1.2170411 -3.3353453 -0.75974852
0 -0 -0
0 -0 -0
0 -0 -0
0 -0 -0
1.1178274 -3.3822248 -0.76238465
1.0946522 -3.3815939 -0.76062727
1.0718215 -3.3817365 -0.75908953
1.0536499 -3.3966362 -0.76106662
1.0359018 -3.4133072 -0.76348305
0 -0 -0
0 -0 -0
0 -0 -0
0.94974297 -3.4301791 -0.7617256
0.92715245 -3.4302909 -0.76040757
0.90062118 -3.4151604 -0.7555747
0.87625188 -3.4073935 -0.75249922
0.85461748 -3.4098666 -0.75184023
0.83206147 -3.4084115 -0.75030249
0.81135744 -3.414402 -0.75052214
0.79170817 -3.4250197 -0.75184023
0.77217269 -3.4364765 -0.75337791
0.7521109 -3.4459157 -0.75447631
0.73256791 -3.4581015 -0.75623375
0.71192366 -3.4653983 -0.75689274
0.6889357 -3.4610896 -0.75491565
0.66621178 -3.4575875 -0.75315827
0.64427036 -3.4577737 -0.75227958
0.62321424 -3.4626219 -0.75249922
0.60095668 -3.4606133 -0.75118119
0.58051491 -3.4690468 -0.75227958
0.55999225 -3.4773595 -0.75337791
0.53983605 -3.4884434 -0.75513536
0.5197078 -3.5003755 -0.75711244
0.49822015 -3.5034983 -0.75711244
0.47697592 -3.5084229 -0.75755179
0.45518932 -3.5093484 -0.75711244
0.43185931 -3.4975514 -0.75381732
0.41016406 -3.4981976 -0.75337791
0.38912115 -3.5045271 -0.75425667
0.36730629 -3.5039377 -0.75359762
0.34646764 -3.5129218 -0.75513536
0.32463783 -3.5120673 -0.75447631
0.3033326 -3.5169091 -0.75513536
0.28159246 -3.5167592 -0.75469601
0.26058134 -3.5262043 -0.75645339
0.23802157 -3.5141096 -0.75337791
0.21746865 -3.5320578 -0.75711244
0.19622152 -3.5411184 -0.75886983
0.17439456 -3.5403068 -0.75843048
0.15316874 -3.5530064 -0.76106662
0.13122216 -3.5499797 -0.76018786
0.10919955 -3.542917 -0.75843048
0.087743565 -3.5552239 -0.76106662
0.065732047 -3.5449657 -0.75865018
0.043826167 -3.5326209 -0.75579435
0.022184355 -3.5386765 -0.75711244
0.00046930142 -3.5475264 -0.75908953
-0.021211434 -3.5338047 -0.75601405
-0.043003522 -3.5423875 -0.75799114
-0.064683944 -3.5391307 -0.75733209
-0.08639843 -3.5386672 -0.75733209
-0.10823012 -3.5419707 -0.75821084
-0.12978071 -3.5363655 -0.75711244
-0.15109827 -3.5267308 -0.75513536
-0.17273504 -3.525737 -0.75513536
-0.19414915 -3.5207145 -0.75425667
-0.21526809 -3.5116673 -0.75249922
-0.2364153 -3.5044403 -0.75118119
-0.25834543 -3.5087612 -0.75249922
-0.27979201 -3.5061374 -0.75227958
-0.30155167 -3.5072706 -0.75293857
-0.32414445 -3.5170114 -0.7555747
-0.34581414 -3.5159271 -0.75579435
-0.36809334 -3.5205307 -0.75733209
-0.38979569 -3.5191755 -0.75755179
-0.41115427 -3.5147798 -0.75711244
-0.43378931 -3.5209048 -0.75908953
-0.45551056 -3.5191441 -0.75930917
-0.47578022 -3.5066161 -0.75711244
-0.49893638 -3.5152211 -0.75974852
-0.52035266 -3.5111284 -0.75952888
-0.542036 -3.5088336 -0.75974852
-0.5638659 -3.5073681 -0.76018786
-0.58408755 -3.4961448 -0.75843048
-0.60202199 -3.4723103 -0.75381732
-0.62746525 -3.4915943 -0.75908953
-0.64708984 -3.4780879 -0.75689274
-0.6669417 -3.4663885 -0.75513536
-0.68781751 -3.4603174 -0.75469601
-0.70825112 -3.4522095 -0.75381732
-0.73043138 -3.4525704 -0.75491565
-0.74993747 -3.4403987 -0.75315827
-0.76974964 -3.4300215 -0.75184023
-0.79231977 -3.4318874 -0.75337791
-0.81178331 -3.4203172 -0.75184023
-0.83414322 -3.4209583 -0.75315827
-0.85891378 -3.4309163 -0.7566731
-0.87970632 -3.4246366 -0.75645339
-0.90294236 -3.427664 -0.75843048
-0.92319328 -3.419234 -0.75777143
-0.94597858 -3.4200861 -0.75930917
-0.96588147 -3.4104631 -0.75843048
-0.98488617 -3.3979139 -0.75689274
-1.0062721 -3.3936775 -0.75733209
-0 -0 -0
-1.0458183 -3.3745511 -0.75579435
-1.0653253 -3.3643506 -0.75491565
-1.086249 -3.3586788 -0.75513536
-1.1013254 -3.3352776 -0.75118119
-1.1245764 -3.3367765 -0.75315827
-1.1421714 -3.3215115 -0.75118119
-1.1586519 -3.3033948 -0.74854505
-1.1788994 -3.2962234 -0.74854505
-1.1937509 -3.2742646 -0.74503022
-1.2083775 -3.2522483 -0.74151546
-1.2376438 -3.2694039 -0.74744672
-1.2573299 -3.260838 -0.74722701
-1.2769576 -3.2521539 -0.74700731
-0 -0 -0
-1.3215541 -3.2479844 -0.74986315
-1.3436995 -3.2452219 -0.75118119
-1.3685139 -3.2486022 -0.75403696
-1.3899595 -3.2437303 -0.75491565
-1.4102265 -3.2360349 -0.75513536
-1.432429 -3.2326717 -0.75645339
-1.4526383 -3.2247109 -0.7566731
-1.4764616 -3.2246058 -0.75886983
-1.4855112 -3.1924922 -0.75315827
-1.4983954 -3.1692078 -0.74964345
-1.5389475 -3.2039168 -0.76062727
-1.5572932 -3.1917837 -0.75996822
-1.5816162 -3.1917822 -0.76238465
-1.6016096 -3.1828887 -0.76260436
-1.6206652 -3.172133 -0.76238465
-1.6441436 -3.1699219 -0.76436174
-1.6621987 -3.1571846 -0.76370269
-1.6806194 -3.1452055 -0.76326334
-1.6980251 -3.1314044 -0.76238465
-1.7172071 -3.1209266 -0.76238465
-1.7368002 -3.1111829 -0.76260436
-1.7577814 -3.1038625 -0.76348305
-1.7816556 -3.1014762 -0.76567978
-1.8026179 -3.093857 -0.76655847
-1.8285195 -3.0944943 -0.76963395
-1.8474724 -3.0832167 -0.76963395
-1.8678764 -3.0743234 -0.770293
-1.8836334 -3.0578218 -0.76897496
-1.9008093 -3.0437245 -0.76831591
-1.9220599 -3.0361247 -0.76941431
-1.9411801 -3.0250947 -0.76963395
-1.9549158 -3.0057683 -0.76765686
-1.9738592 -2.9945309 -0.76787657
-1.9894854 -2.978308 -0.76677817
-2.0082695 -2.9668522 -0.76699787
-2.0286443 -2.9576912 -0.76787657
-2.0450833 -2.9427853 -0.76721752
-2.0625393 -2.929384 -0.76699787
-2.0821753 -2.9190555 -0.76765686
-2.1000471 -2.9062245 -0.76765686
-2.1178398 -2.8932841 -0.76765686
-2.1355526 -2.8802347 -0.76765686
-2.1549437 -2.8694167 -0.76831591
-2.1707368 -2.8538115 -0.76765686
-2.1882067 -2.8404384 -0.76765686
-2.2049937 -2.8261893 -0.76743722
-2.2192681 -2.8087802 -0.76633883
-2.2346313 -2.7928255 -0.76567978
-2.246196 -2.7722414 -0.76370269
-2.2594497 -2.7538826 -0.76238465
-2.271939 -2.7347157 -0.76084691
-2.2855349 -2.7169921 -0.75974852
-2.2996318 -2.6999474 -0.75886983
-2.3110561 -2.6798775 -0.75711244
-2.327456 -2.6656468 -0.75711244
-2.33989 -2.6469312 -0.75579435
-2.3463247 -2.6216233 -0.75249922
-2.3662982 -2.6115134 -0.75381732
-2.3730416 -2.5868833 -0.75074184
-2.3882055 -2.5715592 -0.75052214
-2.3985915 -2.5511727 -0.74876475
-2.4094901 -2.5314622 -0.74722701
-2.413466 -2.5046914 -0.74349254
-2.4185672 -2.4793639 -0.74019736
-2.4241345 -2.4547622 -0.73712194
-2.4377711 -2.4384625 -0.73668259
-2.4526873 -2.4234586 -0.73668259
-2.4612257 -2.4022331 -0.73470551
-2.4738116 -2.3850553 -0.73404646
-2.4820395 -2.3637784 -0.73206937
-2.4936533 -2.3458316 -0.73119068
-2.502996 -2.3258398 -0.72965294
-2.5136251 -2.3071408 -0.72855455
-2.5176125 -2.2825038 -0.72547907
-2.5359321 -2.2709165 -0.72679716
-2.5505495 -2.2559595 -0.72701681
-2.5636089 -2.2396257 -0.72679716
-2.570653 -2.2181199 -0.72482008
-2.5849576 -2.2029374 -0.72503972
-2.5954394 -2.1845231 -0.72416103
-2.5997894 -2.1610763 -0.72152495
-2.6039495 -2.1376586 -0.71888882
-2.6101947 -2.1161139 -0.71691173
-2.6078939 -2.0878692 -0.71251822
-2.6160626 -2.0681996 -0.71120018
-2.6217809 -2.0467083 -0.70922309
-2.6311984 -2.0282016 -0.7083444
-2.6373816 -2.0072942 -0.70658696
-2.6504285 -1.9916595 -0.70680666
-2.657897 -1.9718733 -0.70548856
-2.6683717 -1.9543753 -0.70504922
-2.6803133 -1.9379656 -0.70504922
-2.6850057 -1.9163848 -0.70307213
-2.6895342 -1.8948196 -0.70109504
-2.6938996 -1.8732711 -0.69911796
-2.6989067 -1.8522924 -0.69736058
-2.7045658 -1.8318697 -0.69582283
-2.7084537 -1.8103638 -0.69384575
-2.7146235 -1.7904898 -0.69252771
-2.7198336 -1.7700765 -0.69098997
-2.7265379 -1.7507206 -0.68989158
-2.7339315 -1.7318708 -0.68901289
-2.7403691 -1.7124796 -0.68791449
-2.7508249 -1.6956328 -0.68791449
-2.7603436 -1.6782156 -0.68769485
-2.7689152 -1.6602441 -0.6872555
-2.7698109 -1.6377646 -0.68483907
-2.7713783 -1.6158277 -0.68264228
-2.7829325 -1.5997642 -0.68308163
-2.7850559 -1.5783322 -0.68110454
-2.787873 -1.5574099 -0.67934716
-2.7913933 -1.5369828 -0.67780942
-2.7887645 -1.5133164 -0.67473394
-2.7902534 -1.492039 -0.67275685
-2.7941761 -1.4721637 -0.67143881
-2.7953622 -1.4509492 -0.66946173
-2.8016062 -1.4324385 -0.66880268
-2.8068566 -1.4134673 -0.66792399
-2.8137283 -1.395352 -0.66748464
-2.8204834 -1.3772055 -0.6670453
-2.827122 -1.3590287 -0.66660595
-2.8257058 -1.33707 -0.66418952
-2.8258958 -1.316003 -0.66221243
-2.8365786 -1.299857 -0.66287148
-2.8400533 -1.2804245 -0.66177309
-2.838937 -1.2590225 -0.6595763
-2.8457143 -1.2411897 -0.65935665
-2.8586569 -1.2260104 -0.66067469
-2.8724194 -1.2110978 -0.66221243
-2.8852048 -1.1956891 -0.66353047
-2.8997164 -1.1809043 -0.66528791
-2.9096253 -1.164176 -0.6659469
-2.9230704 -1.1487964 -0.66748464
-0.27844375 -0.1085943 -0.027568638
-0.27363038 -0.10481176 -0.026250584
-0 -0 -0
-0.26573023 -0.098104894 -0.024053825
-0.2672458 -0.096801035 -0.0242735
-0.26967594 -0.095805101 -0.024712851
-0.27302644 -0.095100142 -0.025371879
-0.2763783 -0.094357647 -0.026030907
-0.28065765 -0.093883395 -0.026909612
-0.28308493 -0.09275984 -0.027348964
-0.28085852 -0.09013778 -0.026689935
-0.28140631 -0.088412762 -0.026689935
-0.28007627 -0.0861184 -0.026250584
-0.27966407 -0.084120989 -0.026030907
-0.27642688 -0.081317291 -0.025152205
-0.27598193 -0.079353854 -0.024932528
-0.27552336 -0.077398956 -0.024712851
-0.27693495 -0.075961158 -0.024932528
-0.26890519 -0.072024398 -0.022955444
-0.2721768 -0.071101055 -0.023614472
-0.27260795 -0.069429666 -0.023614472
-0.25975937 -0.064521 -0.02053901
-0.26299801 -0.06360162 -0.021198036
-0 -0 -0
-0.2628068 -0.060155876 -0.020978361
-0.26698378 -0.059373062 -0.021857064
-0.26925197 -0.058137491 -0.022296418
-0 -0 -0
-0 -0 -0
-0 -0 -0
-0.2648429 -0.050441924 -0.020978361
-0 -0 -0
-0 -0 -0
-0 -0 -0
-0 -0 -0
-0 -0 -0
-0 -0 -0
-0 -0 -0
-0 -0 -0
-0 -0 -0
-0 -0 -0
-0 -0 -0
-0 -0 -0
-0.26802009 -0.029178208 -0.020978361
-0 -0 -0
-0 -0 -0
-0 -0 -0
-0.28227025 -0.023677507 -0.024053825
-0.27949139 -0.021730356 -0.023394797
-0.27767274 -0.019883808 -0.022955444
-0 -0 -0
-0.27594763 -0.016367529 -0.022516092
-0.27409407 -0.014578681 -0.022076741
-0.26930496 -0.012688108 -0.020978361
-0 -0 -0
-0.27821645 -0.0096499724 -0.022955444
-0 -0 -0
-0.28124017 -0.006288399 -0.023614472
-0.28224894 -0.0045744036 -0.023834148
-0 -0 -0
-0 0 -0
-0 0 -0
-0.28130069 0.0023415468 -0.023614472
-0.27933022 0.004031234 -0.02317512
-0.27832496 0.0057209632 -0.022955444
-0.28120995 0.0075189765 -0.023614472
-0.2782338 0.0091360081 -0.022955444
-0.27817252 0.010843046 -0.022955444
-0.27615196 0.012453556 -0.022516092
-0.27314812 0.013985643 -0.021857064
-0 0 -0
-0.27392927 0.017402526 -0.022076741
-0 -0 -0
-0 -0 -0
-0 -0 -0
-0 -0 -0
-0 -0 -0
-0 0 -0
-0 0 -0
-0 0 -0
-0 0 -0
-0 0 -0
-0 0 -0
-0 0 -0
-0 0 -0
-0 0 -0
-0 0 -0
-0 0 -0
-0 0 -0
-0 0 -0
-0 0 -0
-0 0 -0
-0 0 -0
-0 0 -0
-0 0 -0
-0 0 -0
-0 0 -0
-0 0 -0
-0 0 -0
-0 0 -0
-0 0 -0
-0 0 -0
-0 0 -0
-0 0 -0
-0 0 -0
-0 0 -0
-0 0 -0
-0 0 -0
-0 0 -0
-0 0 -0
-0 0 -0
-0 0 -0
-0 0 -0
-0 0 -0
-0 0 -0
-0 0 -0
-0 0 -0
-0 0 -0
-0 0 -0
-0 0 -0
-0 0 -0
-0 0 -0
-0 0 -0
-0 0 -0
-0 0 -0
-0 0 -0
-0 0 -0
-0 0 -0
-0 0 -0
-0 0 -0
-0 0 -0
-0 0 -0
-0 0 -0
-0 0 -0
-0 0 -0
-0 0 -0
-0 0 -0
-0 0 -0
-0 0 -0
-0 0 -0
-0 0 -0
-0 0 -0
-0 0 -0
-0 0 -0
-0 0 -0
-0 0 -0
-0 0 -0
-0 0 -0
-0 0 -0
-0 0 -0
-0 0 -0
-0 0 -0
-0 0 -0
-0 0 -0
-0 0 -0
-0 0 -0
-0 0 -0
-0 0 -0
-0 0 -0
-0 0 -0
-0 0 -0
-0 0 -0
-0 0 -0
-0 0 -0
-0 0 -0
-0 0 -0
-0 0 -0
-0 0 -0
-0 0 -0
-0 0 -0
-0 0 -0
-0 0 -0
-0 0 -0
-0 0 -0
-0.26012725 0.17885047 -0.03492932
-0 0 -0
-0.23881707 0.16858724 -0.029391823
-0.24015476 0.17174427 -0.03008401
-0.26591313 0.19258788 -0.037928797
-0.27100816 0.19881293 -0.03977463
-0.24164288 0.17961226 -0.031468384
-0.28021955 0.210887 -0.043235566
-0.24174407 0.18433103 -0.032160573
-0.28686109 0.22143459 -0.046004318
-0.23946385 0.18728372 -0.032160573
-0.28412214 0.22493814 -0.046004318
-0.26678044 0.21391308 -0.041159008
-0.26773107 0.2173834 -0.041851193
-0.25285077 0.20791435 -0.037698071
-0.2672888 0.22251761 -0.042543381
-0.26815245 0.22603232 -0.043235566
-0.26676047 0.22767341 -0.043235566
-0.26462156 0.22867057 -0.043004837
-0.26321349 0.23028994 -0.043004837
-0.26325363 0.23318939 -0.043466296
-0.28792185 0.25815815 -0.051772542
-0.28777462 0.26122648 -0.052234001
-0.28616634 0.26298729 -0.052234001
-0.27385163 0.25480723 -0.048773065
-0.28504446 0.26847848 -0.05292619
-0.28268686 0.26955166 -0.052695461
-0.28172833 0.27195621 -0.05292619
-0.28075093 0.27435911 -0.05315692
-0.2659066 0.26308769 -0.048773065
-0.26635191 0.26677787 -0.049465254
-0.26539391 0.26909924 -0.049695984
-0.27597237 0.28325522 -0.053849105
-0.24653713 0.25622627 -0.044389214
-0.25972462 0.27323413 -0.049465254
-0.26937827 0.28686967 -0.053387649
-0.24641594 0.26570988 -0.046004318
-0.24478093 0.26721686 -0.046004318
-0.25098005 0.27736339 -0.048773065
-0.23628992 0.26440218 -0.044158485
-0 0 -0
-0.22982635 0.26361838 -0.043004837
-0 0 -0
-0 0 -0
-0.23370799 0.27822524 -0.046235047
-0.23075232 0.27815762 -0.045773588
-0 0 -0
-0 0 -0
-0 0 -0
-0 0 -0
-0 0 -0
-2.0923619 2.714596 -0.77280092
-2.0915787 2.7482874 -0.77903062
-2.077599 2.7649586 -0.78018427
-2.0675523 2.7870312 -0.78295302
-2.0515625 2.8012347 -0.78341448
-2.0337658 2.8129818 -0.78318375
-2.0221207 2.8333271 -0.78549105
-1.9990929 2.8377273 -0.78318375
-1.9855323 2.8555319 -0.78479886
-1.9696257 2.8700678 -0.78549105
-1.9448838 2.8716266 -0.78249156
-1.9288496 2.8859329 -0.78318375
-1.9094981 2.8952773 -0.78249156
-1.8901047 2.9044926 -0.78179938
-1.8711958 2.914398 -0.78133792
-1.8511951 2.9225368 -0.780415
-1.8352908 2.9371409 -0.78133792
-1.8182555 2.9500034 -0.78179938
-1.7960761 2.9544535 -0.77995354
-1.7784145 2.9662528 -0.78018427
-1.7577039 2.9729216 -0.77903062
-1.7404096 2.9853318 -0.77949208
-1.7220592 2.9959545 -0.77949208
-1.708442 3.0149293 -0.78179938
-1.6903852 3.0262048 -0.78203011
-1.6750705 3.0424862 -0.78364521
-1.6586914 3.0569828 -0.78479886
-1.639444 3.0662448 -0.78456813
-1.6192381 3.0736642 -0.78387594
-1.600348 3.0835416 -0.78387594
-1.5840558 3.098501 -0.78526032
-1.5672023 3.1125073 -0.78641397
-1.5493718 3.12468 -0.78710616
-1.531024 3.1358767 -0.78756762
-1.5117538 3.1452117 -0.78756762
-1.4899293 3.1491516 -0.78618324
-1.4677026 3.15206 -0.78456813
-1.4442803 3.1521609 -0.78226084
-1.4205122 3.1512065 -0.77972281
-1.4027281 3.1634212 -0.78064573
-1.3817351 3.168401 -0.77972281
-1.3603503 3.1723485 -0.77856916
-1.3382128 3.1743598 -0.77695405
-1.3187102 3.1825111 -0.77695405
-1.2951202 3.1806302 -0.77441603
-1.2773875 3.1930339 -0.77556968
-1.2567034 3.1980951 -0.77487749
-1.2349542 3.2002995 -0.77349311
-1.2121909 3.1996279 -0.77141654
-1.1921962 3.2060935 -0.77118582
-1.1708335 3.2087781 -0.77003217
-1.1501386 3.2131538 -0.76933998
-1.1339477 3.2302489 -0.771878
-1.1112552 3.2288659 -0.76980144
-1.0936 3.2420771 -0.77141654
-1.0727701 3.2459548 -0.77072436
-1.0474373 3.2358136 -0.76657128
-1.0293275 3.2477448 -0.76795566
-1.0088036 3.2521408 -0.7674942
-0.98769915 3.2545455 -0.76657128
-0.97186542 3.2745361 -0.77003217
-0.95338231 3.2860444 -0.77141654
-0.93213964 3.2880878 -0.77049363
-0.91168702 3.2928078 -0.7702629
-0.89146554 3.2983398 -0.7702629
-0.87096232 3.3028069 -0.77003217
-0.84922564 3.3024349 -0.76864785
-0.83154947 3.3179653 -0.77118582
-0.085597619 0.35213009 -0.046004318
-0.79032022 3.3260264 -0.77072436
-0.77691287 3.3611491 -0.7781077
-0.75435382 3.3573089 -0.77603114
-0.73560786 3.37043 -0.7781077
-0.71491349 3.3748801 -0.7781077
-0.69203717 3.3687191 -0.77556968
-0.67192423 3.3757648 -0.77626187
-0.64843529 3.3654928 -0.77280092
-0.62527621 3.3560166 -0.76957071
-0.60208541 3.3454258 -0.76610982
-0.58038092 3.3423467 -0.76449472
-0.5605045 3.3496835 -0.76541764
-0 0 -0
-0.51518714 3.329386 -0.75895721
-0.49632177 3.3430715 -0.76149523
-0.47552553 3.3441272 -0.76103377
-0.45486623 3.3460178 -0.76080304
-0.43482792 3.3526056 -0.76172596
-0.41281646 3.3436224 -0.75895721
-0.39149874 3.3393278 -0.7573421
-0.37078667 3.3397331 -0.75688064
-0.34927204 3.3322682 -0.75457335
-0.32748058 3.3207922 -0.75134313
-0.30682942 3.3198326 -0.75065094
-0.28628612 3.3197138 -0.75018948
-0.26513368 3.3117089 -0.74788219
-0.24588563 3.3278289 -0.75134313
-0.22546183 3.3292749 -0.75134313
-0.20532903 3.3354516 -0.75249678
-0.1852368 3.3434494 -0.75411189
-0.16500615 3.350354 -0.75549626
-0.14494981 3.3629687 -0.75826502
-0.12442043 3.3667119 -0.75895721
-0.10354977 3.360604 -0.7573421
-0.083023995 3.365067 -0.75826502
-0.062157046 3.3538389 -0.75549626
-0.041540589 3.3512383 -0.75480407
