# .PCD v0.7 - Point Cloud Data file format
VERSION 0.7
FIELDS x y z
SIZE 4 4 4
TYPE F F F
COUNT 1 1 1
WIDTH 1633
HEIGHT 1
VIEWPOINT 0 0 0 1 0 0 0
POINTS 1633
DATA ascii
-0.27776873 -0.0079304697 0.0031134591
-0 -0 -0
-0 -0 -0
-0 -0 -0
-0.29176959 -0.0011085678 0.001361218
-0.2897867 0.00066915288 0.0016115382
-0 0 -0
-0 0 -0
-0.28575793 0.0059048929 0.0021121786
-0 0 -0
-0.2826896 0.0093010003 0.0024876588
-0 0 -0
-0 0 -0
-0.27751744 0.014228037 0.0031134591
-0 0 -0
-0 0 -0
-0 -0 -0
-0 -0 -0
-0 -0 -0
-0 -0 -0
-0 -0 -0
-0 0 -0
-0 0 -0
-0 0 -0
-0 0 -0
-0 0 -0
-0 0 -0
-0 0 -0
-0 0 -0
-0 0 -0
-0 0 -0
-0 0 -0
-0 0 -0
-0 0 -0
-0 0 -0
-0 0 -0
-0 0 -0
-0 0 -0
-0 0 -0
-0 0 -0
-0 0 -0
-0 0 -0
-0 0 -0
-0 0 -0
-0 0 -0
-0 0 -0
-0 0 -0
-0 0 -0
-0 0 -0
-0 0 -0
-0 0 -0
-0 0 -0
-0 0 -0
-0 0 -0
-0 0 -0
-0 0 -0
-0 0 -0
-0 0 -0
-0 0 -0
-0 0 -0
-0 0 -0
-0 0 -0
-0 0 -0
-0 0 -0
-0 0 -0
-0 0 -0
-0 0 -0
-0 0 -0
-0 0 -0
-0 0 -0
-0 0 -0
-0 0 -0
-0 0 -0
-0 0 -0
-0 0 -0
-0 0 -0
-0 0 -0
-0 0 -0
-0 0 -0
-0 0 -0
-0 0 -0
-0 0 -0
-0 0 -0
-0 0 -0
-0 0 -0
-0 0 -0
-0 0 -0
-0 0 -0
-0 0 -0
-0 0 -0
-0 0 -0
-0 0 -0
-0 0 -0
-0 0 -0
-0 0 -0
-0 0 -0
-0 0 -0
-0 0 -0
-0 0 -0
-0 0 -0
-0 0 -0
-0 0 -0
-0 0 -0
-0 0 -0
-0 0 -0
-0 0 -0
-0 0 -0
-0 0 -0
-0 0 -0
-0 0 -0
-0 0 -0
-0 0 -0
-0 0 -0
-0 0 -0
-0 0 -0
-0 0 -0
-0 0 -0
-0 0 -0
-0 0 -0
-0 0 -0
-0 0 -0
-0 0 -0
-0 0 -0
-0 0 -0
-0 0 -0
-0 0 -0
-0 0 -0
-0 0 -0
-0 0 -0
-0 0 -0
-0 0 -0
-0 0 -0
-0 0 -0
-0 0 -0
-0 0 -0
-0.27140158 0.23154737 -0.010949072
-0.23395918 0.20216623 -0.0043766294
-0.26853973 0.23486045 -0.010949072
-0.2670936 0.23650376 -0.010949072
-0.2501328 0.22426952 -0.0080736289
-0.24508075 0.22247544 -0.0073889992
-0.24517137 0.22531387 -0.0076628509
-0.23507187 0.21872731 -0.0060197399
-0.23372535 0.22016557 -0.0060197399
-0.24098255 0.22978851 -0.0076628509
-0.27381635 0.26424551 -0.014235294
-0.26367849 0.2576226 -0.012592183
-0.26561788 0.26271486 -0.013276813
-0.24858467 0.24893628 -0.010264443
-0.24705255 0.25045687 -0.010264443
-0.22405627 0.22999826 -0.0060197399
-0.24808684 0.25774735 -0.011085998
-0.26836765 0.2822133 -0.015467627
-0.26663098 0.28385466 -0.015467627
-0 0 -0
-0.24570686 0.26813567 -0.011907553
-0.26269203 0.29018176 -0.015741479
-0.26355067 0.29473922 -0.016289182
-0.26764557 0.30302706 -0.017521515
-0.26121774 0.29944283 -0.016563034
-0.24060288 0.27929553 -0.012592183
-0 0 -0
-0 0 -0
-0 0 -0
-0 0 -0
-0 0 -0
-0 0 -0
-0 0 -0
-0 0 -0
-3.3349144 4.3247261 -0.71652824
-3.3575268 4.4097309 -0.72775614
-3.3702903 4.4832969 -0.73693019
-3.347441 4.5102553 -0.73802561
-3.3337562 4.5498862 -0.74131179
-3.2993891 4.5614276 -0.73980564
-3.2880332 4.6049643 -0.7437765
-3.2711303 4.6412458 -0.74651498
-3.2329731 4.6474061 -0.74418724
-3.228508 4.7022691 -0.75007504
-3.2134879 4.7424908 -0.7534982
-3.2058043 4.7942324 -0.7588383
-3.1774185 4.8154659 -0.75911218
-3.179703 4.8838477 -0.76719081
-3.1753769 4.9432697 -0.77376324
-3.1497586 4.9701905 -0.77499557
-3.126555 5.0011821 -0.77691257
-3.1124494 5.0472522 -0.78129417
-3.0608289 5.032403 -0.77581716
-3.0472198 5.0799699 -0.78047264
-3.0079222 5.0849309 -0.77828181
-3.0021217 5.1469288 -0.78526503
-2.9734476 5.1704044 -0.78608656
-2.9573021 5.216126 -0.79046822
-2.9117081 5.2099624 -0.78663427
-2.8844655 5.2364068 -0.78800356
-2.8678794 5.2827344 -0.79252207
-2.8428881 5.3142066 -0.7947129
-2.8019121 5.3157773 -0.79224825
-2.7779171 5.3495722 -0.79484981
-2.7472963 5.3709259 -0.79553449
-2.7258785 5.4106822 -0.79909456
-2.7080386 5.4583631 -0.80388695
-2.6727564 5.4713163 -0.80333924
-2.6365583 5.4822574 -0.80251771
-2.6092288 5.5117612 -0.80457157
-2.5841465 5.5465226 -0.80744702
-2.5513036 5.5649757 -0.80785781
-2.5207758 5.5886521 -0.80909014
-2.488044 5.6076355 -0.80963784
-2.4599292 5.6373224 -0.81182867
-2.421777 5.6441178 -0.81059629
-2.382479 5.6479192 -0.80895323
-2.3481586 5.6633463 -0.80909014
-2.3182247 5.6895733 -0.81087017
-2.2939484 5.7303591 -0.81484103
-2.2634575 5.7563105 -0.81662107
-2.2245259 5.76085 -0.81525177
-2.1986189 5.7993994 -0.81894881
-2.1664484 5.8220639 -0.82031804
-2.1334026 5.8426914 -0.82141346
-2.0965099 5.8528743 -0.82100266
-2.061543 5.8684316 -0.82141346
-2.0158172 5.8528733 -0.81730568
-1.9836693 5.8763943 -0.81894881
-1.9503751 5.8969197 -0.82018113
-1.9077435 5.8889866 -0.81730568
-1.878463 5.922298 -0.82045496
-1.8385642 5.9223604 -0.81881189
-1.800175 5.9268951 -0.81785339
-1.7773162 5.983408 -0.82442582
-1.7400167 5.9922986 -0.82415199
-1.6994296 5.989521 -0.82223499
-1.6549733 5.9721527 -0.81826419
-1.6149342 5.9697642 -0.81648415
-1.5856069 6.0073361 -0.82045496
-1.5484698 6.0159926 -0.82031804
-1.5151436 6.0397925 -0.82237196
-1.4789964 6.052825 -0.82291967
-1.4372435 6.0425124 -0.82018113
-1.3952262 6.0299859 -0.81716877
-1.3536345 6.0181384 -0.81429332
-1.3088567 5.9905243 -0.80922705
-1.2718694 5.9974737 -0.80909014
-1.2352452 6.006135 -0.80922705
-1.2028232 6.0359449 -0.81237638
-1.1601338 6.0140328 -0.80826855
-1.1317514 6.0668049 -0.81470412
-1.0925717 6.0629115 -0.81319791
-1.0548406 6.0665736 -0.81278712
-1.0195621 6.0846553 -0.81443024
-0.98347032 6.0986199 -0.81552565
-0.94982547 6.1290121 -0.81894881
-0.91249222 6.1366839 -0.81922263
-0.87412232 6.1372643 -0.81853801
-0.8316344 6.1071777 -0.81360871
-0.79159194 6.0925193 -0.81087017
-0.75650567 6.1159401 -0.81347173
-0.71861786 6.1175156 -0.813061
-0.67591709 6.0755382 -0.80662549
-0.63790071 6.0726752 -0.80566698
-0.60209 6.0912614 -0.8077209
-0.56214273 6.0672231 -0.80388695
-0.52268404 6.044899 -0.80032688
-0.48828098 6.0815639 -0.80498236
-0.44985682 6.0696273 -0.80292845
-0.41099256 6.0485544 -0.79964226
-0.37442198 6.0598607 -0.80087459
-0.33557975 6.0323725 -0.79676682
-0.30012801 6.0659776 -0.80114841
-0.26479176 6.1112494 -0.80717319
-0.2257034 6.0701938 -0.80128533
-0.18977737 6.1140389 -0.80717319
-0.15008336 6.0279441 -0.7951237
-0.113448 6.0475693 -0.79772526
-0.076414078 6.0540948 -0.79854685
-0.039336786 6.0653458 -0.800053
-0.0021070563 6.0347648 -0.79580832
0.034768581 6.0079188 -0.79211134
0.071279466 5.9778771 -0.78800356
0.10735171 5.9436531 -0.78334808
0.14444065 5.9686298 -0.78690815
0.17800325 5.8666382 -0.77294171
0.21381667 5.860486 -0.77225709
0.24884519 5.8372908 -0.76924467
0.28451288 5.8326855 -0.76883394
0.32051325 5.8347864 -0.76938164
0.3566708 5.8386426 -0.77020317
0.39222372 5.8323908 -0.76965547
0.43140894 5.876307 -0.77609098
0.46086127 5.7906022 -0.76458919
0.49088535 5.7235126 -0.75568902
0.52671999 5.7282844 -0.75678444
0.56050456 5.7111425 -0.75486749
0.59533149 5.7056255 -0.75459361
0.63348383 5.7304182 -0.75856447
0.66197383 5.6693568 -0.75062275
0.6939683 5.6425753 -0.74747348
0.72768927 5.6313338 -0.74651498
0.75930488 5.6051674 -0.74350262
0.79271072 5.5935373 -0.74254411
0.82614744 5.5826883 -0.74172258
0.86627376 5.6156955 -0.74706268
0.89930212 5.6014719 -0.74583036
0.93658835 5.6134362 -0.74829501
0.96560782 5.5763493 -0.74391341
0.98791003 5.5040188 -0.73460245
0.98873746 5.3206 -0.70968193
1.0095917 5.2531471 -0.70105559
1.0234846 5.1545486 -0.68804765
1.0316337 5.0336614 -0.67189038
1.0555384 4.9942842 -0.6672349
1.0657248 4.893826 -0.65395308
1.0898836 4.8610964 -0.6502561
1.1187999 4.8504567 -0.64970839
1.1423717 4.8174758 -0.64601141
1.1728472 4.8142257 -0.64655912
1.1985199 4.7915626 -0.64436829
1.2128806 4.7255888 -0.63601577
1.2370641 4.6998563 -0.63341421
1.264073 4.6854825 -0.63245571
1.2964921 4.6910052 -0.63437271
1.3212062 4.6686645 -0.63231879
1.3473482 4.651906 -0.63108647
1.3617997 4.5960617 -0.62424016
1.3902621 4.5885677 -0.62437707
1.4224924 4.5931983 -0.62629408
1.4458686 4.5692725 -0.62410325
1.4732689 4.5584297 -0.62382936
1.4934527 4.5257859 -0.62040627
1.5167688 4.5033941 -0.61848927
1.543407 4.4911923 -0.61807853
1.5771598 4.4993997 -0.62068009
1.6030712 4.4849734 -0.61999547
1.6400536 4.5011139 -0.62382936
1.6548853 4.4566059 -0.61876315
1.6814984 4.4445148 -0.61848927
1.7112308 4.4405837 -0.61944777
1.739169 4.4318447 -0.61972159
1.769269 4.4284492 -0.62081701
1.7882005 4.3973217 -0.61780465
1.8177992 4.392674 -0.61876315
1.8447179 4.3814378 -0.61876315
1.8653287 4.3554664 -0.61657232
1.8983459 4.35847 -0.61876315
1.9270586 4.3512688 -0.61944777
1.9468089 4.324007 -0.61712003
1.9708312 4.3065753 -0.61629844
1.9926245 4.2845211 -0.61479229
2.0159142 4.2659445 -0.61383379
2.0446234 4.258853 -0.61465538
2.0872133 4.2800617 -0.61985856
2.1121173 4.2645111 -0.61944777
2.1431391 4.2612062 -0.62095392
2.1705964 4.2506227 -0.62136471
2.1929901 4.2301884 -0.6202693
2.2225945 4.2236662 -0.62136471
2.2568674 4.2256775 -0.62382936
2.2822812 4.2108793 -0.62369245
2.3037801 4.1889839 -0.62246013
2.3318529 4.1790948 -0.62314475
2.3589151 4.1672945 -0.62355554
2.382468 4.1493058 -0.62300783
2.4063876 4.132041 -0.62259704
2.4473102 4.1436396 -0.62684178
2.4884651 4.154891 -0.63108647
2.5103135 4.1336169 -0.63012797
2.5340717 4.1156054 -0.62971723
2.5771086 4.128551 -0.63437271
2.6082182 4.1218686 -0.63587886
2.6297174 4.0999503 -0.63492036
2.67048 4.1078238 -0.63889122
2.6994495 4.0971513 -0.63984972
2.7261882 4.0829821 -0.64026052
2.7517447 4.066998 -0.64039743
2.7811279 4.0565734 -0.64149284
2.8099217 4.0451279 -0.64245129
2.84267 4.0391521 -0.64436829
2.8806255 4.0401855 -0.64751756
2.9158006 4.0368896 -0.64998221
2.950458 4.0325141 -0.65230995
2.9916589 4.0366192 -0.6561439
3.0211279 4.0245247 -0.65723932
3.0553567 4.0185289 -0.65943015
3.0793521 3.9989212 -0.65929317
3.1074858 3.9846385 -0.66011477
3.1613436 4.0028124 -0.66668719
3.1914127 3.9903023 -0.66791952
3.2120962 3.9660261 -0.66709799
3.2539577 3.96769 -0.67093188
3.2946942 3.9674647 -0.674492
3.3368249 3.9684043 -0.67832589
3.3598275 3.9463468 -0.67805207
3.418901 3.9661756 -0.68544602
3.4425213 3.9443765 -0.68530911
3.4515736 3.9061053 -0.68215984
3.4840615 3.8944514 -0.68393987
3.5138762 3.8796084 -0.6851722
3.540962 3.8616254 -0.68585682
3.5706549 3.84636 -0.68708915
3.5982585 3.8287098 -0.68791074
3.6326072 3.8180425 -0.6901015
3.6738315 3.8142326 -0.69366157
3.7213686 3.8164432 -0.69845402
3.7767246 3.8259685 -0.70475262
3.830236 3.8328545 -0.71064043
3.8727019 3.8280842 -0.71433741
3.9180872 3.8257046 -0.71858209
3.9635887 3.8229113 -0.72282684
4.0135055 3.8238027 -0.72789305
4.0578103 3.8187933 -0.73186392
4.1116357 3.8221519 -0.73761481
4.1590872 3.8189623 -0.74213338
4.2117896 3.8199923 -0.74761039
4.2580199 3.814569 -0.75185508
4.3021164 3.806752 -0.75568902
4.3500051 3.8017964 -0.76020759
4.3972445 3.7957485 -0.76458919
4.4332662 3.7796221 -0.76691693
4.4639511 3.7587297 -0.76828623
4.4953079 3.7382364 -0.76979238
4.5036163 3.6986372 -0.76719081
4.5039163 3.6528373 -0.76321995
4.5502114 3.6443312 -0.76746464
4.5755949 3.6188011 -0.76801234
4.5953712 3.5888283 -0.76760161
4.6149521 3.5587492 -0.76719081
4.6233039 3.5201633 -0.76486307
4.6218553 3.4744656 -0.76089221
4.6200204 3.4289188 -0.75692135
4.6433702 3.4022629 -0.75733215
4.6906438 3.392868 -0.76185071
4.6436586 3.315666 -0.75034893
4.7068272 3.3173587 -0.75760597
4.7238407 3.2861528 -0.75705826
4.7194176 3.2402837 -0.75295049
4.7720113 3.2334938 -0.75842756
4.8032899 3.2118618 -0.76034451
4.8129859 3.1757815 -0.75870138
4.8182697 3.1370008 -0.75637364
4.8815975 3.1357551 -0.76363075
4.9149699 3.1147585 -0.76595849
4.933989 3.084542 -0.76595849
4.9022355 3.0230098 -0.75774294
4.9799328 3.0289104 -0.76732773
4.9576507 2.9738357 -0.7607553
4.9800673 2.9458821 -0.76143992
4.9929156 2.9122746 -0.76061839
4.9797788 2.8638036 -0.75568902
5.005012 2.8375919 -0.75692135
5.0413518 2.8174613 -0.75993371
5.0281777 2.7697451 -0.75514132
5.0755467 2.755384 -0.75993371
5.0871172 2.7213852 -0.75911218
5.1107297 2.6938157 -0.76020759
5.1385908 2.6683414 -0.76198763
5.1751499 2.6471381 -0.7651369
5.1886411 2.613997 -0.76472616
5.2178926 2.5887156 -0.76678002
5.2363486 2.557955 -0.76719081
5.2626576 2.5309298 -0.76883394
5.2252655 2.4735811 -0.7607553
5.2277741 2.4356153 -0.7588383
5.3029494 2.4311554 -0.76801234
5.2690077 2.3765745 -0.76061839
5.2997885 2.3514321 -0.76308304
5.3113933 2.3176804 -0.76267225
5.330976 2.2873905 -0.76349378
5.3366971 2.2511716 -0.76226145
5.3659649 2.2248347 -0.76458919
5.3419046 2.1765406 -0.75897527
5.3661942 2.1481407 -0.76061839
5.3156662 2.0901577 -0.75117046
5.4309616 2.0971167 -0.76636922
5.4418745 2.0630512 -0.7660954
5.4284363 2.0199471 -0.76226145
5.4211884 1.9794645 -0.759386
5.4332323 1.9461634 -0.759386
5.4422674 1.911804 -0.75897527
5.4520226 1.8777297 -0.75870138
5.4915977 1.8537477 -0.76280916
5.4849997 1.8141057 -0.76020759
5.4960275 1.7804164 -0.76020759
5.5181789 1.7502544 -0.76185071
5.4975958 1.7066687 -0.75733215
5.5174422 1.6757834 -0.75870138
5.5494609 1.6483862 -0.76185071
5.5699344 1.6173435 -0.76335686
5.5406828 1.5720483 -0.75774294
5.5950899 1.5504577 -0.76417845
5.6140599 1.5186851 -0.76554769
5.5274963 1.458923 -0.75185508
5.5488148 1.4281902 -0.75363517
5.5824542 1.4003848 -0.75719523
5.5312819 1.3515234 -0.7487058
5.5693445 1.3246664 -0.75295049
5.5445557 1.2828741 -0.74829501
5.607409 1.2612232 -0.75609982
5.5937519 1.22214 -0.75308746
5.5788579 1.1830665 -0.74993813
5.6723652 1.1665784 -0.76212454
5.6104422 1.1180019 -0.75240278
5.5734282 1.0751098 -0.74624115
5.5760245 1.0401648 -0.74569345
5.6212969 1.012961 -0.75117046
5.6254544 0.97811079 -0.75089663
5.6108341 0.94013619 -0.74802119
5.5715122 0.89843374 -0.74172258
5.6973228 0.88289762 -0.75856447
5.6614814 0.84180123 -0.75281358
5.7253804 0.81543154 -0.76102912
5.60955 0.76383835 -0.74418724
5.6052904 0.72825521 -0.74295491
5.6794519 0.70248628 -0.75267667
5.6521735 0.6639244 -0.74829501
5.6206989 0.62528551 -0.74336571
5.6795983 0.59658456 -0.75103354
5.6910381 0.56250399 -0.75212896
5.6263247 0.52126366 -0.74268109
5.6343513 0.48715833 -0.74336571
5.5779905 0.44781697 -0.73515016
5.6616383 0.4195917 -0.74637806
5.716486 0.3884072 -0.75363517
5.6742706 0.35057229 -0.74747348
5.695107 0.31679565 -0.75007504
5.6900177 0.28150207 -0.7491166
5.7213273 0.24787179 -0.75322437
5.7583771 0.21408907 -0.75815368
5.7397799 0.17813638 -0.7554152
5.7338333 0.14274135 -0.7544567
5.6930041 0.10677348 -0.7487058
5.6549225 0.071349762 -0.74336571
5.6998291 0.03694246 -0.74952734
5.7157979 0.0019748395 -0.75171816
5.7285795 -0.03317035 -0.7534982
5.7243061 -0.06827265 -0.75295049
5.7505207 -0.10387626 -0.75664753
5.7378917 -0.13887204 -0.75500441
5.7428722 -0.17425632 -0.75582594
5.7515941 -0.20985115 -0.75719523
5.7462397 -0.24496982 -0.75664753
5.7485862 -0.28041625 -0.75719523
5.7279644 -0.31465259 -0.75459361
5.7427344 -0.35081846 -0.75692135
5.7118115 -0.38412306 -0.75295049
5.7656589 -0.42329317 -0.7607553
5.739254 -0.45677808 -0.75746906
5.6939039 -0.48834795 -0.75158125
5.7203932 -0.5259949 -0.75568902
5.7071991 -0.56011784 -0.75431979
5.687891 -0.59348232 -0.75212896
5.7254953 -0.63293993 -0.75787985
5.7096972 -0.66668123 -0.75623673
5.7300787 -0.70472395 -0.75965989
5.6892967 -0.73517525 -0.75459361
5.6306896 -0.7627604 -0.74706268
5.6955395 -0.80715913 -0.75678444
5.698319 -0.84325063 -0.75787985
5.6969538 -0.87880284 -0.75842756
5.68852 -0.91327125 -0.75801677
5.6720614 -0.94636565 -0.75651056
5.6807885 -0.98368514 -0.75856447
5.6687961 -1.0174737 -0.75774294
5.6225152 -1.0448202 -0.75212896
5.6461554 -1.0850931 -0.75637364
5.6248164 -1.116824 -0.75431979
5.5994196 -1.1475389 -0.75171816
5.5641665 -1.1759367 -0.7477473
5.6391191 -1.2279654 -0.759386
5.6401777 -1.2644929 -0.76061839
5.655479 -1.3044181 -0.76390457
5.6001391 -1.3278993 -0.75719523
5.6188345 -1.3687991 -0.76102912
5.6305108 -1.408296 -0.76390457
5.6044927 -1.4383863 -0.76143992
5.5878973 -1.4707313 -0.76034451
5.6007657 -1.5109229 -0.76349378
5.5808864 -1.5423583 -0.76198763
5.5951467 -1.5833143 -0.76541078
5.5872293 -1.6181667 -0.7656846
5.6094885 -1.6619842 -0.77034009
5.5233412 -1.6733996 -0.759386
5.5479813 -1.7180984 -0.76445228
5.5222235 -1.7473276 -0.76226145
5.5085707 -1.7802647 -0.76185071
5.4984841 -1.8143415 -0.76198763
5.4759822 -1.8442521 -0.76034451
5.4786158 -1.8826454 -0.76239842
5.5080938 -1.9306405 -0.76842314
5.4373765 -1.9434013 -0.7597968
5.4355884 -1.9804574 -0.76130301
5.4604802 -2.0275624 -0.76678002
5.4609079 -2.0659351 -0.76869696
5.4000621 -2.0808854 -0.76157683
5.4056354 -2.1212163 -0.76431537
5.4145961 -2.1631632 -0.76760161
5.404892 -2.1978381 -0.76814932
5.2942791 -2.1908183 -0.75363517
5.396687 -2.2720695 -0.7710247
5.3589683 -2.2950027 -0.76746464
5.3266211 -2.3199317 -0.76472616
5.3113804 -2.3521705 -0.76458919
5.3067837 -2.3891888 -0.7660954
5.3181467 -2.4336576 -0.77006626
5.292335 -2.4612315 -0.76842314
5.3192291 -2.5135467 -0.77485865
5.3099575 -2.5491381 -0.77581716
5.2755179 -2.5725548 -0.77294171
5.2143607 -2.5824583 -0.76595849
5.2639065 -2.6473351 -0.77609098
5.2352123 -2.6732781 -0.77417403
5.1764965 -2.6834702 -0.76760161
5.1494136 -2.7096474 -0.76595849
5.158031 -2.7547238 -0.76992935
5.1732554 -2.8037832 -0.77499557
5.1116858 -2.8111315 -0.76801234
5.0493569 -2.817348 -0.76089221
5.0259404 -2.844862 -0.75993371
5.0607939 -2.905731 -0.76828623
4.9940753 -2.9083176 -0.76048142
5.0196376 -2.9645936 -0.76746464
5.0506444 -3.0248544 -0.77540636
5.0159016 -3.0460196 -0.7728048
4.9777155 -3.0647955 -0.76965547
4.9689007 -3.1015739 -0.77129859
4.9321966 -3.1208823 -0.76842314
4.9304652 -3.1623166 -0.77129859
4.8627968 -3.1611986 -0.76335686
4.8871512 -3.2198582 -0.77061397
4.9010811 -3.2723343 -0.77622789
4.8686032 -3.2940195 -0.77417403
4.8335929 -3.3137496 -0.77170938
4.8326955 -3.3569071 -0.77499557
4.7998552 -3.3779461 -0.77294171
4.7758117 -3.4050338 -0.772394
4.7307372 -3.4168751 -0.76828623
4.6952915 -3.4353106 -0.76582158
4.6932259 -3.47821 -0.76910776
4.6559505 -3.4950488 -0.76636922
4.620223 -3.5127609 -0.76390457
4.6252685 -3.5615902 -0.76856005
4.6681657 -3.6404598 -0.77992493
4.634079 -3.659826 -0.77787101
4.6068935 -3.6844795 -0.77704948
4.5841994 -3.7126775 -0.77704948
4.5674601 -3.7457604 -0.7781449
4.5108576 -3.7458727 -0.77212012
4.4779315 -3.7651935 -0.77034009
4.5467687 -3.870934 -0.78704506
4.5296845 -3.9045799 -0.78827739
4.4936996 -3.9218793 -0.78608656
4.4717779 -3.9513459 -0.78649735
4.4371123 -3.9694641 -0.78458041
4.4134068 -3.9972799 -0.78471732
4.3771143 -4.0135741 -0.78252649
4.345871 -4.0342908 -0.78129417
4.3268099 -4.0663075 -0.78238958
4.2931657 -4.0845866 -0.78074646
4.2701631 -4.1129136 -0.78115726
4.246974 -4.1411119 -0.78156805
4.2440453 -4.1893597 -0.78594965
4.2168584 -4.2139215 -0.78567582
4.1331196 -4.1812477 -0.77431095
4.1191516 -4.2185774 -0.77663869
4.1241374 -4.2758546 -0.78280038
4.1019235 -4.3053823 -0.78362191
4.0727134 -4.3275847 -0.7830742
4.0514789 -4.3582969 -0.78416961
4.0280108 -4.3867221 -0.78485423
4.0010185 -4.411355 -0.78485423
3.9864352 -4.4498396 -0.78745586
3.913759 -4.4230313 -0.77800792
3.8643808 -4.4216042 -0.77335244
3.8527136 -4.4632277 -0.77663869
3.8291116 -4.4913063 -0.77746028
3.8014812 -4.5147166 -0.77746028
3.7496378 -4.5090165 -0.77225709
3.7483075 -4.5640888 -0.77800792
3.7202322 -4.5870018 -0.77800792
3.2325001 -4.0360823 -0.67640895
3.2267251 -4.0799246 -0.68065363
3.1808987 -4.0731039 -0.67599815
3.1431425 -4.0760727 -0.6731227
2.7177832 -3.5696242 -0.58179313
2.6071312 -3.4682608 -0.56139117
2.5763547 -3.4714663 -0.55920035
2.5468082 -3.476023 -0.5572834
2.5132391 -3.4747303 -0.55440795
2.4746008 -3.4659019 -0.55030018
2.4378784 -3.4591601 -0.5466032
2.3668222 -3.4024975 -0.53455371
2.3358071 -3.4022574 -0.53208905
2.3098857 -3.4091456 -0.53085673
2.2911267 -3.4265482 -0.53140444
2.2716956 -3.443022 -0.53181517
2.2380946 -3.4378037 -0.5286659
2.205179 -3.4331367 -0.52565354
2.1766479 -3.4348893 -0.52373654
2.152905 -3.4439807 -0.52305192
2.1260128 -3.4478517 -0.52154577
2.0986392 -3.4506762 -0.51990265
2.070802 -3.4524455 -0.51812261
2.0435264 -3.4548562 -0.51647949
2.0153012 -3.4553511 -0.51456255
1.9891227 -3.459065 -0.51319325
1.9605317 -3.4582794 -0.51113939
1.9310588 -3.4555445 -0.50881165
1.9074296 -3.46299 -0.50812703
1.8833091 -3.4694054 -0.50730544
1.8512375 -3.4608073 -0.50415617
0 -0 -0
0 -0 -0
1.771431 -3.4634306 -0.49936375
1.7443517 -3.4627345 -0.49758372
1.7191093 -3.4653864 -0.49635139
1.6956394 -3.4714193 -0.49566674
0 -0 -0
1.6440102 -3.4731648 -0.4927913
0 -0 -0
0 -0 -0
1.5871344 -3.5190902 -0.49525598
1.5667171 -3.5314786 -0.49566674
1.5454152 -3.5419333 -0.49580368
1.5263877 -3.5577211 -0.49676216
1.5079949 -3.5752342 -0.49799448
1.4886855 -3.5908248 -0.49895298
0 -0 -0
0 -0 -0
1.4397403 -3.6618671 -0.50552541
1.4397284 -3.7288477 -0.51415175
1.4252506 -3.7598412 -0.51743799
1.4090643 -3.7870829 -0.52017647
1.3902183 -3.8077536 -0.5219565
1.3745126 -3.8376606 -0.52510583
0 -0 -0
1.3402205 -3.8917017 -0.53058285
1.3223369 -3.9176838 -0.53318447
1.3054293 -3.9473543 -0.53633374
0 -0 -0
1.2739654 -4.0168962 -0.54413849
1.3030511 -4.1977596 -0.56919599
1.2798611 -4.2142062 -0.57042831
1.2678032 -4.2685084 -0.57713765
1.2567842 -4.328527 -0.58466858
0 -0 -0
0 -0 -0
1.5585301 -5.7613139 -0.78663427
1.5100012 -5.7209644 -0.77951413
1.4743756 -5.7282038 -0.77924031
1.4481206 -5.7726917 -0.78430653
1.4058523 -5.7535629 -0.78033566
1.3684591 -5.753408 -0.77910334
1.3413955 -5.7974038 -0.78416961
1.2955785 -5.7601037 -0.7777341
1.2540771 -5.7398801 -0.77376324
1.2282902 -5.7920418 -0.78006184
1.1707703 -5.6927409 -0.76499999
1.1652539 -5.8474803 -0.78581274
1.1115218 -5.7621198 -0.7728048
1.0897743 -5.8418641 -0.7830742
1.048988 -5.8211446 -0.77924031
1.0303957 -5.9260402 -0.79306978
0.98353386 -5.8697262 -0.78430653
0.95081252 -5.8961873 -0.78718197
0.90945631 -5.868628 -0.78252649
0.87998891 -5.918189 -0.78868818
0.83792967 -5.8832693 -0.7830742
0.80462295 -5.9089117 -0.78594965
0.76286054 -5.8714981 -0.78006184
0.72487271 -5.8603392 -0.77787101
0.69341028 -5.9030452 -0.78321111
0.65060133 -5.8481183 -0.77499557
0.62133282 -5.9150505 -0.78375882
0.58034694 -5.8714342 -0.77718639
0.54778475 -5.9123659 -0.78238958
0.51098448 -5.9096947 -0.78156805
0.47344419 -5.8969202 -0.77937722
0.43666619 -5.8918114 -0.77828181
0.40346411 -5.9378648 -0.78430653
0.36286405 -5.8729978 -0.77499557
0.33277041 -5.9819307 -0.7897836
0.29282469 -5.9185619 -0.78074646
0.25637472 -5.9172783 -0.78033566
0.21866105 -5.881124 -0.77513254
0.15328376 -4.9407673 -0.644916
0.12271769 -4.9317122 -0.6435467
0.092548184 -4.9373245 -0.64423132
0.062188759 -4.932847 -0.6435467
0.031894252 -4.9291735 -0.64299899
0.0020319144 -5.8534884 -0.77075088
-0.034252841 -5.9177775 -0.77965105
-0.070328087 -5.8976455 -0.77691257
-0.10701308 -5.9248347 -0.78074646
-0.14267208 -5.8953481 -0.7767756
-0.17872266 -5.8904014 -0.77622789
-0.21421322 -5.8713751 -0.77376324
-0.25023526 -5.8699503 -0.77376324
-0.28668165 -5.8772092 -0.77499557
-0.32328078 -5.8852301 -0.77636486
-0.35823947 -5.8643498 -0.77376324
-0.3881734 -5.7721009 -0.76130301
-0.42488736 -5.7873936 -0.76376766
-0.46510148 -5.843925 -0.77198321
-0.49443769 -5.7649651 -0.76143992
-0.53188616 -5.7845106 -0.76458919
-0.56272835 -5.7338171 -0.75801677
-0.59625608 -5.7144928 -0.75582594
-0.63707346 -5.7629099 -0.76308304
-0.67402941 -5.7726669 -0.76499999
-0.70472395 -5.7300787 -0.75965989
-0.74266118 -5.7472596 -0.76267225
-0.78243053 -5.77597 -0.76732773
-0.81188262 -5.7288861 -0.76143992
-0.84441018 -5.7061582 -0.75897527
-0.88121802 -5.7126179 -0.76061839
-0.899616 -5.6034279 -0.74610424
-0.85054821 -5.0975347 -0.67599815
-0.8676185 -5.0102301 -0.66449636
-0.89921904 -5.0096874 -0.66518104
-0.93084556 -5.008945 -0.66586566
-0.96361804 -5.0138397 -0.66737181
-1.053955 -5.3080659 -0.70968193
-1.1471413 -5.5974789 -0.75144434
-1.1681559 -5.5273376 -0.74254411
-1.218273 -5.594595 -0.75308746
-1.2508448 -5.5792818 -0.75199205
-1.2859453 -5.5753627 -0.75253975
-1.3093922 -5.5220656 -0.74610424
-1.3636425 -5.5976605 -0.75801677
-1.4068543 -5.6247449 -0.76308304
-1.4371554 -5.5996952 -0.7607553
-1.4747643 -5.6032252 -0.76253533
-1.501895 -5.5672913 -0.75870138
-1.5354993 -5.5560613 -0.75842756
-1.5665956 -5.5360503 -0.75692135
-1.596402 -5.5120611 -0.75486749
-1.5975585 -5.3919864 -0.73898405
-1.6521498 -5.4531856 -0.74925351
-1.7072586 -5.5129695 -0.759386
-1.7473276 -5.5222235 -0.76226145
-1.7848331 -5.5227094 -0.76390457
-1.8171345 -5.5069504 -0.76321995
-1.8464649 -5.482554 -0.76130301
-1.8823235 -5.4776788 -0.76226145
-1.92933 -5.5043545 -0.76787543
-1.9667344 -5.5026736 -0.76938164
-1.9685907 -5.4030118 -0.75651056
-2.0165303 -5.4307632 -0.76239842
-2.0561228 -5.4349651 -0.76486307
-2.1018968 -5.4545989 -0.76965547
-2.1396673 -5.4526653 -0.77129859
-2.1616933 -5.4109163 -0.7670539
-2.1941073 -5.3957152 -0.76678002
-2.2089961 -5.3382149 -0.76020759
-2.2443993 -5.3309512 -0.76116604
-2.2649801 -5.2888503 -0.75692135
-2.2962027 -5.2721286 -0.75651056
-2.3269045 -5.2543168 -0.75596291
-2.3558478 -5.2327142 -0.75486749
-2.3804922 -5.2019467 -0.75240278
-2.413619 -5.1899366 -0.75281358
-2.4390712 -5.1615949 -0.75075972
-2.4578369 -5.1197405 -0.74665195
-2.4766152 -5.078742 -0.74268109
-2.4993794 -5.0465837 -0.74007946
-2.5294075 -5.0293827 -0.73980564
-2.5539136 -5.0014162 -0.73788863
-2.5722461 -4.961906 -0.73419166
-2.6003373 -4.9416466 -0.73350704
-2.60588 -4.8792863 -0.72624993
-2.6319942 -4.8562374 -0.72515458
-2.6493328 -4.8174281 -0.72159445
-2.6749811 -4.7941608 -0.7204991
-2.6970286 -4.7647257 -0.71844518
-2.6788685 -4.6656151 -0.70530027
-2.7233961 -4.6764836 -0.70968193
-2.7288697 -4.6204486 -0.70338333
-2.7581866 -4.6053171 -0.70365721
-2.757602 -4.5408902 -0.69598931
-2.7989142 -4.5458169 -0.69954944
-2.8173137 -4.5134311 -0.69708472
-2.834892 -4.480154 -0.69448316
-2.8559115 -4.4526691 -0.69284004
-2.8750811 -4.4226036 -0.69078618
-2.9185116 -4.4296956 -0.69489396
-2.9148369 -4.3655682 -0.68722606
-2.9376833 -4.3418574 -0.68626761
-2.9357059 -4.2820807 -0.67928439
-2.9726613 -4.2794456 -0.68188596
-3.0022838 -4.265986 -0.68270755
-3.0088525 -4.2200589 -0.67805207
-3.0161314 -4.1758199 -0.67367041
-3.0446212 -4.161232 -0.67435503
-3.0506349 -4.1162076 -0.66983652
-3.0681038 -4.0871129 -0.66805643
-3.0889277 -4.0626903 -0.66709799
-3.0950642 -4.0193286 -0.6628533
-3.1221044 -4.0033865 -0.66340095
-3.1300349 -3.9631639 -0.65970397
-3.1289287 -3.9121647 -0.65408999
-3.1441469 -3.8821146 -0.65217304
-3.1446681 -3.8344078 -0.64710677
-3.1497855 -3.7929387 -0.64313596
-3.1768241 -3.77809 -0.6439575
-3.1954515 -3.7532461 -0.64299899
-3.1964328 -3.7080567 -0.63834351
-3.2197762 -3.6891203 -0.63848048
-3.229234 -3.6544478 -0.63574195
-3.2383883 -3.6197984 -0.63300341
-3.2678523 -3.6079366 -0.63450962
-3.2618129 -3.5571511 -0.62875873
-3.2957077 -3.5501387 -0.63122338
-3.3052189 -3.5168557 -0.62875873
-3.3185427 -3.4878967 -0.62711561
-3.3178933 -3.4446366 -0.62273401
-3.3362007 -3.4213765 -0.6221863
-3.3105094 -3.353605 -0.61301225
-3.3142207 -3.3164115 -0.60972601
-3.3218274 -3.2834775 -0.60726136
-3.3412032 -3.2623413 -0.60712445
-3.3547413 -3.235589 -0.60589212
-3.3802686 -3.2204106 -0.60698748
-3.3761613 -3.1772044 -0.60246897
-3.3629465 -3.1260767 -0.59630728
-3.3784163 -3.1020331 -0.59562266
-3.3878484 -3.0725932 -0.59384263
-3.4118021 -3.056375 -0.59480113
-3.4052699 -3.0130627 -0.59014565
-3.3767068 -2.9510405 -0.58151931
-3.4149954 -2.9477439 -0.58521628
-3.4149277 -2.9113092 -0.58193004
-3.4395461 -2.8960435 -0.58316243
-3.4184098 -2.8425798 -0.57617921
-3.4281323 -2.815264 -0.57480991
-3.4238012 -2.7767036 -0.57097602
-3.4376819 -2.7531662 -0.57042831
-3.438195 -2.7191157 -0.56755286
-3.4516919 -2.6955292 -0.56700516
-3.4501252 -2.6603851 -0.56385583
-3.4569271 -2.631964 -0.56221277
-3.4666772 -2.6059408 -0.56111735
-3.4746478 -2.5787163 -0.55974805
-3.5023901 -2.5661306 -0.56180197
-3.5108464 -2.5393667 -0.56056964
-3.5142696 -2.5091414 -0.55851573
-3.5223124 -2.4823947 -0.5572834
-3.5033262 -2.4369743 -0.55153251
-3.4969819 -2.4008532 -0.54797244
-3.5042672 -2.3743494 -0.54674011
-3.4957147 -2.3373837 -0.54290617
-3.4918017 -2.3038869 -0.53989381
-3.5241346 -2.2943101 -0.54290617
-3.5231447 -2.2630055 -0.54044151
-3.5285971 -2.2360423 -0.53907228
-3.5330117 -2.2085721 -0.53756607
-3.5448105 -2.1858125 -0.53729224
-3.5725427 -2.1727726 -0.53961998
-3.5832591 -2.1492822 -0.53920919
-3.5887063 -2.1227157 -0.53797686
-3.5982411 -2.0986593 -0.53742915
-3.596453 -2.0681453 -0.53510141
-3.6021817 -2.04213 -0.534006
-3.5791926 -2.0001731 -0.52839202
-3.6044123 -1.9853439 -0.53044593
-3.6043389 -1.9565729 -0.52852899
-3.6101623 -1.931149 -0.52757049
-3.6000369 -1.8974124 -0.52414733
-3.5993042 -1.8688953 -0.52223039
-3.6248138 -1.8539938 -0.52442122
-3.6228518 -1.8250313 -0.5223673
-3.63132 -1.8014467 -0.5219565
-3.6334047 -1.7747829 -0.52058727
-3.6531529 -1.7567492 -0.5219565
-3.6531198 -1.729214 -0.52031338
-3.6636612 -1.7067662 -0.52031338
-3.6794674 -1.6867316 -0.52113497
-0.29826698 -0.13412444 -0.0068412954
-0.29908434 -0.13229178 -0.0068412954
-0.28808796 -0.12530307 -0.005061259
-0.27337638 -0.11689185 -0.0027335186
-0.258573 -0.10866612 -0.00040577829
-0.26380998 -0.10897479 -0.0010904078
-0.25346571 -0.10286799 0.00055270299
-0.25409213 -0.10131082 0.00055270299
-0.26577118 -0.10410045 -0.0010904078
-0 -0 -0
-0 -0 -0
-0 -0 -0
-0 -0 -0
-0 -0 -0
-0 -0 -0
-0 -0 -0
-0 -0 -0
-0 -0 -0
-0 -0 -0
-0 -0 -0
-0 -0 -0
-0 -0 -0
-0 -0 -0
-0 -0 -0
-0 -0 -0
-0 -0 -0
-0 -0 -0
-0 -0 -0
-0 -0 -0
-0 -0 -0
-0 -0 -0
-0 -0 -0
-0 -0 -0
-0 -0 -0
-0 -0 -0
-0 -0 -0
-0 -0 -0
-0 -0 -0
-0 -0 -0
-0 -0 -0
-0 -0 -0
-0 -0 -0
-0 -0 -0
-0 -0 -0
-0 -0 -0
-0 -0 -0
-0 -0 -0
-0 -0 -0
-0 -0 -0
-0 -0 -0
-0 -0 -0
-0 -0 -0
-0 -0 -0
-0 -0 -0
-0 -0 -0
-0 -0 -0
-0 -0 -0
-0 -0 -0
-0 -0 -0
-0 -0 -0
-0 -0 -0
-0 -0 -0
-0 -0 -0
-0 -0 -0
-0 -0 -0
-0.27237713 0.019021502 -0.0026832968
-0 0 -0
-0 0 -0
-0 0 -0
-0 0 -0
-0 0 -0
-0.26952699 0.028815357 -0.0023845711
-0.26836309 0.030353224 -0.0022352084
-0 0 -0
-0.27385363 0.034408689 -0.003131385
-0.27461708 0.03622181 -0.0032807479
-0.27634746 0.038185034 -0.0035794734
-0.27708599 0.040025398 -0.0037288361
-0.27585807 0.041573364 -0.0035794734
-0.27852628 0.043737531 -0.0040275618
-0.2772775 0.045282289 -0.0038781988
-0 0 -0
-0 0 -0
-0.27834103 0.050741084 -0.0041769245
-0.27705356 0.052260689 -0.0040275618
-0.27672771 0.053959675 -0.0040275618
-0.27639139 0.055656627 -0.0040275618
-0.27411017 0.056941193 -0.0037288361
-0 0 -0
-0 0 -0
-0.27783224 0.063091598 -0.0044756499
-0 0 -0
-0 0 -0
-0.28141919 0.069397941 -0.005222464
-0.28003049 0.070876904 -0.0050731013
-0.27385411 0.071079634 -0.0041769245
-0 0 -0
-0.26438543 0.072058223 -0.0028326595
-0.26298708 0.073409192 -0.0026832968
-0.2625317 0.075021468 -0.0026832968
-0.26585782 0.077757195 -0.0032807479
-0.26726791 0.079961762 -0.0035794734
-0.26960519 0.082479723 -0.0040275618
-0.27097905 0.084730372 -0.0043262872
-0 0 -0
-0.26804134 0.087428294 -0.0040275618
-0 0 -0
-0.26694828 0.09071099 -0.0040275618
-0.26825243 0.093002722 -0.0043262872
-0.27046931 0.095647305 -0.0047743754
-0.26801974 0.096626751 -0.0044756499
-0.26742181 0.09826947 -0.0044756499
-0.26773837 0.10025903 -0.0046250126
-0.26619574 0.10154375 -0.0044756499
-0.26556769 0.10317519 -0.0044756499
-0.26492959 0.10480274 -0.0044756499
-0.26611292 0.10717258 -0.0047743754
-0.26636368 0.10918213 -0.0049237381
-0.26568875 0.11081444 -0.0049237381
-0.2650038 0.1124426 -0.0049237381
-0.26521513 0.11446199 -0.0050731013
-0.26812303 0.11769129 -0.0056705521
-0.26649451 0.11892767 -0.0055211894
-0.26755741 0.1213848 -0.0058199149
-0.26591131 0.12260662 -0.0056705521
-0.26336661 0.12338973 -0.0053718267
-0.26527777 0.12628908 -0.0058199149
-0.26538631 0.12834845 -0.0059692776
-0.26370806 0.12953494 -0.0058199149
-0.26555738 0.13248529 -0.006268003
-0.26826066 0.13591343 -0.0068654544
-0.26742166 0.1375569 -0.0068654544
-0.26394847 0.13781194 -0.0064173662
-0.26309791 0.13942891 -0.0064173662
-0.26136845 0.14056885 -0.006268003
-0.25876889 0.14121574 -0.0059692776
-0.2596238 0.14376566 -0.006268003
-0.25873676 0.14535598 -0.006268003
-0.26041141 0.14841969 -0.0067160917
-0.26462042 0.15300399 -0.007612268
-0.26537865 0.15563166 -0.0079109939
-0.26272291 0.15623976 -0.007612268
-0.26260406 0.15836272 -0.0077616312
-0.26415226 0.1615281 -0.0082097193
-0.26231775 0.16262168 -0.0080603566
-0.26298535 0.16528678 -0.008359082
-0.26279813 0.16743174 -0.0085084448
-0.26259446 0.16958061 -0.0086578075
-0.26567549 0.17391162 -0.0094046211
-0.26378143 0.17498885 -0.0092552584
-0.25861001 0.1738307 -0.0085084448
-0.2567234 0.17485455 -0.008359082
-0.25402233 0.17529713 -0.0080603566
-0.25132552 0.17571318 -0.0077616312
-0.25185204 0.17840117 -0.0080603566
-0.25075263 0.17994314 -0.0080603566
-0.2496438 0.18147835 -0.0080603566
-0.24852557 0.18300672 -0.0080603566
-0.2442366 0.18215151 -0.0074629053
-0.24154097 0.18244866 -0.0071641798
-0.23806794 0.18211582 -0.0067160917
-0.23694602 0.18357314 -0.0067160917
-0.23969282 0.1880905 -0.0074629053
-0.2416212 0.19203024 -0.0080603566
-0.24734986 0.19911493 -0.0094046211
-0.25300041 0.20627694 -0.010748887
-0.25401068 0.20972215 -0.011196975
-0 0 -0
-0.25818977 0.21859713 -0.012541239
-0 0 -0
-0.25995478 0.22565328 -0.013437416
-0.25486287 0.22396778 -0.012690603
-0 0 -0
-0 0 -0
-0.25433868 0.23196492 -0.013437416
-0.25291058 0.23352115 -0.013437416
-0 0 -0
-0 0 -0
-0 0 -0
-0 0 -0
-0 0 -0
-0 0 -0
-0 0 -0
-0 0 -0
-0 0 -0
-0 0 -0
-0 0 -0
-0 0 -0
-0 0 -0
-0 0 -0
-0 0 -0
-0 0 -0
-0 0 -0
-0 0 -0
-0 0 -0
-0 0 -0
-0 0 -0
-0 0 -0
-0 0 -0
-0 0 -0
-0 0 -0
-0 0 -0
-0 0 -0
-3.1732719 4.1719837 -0.75323123
-3.141084 4.1826777 -0.75158823
-3.1024084 4.1843948 -0.74830222
-3.1099539 4.2488389 -0.75681591
-3.0855618 4.270246 -0.75726402
-3.0650418 4.2971497 -0.75875765
-3.0659318 4.3546891 -0.76592708
-3.0487435 4.3872252 -0.76846623
-3.0301528 4.4180827 -0.77070665
-3.0245955 4.4685316 -0.77653182
-2.9971201 4.4870062 -0.77653182
-2.9640923 4.4970546 -0.77503818
-2.9434488 4.5259347 -0.77697992
-2.9214945 4.5530653 -0.77862287
-2.9067197 4.591795 -0.78235698
-2.8795373 4.6112213 -0.78265566
-2.8558547 4.6363811 -0.78399998
-2.840183 4.6749463 -0.78773403
-2.8109367 4.6914368 -0.78758466
-2.7780752 4.7017851 -0.78638977
-2.7521586 4.7238693 -0.78728592
-2.7319837 4.7561021 -0.78997445
-2.7129774 4.7908463 -0.79311109
-2.6835301 4.8074031 -0.79311109
-2.6449294 4.8073163 -0.79027319
-2.6229205 4.8373637 -0.79266298
-2.598779 4.8638334 -0.79445535
-2.5739508 4.8893127 -0.79609835
-2.5416269 4.9006252 -0.79535151
-2.513308 4.9196506 -0.79594898
-2.4866283 4.9420462 -0.79714388
-2.4536247 4.9518943 -0.79624772
-2.4257944 4.9721889 -0.79714388
-2.3965237 4.9896541 -0.79759198
-2.3717766 5.0167809 -0.79968303
-2.3413665 5.032136 -0.7998324
-2.3100345 5.0455084 -0.79968303
-2.2830913 5.068604 -0.80117667
-2.253149 5.0852294 -0.80162477
-2.2246678 5.1053047 -0.8026703
-2.1952467 5.1234035 -0.80341709
-2.1630013 5.1349545 -0.80311841
-2.1378801 5.1636615 -0.80565757
-2.0972176 5.1546993 -0.80207282
-2.0618813 5.158288 -0.80057919
-2.0457222 5.2104225 -0.80700183
-2.0229566 5.2468657 -0.81088525
-1.9840772 5.2416081 -0.80804735
-1.9529105 5.256464 -0.80849546
-1.9179128 5.2609158 -0.80730057
-1.8826015 5.264205 -0.8059563
-1.8492844 5.2728577 -0.8055082
-1.8188238 5.2897162 -0.80640435
-1.7879103 5.3054619 -0.8071512
-1.7531543 5.3097596 -0.80610561
-1.7150683 5.3034811 -0.80341709
-1.6899512 5.3374729 -0.8071512
-1.6621414 5.3637986 -0.80969036
-1.6317786 5.3824134 -0.81103462
-1.5970368 5.3866363 -0.81013846
-1.5689057 5.4134297 -0.81282699
-1.5364677 5.4258084 -0.81327504
-1.5047268 5.4408526 -0.81417125
-1.4671938 5.4347081 -0.81178141
-1.4285347 5.4235277 -0.80864483
-1.3922803 5.4206982 -0.80685246
-1.3597131 5.4320164 -0.80730057
-1.3207411 5.4172006 -0.80371583
-1.285652 5.4175057 -0.80252093
-1.2510533 5.4195113 -0.80162477
-1.2177763 5.4270859 -0.80162477
-1.1855053 5.4392867 -0.80237156
-1.1547657 5.4590344 -0.8043133
-1.1240268 5.4795785 -0.80640435
-1.0844147 5.4563069 -0.80177414
-1.0505419 5.460916 -0.80147541
-1.019724 5.4818411 -0.80371583
-0.98833936 5.5006471 -0.80565757
-0.95558155 5.5124536 -0.80655372
-0.92369217 5.5299168 -0.80834609
-0.89146769 5.5462193 -0.80998909
-0.85968077 5.5662436 -0.81222951
-0.82073498 5.539135 -0.80730057
-0.78437382 5.5274239 -0.80476135
-0.74951446 5.5252738 -0.80371583
-0.71344411 5.5130978 -0.80117667
-0.67851692 5.5085392 -0.7998324
-0.64413112 5.507688 -0.79908562
-0.60923827 5.501709 -0.79759198
-0.57608443 5.5112443 -0.79848814
-0.54138827 5.5058188 -0.79714388
-0.50949579 5.5297141 -0.80028051
-0.47471181 5.5228848 -0.79878688
-0.43971717 5.5118942 -0.79669577
-0.4043687 5.4937797 -0.79355919
-0.36965707 5.481359 -0.79131871
-0.33541447 5.4736547 -0.78982508
-0.30046719 5.4509273 -0.78609103
-0.26725602 5.4576063 -0.78683782
-0.23287985 5.4383979 -0.78370124
-0.19928992 5.4337955 -0.78280503
-0.16585514 5.431951 -0.78235698
-0.13266559 5.4387975 -0.78325313
-0.099362582 5.4434638 -0.78385061
-0.065948479 5.4429822 -0.78370124
-0.03251553 5.4373517 -0.78280503
0.00084144576 5.419651 -0.7801165
0.034095783 5.4195437 -0.7801165
0.066961318 5.3885827 -0.77548629
0.10058078 5.4177284 -0.77996713
0.13384607 5.4179978 -0.7801165
0.16604407 5.383472 -0.77503818
0.19888949 5.3774114 -0.7742914
0.23038213 5.3415151 -0.76906365
0.26476586 5.372591 -0.77399266
0.29833084 5.3817248 -0.77563566
0.33152986 5.3827538 -0.77608371
0.36663023 5.4112 -0.78071398
0.39931411 5.4019461 -0.77966845
0.43292722 5.4053078 -0.78056461
0.46250701 5.3611751 -0.7742914
0.49429893 5.3464217 -0.77249902
0.52767837 5.3491917 -0.77339518
0.5586307 5.3281527 -0.77070665
0.59131312 5.3246245 -0.77070665
0.62039655 5.2904534 -0.76607645
0.65017563 5.2649584 -0.76279044
0.67966533 5.2392983 -0.75950444
0.71193373 5.2360091 -0.75965381
0.7434901 5.2276263 -0.75905639
0.76813442 5.1730866 -0.75143886
0.8044048 5.1975894 -0.75591975
0.83927274 5.2111034 -0.75875765
0.86600208 5.1746497 -0.75397801
0.89960033 5.1799541 -0.75562102
0.92873627 5.1597404 -0.7533806
0.95403123 5.1199241 -0.74815291
0.98299354 5.1013527 -0.74621117
1.0015211 5.0312243 -0.73635322
1.0150422 4.9407239 -0.72335869
1.0254395 4.8405781 -0.70887047
1.029581 4.71731 -0.69079757
1.0439674 4.6462703 -0.68079031
1.0604192 4.5877576 -0.67272466
1.0780233 4.5369153 -0.66585398
1.0844815 4.4428082 -0.65226197
1.117015 4.4571695 -0.65554798
1.1396593 4.4320378 -0.65271008
1.1718795 4.4440823 -0.65569735
1.200417 4.4415808 -0.65644413
1.2207816 4.4093571 -0.65256071
1.2507828 4.4122467 -0.65420371
1.2783839 4.4063883 -0.65450245
1.3099021 4.4136267 -0.65689224
1.321153 4.3534708 -0.64867729
1.3490132 4.3490596 -0.64927471
1.3756732 4.3407006 -0.64927471
1.4114237 4.3603973 -0.65375561
1.4372205 4.3488383 -0.6533075
1.4449015 4.2837276 -0.64434576
1.4718027 4.2766509 -0.6446445
1.4950664 4.2591438 -0.64330024
1.523506 4.2564058 -0.64434576
1.5526466 4.2553372 -0.64569002
1.5735549 4.2318296 -0.6434496
1.601244 4.2267175 -0.64419639
1.6260799 4.214046 -0.64374828
1.6627617 4.231595 -0.64822918
1.6934724 4.2332458 -0.65017092
1.7194153 4.2227755 -0.65017092
1.7494594 4.2221928 -0.65181392
1.7699528 4.1986246 -0.64972281
1.7956817 4.187685 -0.64972281
1.812247 4.1557446 -0.6462875
1.8312956 4.1300855 -0.64389765
1.8533503 4.1115608 -0.64270276
1.881016 4.105504 -0.64359897
1.9157764 4.1144996 -0.64703429
1.9456403 4.1124978 -0.64867729
1.9639804 4.0862246 -0.6462875
1.9794675 4.0545516 -0.6430015
2.0043085 4.0423293 -0.6430015
2.0268495 4.0255399 -0.64225471
2.0636699 4.0367956 -0.6462875
2.0792863 4.0065069 -0.64330024
2.1029086 3.9919238 -0.6430015
2.1306281 3.9850483 -0.64404702
2.1644752 3.9892797 -0.64703429
2.1989312 3.9941111 -0.65017092
2.2233973 3.9805434 -0.65017092
2.2526565 3.9754274 -0.65166456
2.2819364 3.9701018 -0.65315819
2.3182104 3.9765239 -0.65674287
2.340049 3.9579694 -0.65599608
2.3719203 3.9562554 -0.6582365
2.4007754 3.9492302 -0.65958077
2.4358616 3.9520988 -0.6627174
2.4637346 3.9429471 -0.66376293
2.4926455 3.9352725 -0.66510719
2.5247612 3.9323826 -0.66734761
2.5585537 3.9317319 -0.67003614
2.5935218 3.9324648 -0.6730234
2.6296945 3.9345601 -0.67630941
2.6715364 3.9445441 -0.68108898
2.7040849 3.9403045 -0.68332946
2.6960244 3.8773725 -0.67481577
2.7220435 3.8639898 -0.67541319
2.7468505 3.8488243 -0.67571193
2.7715738 3.8334999 -0.67601067
2.7956278 3.8172193 -0.67616004
2.827837 3.8119035 -0.67840046
2.8606799 3.8071258 -0.68079031
2.8887782 3.795795 -0.6819852
2.9301291 3.8014882 -0.68646604
2.9680064 3.8021405 -0.69005078
3.0004809 3.7954903 -0.6922912
3.0305126 3.7854977 -0.6939342
3.0648942 3.7806544 -0.69662273
3.1087437 3.7869928 -0.70155168
3.1534178 3.793695 -0.70663005
3.1912847 3.7916706 -0.71006536
3.2343769 3.7953429 -0.71469563
3.2711723 3.7911437 -0.71783227
3.3164968 3.7963138 -0.72291058
3.35742 3.7958858 -0.72694337
3.3885655 3.7840512 -0.72873574
3.4343064 3.7880895 -0.73381406
3.484236 3.7960777 -0.73978859
3.5229471 3.7912836 -0.74322391
3.5773163 3.8027177 -0.75009459
3.6060386 3.7864232 -0.75128949
3.627831 3.7628024 -0.75099075
3.6695025 3.7595725 -0.7550236
3.6862454 3.7306573 -0.75367934
3.7293506 3.7282374 -0.7580108
3.7106376 3.6643023 -0.74919844
3.7549982 3.662864 -0.75382864
3.7389445 3.602715 -0.74576306
3.7796059 3.5974255 -0.74964648
3.7893589 3.5626552 -0.74710733
3.8176696 3.5453913 -0.74845159
3.8473687 3.5292504 -0.75009459
3.8564923 3.4942932 -0.74755543
3.8852298 3.4771569 -0.74904907
3.8820398 3.4316466 -0.74412006
3.906003 3.410363 -0.74471754
3.9335957 3.3921421 -0.7460618
3.972405 3.3833251 -0.74964648
4.000658 3.3652506 -0.75114012
4.0326424 3.3501146 -0.7533806
4.0439472 3.3177838 -0.75158823
4.0642285 3.2929082 -0.75158823
4.0789518 3.2635856 -0.7505427
4.0965719 3.2366579 -0.75009459
4.1311693 3.2230136 -0.75293249
4.1806388 3.2205279 -0.75860828
4.2018948 3.196012 -0.75890702
4.2237988 3.1719503 -0.75935507
4.2272935 3.1341994 -0.75636786
4.2400608 3.1035316 -0.75517291
4.257421 3.0762987 -0.75487423
4.3011751 3.0679119 -0.75950444
4.3166838 3.0391865 -0.75890702
4.3401237 3.016027 -0.75980318
4.3373437 2.9748034 -0.75591975
4.3579717 2.9497962 -0.75636786
4.3990149 2.9383736 -0.76055002
4.418613 2.9124146 -0.7608487
4.4189906 2.8739307 -0.75771213
4.3990874 2.822741 -0.75099075
4.4271874 2.8025684 -0.75293249
4.4409451 2.7732568 -0.75233507
4.4671397 2.7516577 -0.75397801
4.4983072 2.7329209 -0.75651717
4.5268674 2.7123806 -0.75860828
4.5493851 2.6880729 -0.75965381
4.5734835 2.6645858 -0.76099807
4.5623069 2.620719 -0.75621849
4.5826039 2.5951111 -0.75696528
4.6122565 2.5746522 -0.75935507
4.631433 2.5482092 -0.75995255
4.6443734 2.5183299 -0.75950444
4.6920094 2.5070193 -0.76503086
4.702929 2.4758804 -0.76428407
4.7048645 2.4401515 -0.7620436
4.7135839 2.4080894 -0.76099807
4.7141371 2.3720143 -0.75860828
4.7480965 2.3526981 -0.76189429
4.7677755 2.3261201 -0.76279044
4.7552166 2.2839847 -0.75830954
4.7789755 2.2594109 -0.75995255
4.7873693 2.2275436 -0.75905639
4.8144341 2.2042983 -0.76129681
4.8197541 2.1710629 -0.75995255
4.8465462 2.147454 -0.76219296
4.8596315 2.1176755 -0.76219296
4.8688979 2.0862608 -0.76159555
4.871583 2.0521262 -0.75995255
4.8466229 2.006696 -0.75382864
4.8854074 1.9877207 -0.75816017
4.8837385 1.9522048 -0.75591975
4.9029889 1.9250914 -0.75711465
4.9359298 1.9031478 -0.76055002
4.9438148 1.8714263 -0.75995255
4.9246154 1.8296989 -0.7550236
4.9357495 1.7994475 -0.7550236
4.9457664 1.7687957 -0.75487423
4.9910526 1.7505165 -0.76040065
4.9708405 1.7092557 -0.75547165
5.0159063 1.6903991 -0.76099807
5.0252452 1.6592804 -0.7608487
5.0193367 1.6232461 -0.75830954
5.0395722 1.5956984 -0.75995255
5.0464349 1.5638686 -0.75950444
5.0682378 1.5366017 -0.76144618
5.0756745 1.5049129 -0.76114744
5.0734158 1.4704403 -0.75935507
5.0823426 1.4392828 -0.75935507
5.0653458 1.4009601 -0.75532228
5.0461612 1.3623854 -0.75099075
5.0955434 1.3422182 -0.75741339
5.081655 1.3052742 -0.75397801
5.0857315 1.2731096 -0.7533806
5.1165037 1.2474964 -0.75696528
5.1230998 1.2158505 -0.75681591
5.1593685 1.1910589 -0.76129681
5.1781578 1.1619747 -0.76308918
5.1774607 1.1284974 -0.76189429
5.178483 1.0954812 -0.76099807
5.1705775 1.0607086 -0.75875765
5.1760187 1.0287701 -0.75860828
5.1560163 0.99195337 -0.75457549
5.1707549 0.9619236 -0.75591975
5.1152463 0.91917491 -0.74650991
5.1324811 0.88979524 -0.74830222
5.1866097 0.86642128 -0.75577039
5.1723027 0.83144623 -0.75278312
5.2095551 0.80466771 -0.75771213
5.2114601 0.77225316 -0.75726402
5.2161007 0.74026173 -0.75726402
5.2264237 0.70903862 -0.75816017
5.1806636 0.67049521 -0.7505427
5.2131405 0.64219415 -0.75487423
5.209126 0.60927767 -0.75367934
5.2166972 0.57773805 -0.75427675
5.186707 0.54223013 -0.74919844
5.1919045 0.51058799 -0.74949718
5.2126632 0.48035067 -0.7521857
5.2322602 0.44979331 -0.75472486
5.2280216 0.41713133 -0.75367934
5.245275 0.38613054 -0.75591975
5.2366934 0.35320935 -0.75427675
5.2358012 0.32089016 -0.75382864
5.2603793 0.29000467 -0.75726402
5.2620597 0.25772214 -0.75726402
5.2684813 0.22564034 -0.7580108
5.2756953 0.19352546 -0.75890702
5.2817254 0.16130058 -0.75965381
5.2667994 0.12850709 -0.75726402
5.2803411 0.096420042 -0.75920576
5.2847881 0.064065732 -0.75980318
5.2850819 0.031637676 -0.75980318
5.2495804 -0.00077836955 -0.75442612
5.2455215 -0.03296344 -0.75382864
5.2590623 -0.06532374 -0.75591975
5.2842665 -0.09807425 -0.75980318
5.2608304 -0.12992951 -0.75636786
5.2421446 -0.16165435 -0.75367934
5.2519231 -0.19422087 -0.75532228
5.2377901 -0.22588572 -0.7533806
5.2560573 -0.25899762 -0.75636786
5.2405477 -0.29047412 -0.75427675
5.2465615 -0.32311201 -0.75547165
5.2405343 -0.35503003 -0.75487423
5.2648811 -0.3891525 -0.75890702
5.2673225 -0.42184564 -0.75965381
5.2863073 -0.4560318 -0.76293981
5.2607646 -0.48636079 -0.75950444
5.3403358 -0.52680278 -0.77205092
5.3016019 -0.55584109 -0.76667386
5.2941604 -0.58792329 -0.76607645
5.2953634 -0.62097347 -0.76682323
5.2747717 -0.65138966 -0.76428407
5.2432203 -0.68017501 -0.76010191
5.258543 -0.71500272 -0.76308918
5.2736349 -0.75004393 -0.76607645
5.2523069 -0.77991563 -0.76353723
5.2464452 -0.81197703 -0.76338786
5.2628403 -0.84761697 -0.76667386
5.2458382 -0.87793213 -0.76488149
5.2237916 -0.90722352 -0.76234233
5.2346692 -0.94224048 -0.76488149
5.2239294 -0.97343534 -0.76413471
5.2139745 -1.0047213 -0.76353723
5.2338939 -1.0419127 -0.76757002
5.2487092 -1.0783902 -0.77085602
5.2323208 -1.108524 -0.76936239
5.2061009 -1.1363864 -0.76637512
5.2019243 -1.1689601 -0.76682323
5.1985068 -1.2017481 -0.76742071
5.179492 -1.2308772 -0.76562834
5.1497502 -1.2572361 -0.76219296
5.1850967 -1.2996382 -0.76891428
5.1779823 -1.3316754 -0.76906365
5.1228681 -1.3510561 -0.76174492
5.1230717 -1.384788 -0.76308918
5.0868454 -1.4085383 -0.75875765
5.1399369 -1.4572687 -0.76846623
5.1308985 -1.4887793 -0.76846623
5.1017623 -1.514321 -0.7653296
5.0743985 -1.540136 -0.7624917
5.0601311 -1.5697771 -0.76174492
5.0645413 -1.6052804 -0.76398534
5.0602403 -1.6381541 -0.76488149
5.0698075 -1.675693 -0.76801813
5.0762935 -1.7124621 -0.77070665
5.0292301 -1.731019 -0.76488149
5.0045204 -1.7569292 -0.76264107
4.9955077 -1.7882701 -0.76293981
5.0197353 -1.8317765 -0.7686156
5.0074744 -1.8621976 -0.76846623
4.9839349 -1.8883309 -0.76652449
4.9584184 -1.9135333 -0.76428407
4.942903 -1.9424741 -0.7636866
4.9217119 -1.9690918 -0.76219296
4.8838978 -1.9888064 -0.7580108
4.8597288 -2.0138125 -0.75606912
4.9001212 -2.0658844 -0.76473218
4.9273338 -2.1130681 -0.77130413
4.9160881 -2.1440527 -0.77160287
4.8757257 -2.1621461 -0.76712197
4.8812947 -2.2005601 -0.77025855
4.8730936 -2.2329423 -0.77115476
4.8476491 -2.2573721 -0.76921302
4.8417501 -2.2908821 -0.77055728
4.8017612 -2.3081191 -0.76622576
4.8026118 -2.3449171 -0.76876497
4.7615609 -2.3611572 -0.76428407
4.7611117 -2.3974473 -0.76667386
4.7357483 -2.4212122 -0.76488149
4.743618 -2.4620728 -0.76876497
4.7048049 -2.4786837 -0.76473218
4.7017136 -2.5140352 -0.76682323
4.6983647 -2.5494421 -0.76891428
4.6878295 -2.5810852 -0.7698105
4.6667256 -2.6069062 -0.76891428
4.6385999 -2.628664 -0.76682323
4.6043835 -2.6467242 -0.7636866
4.6273451 -2.697844 -0.77055728
4.6277251 -2.7362547 -0.77354455
4.6210237 -2.7707024 -0.77533692
4.5769029 -2.7825613 -0.77055728
4.5488024 -2.8038449 -0.7686156
4.5449271 -2.8400898 -0.77100539
4.5148873 -2.8599839 -0.76876497
