# .PCD v0.7 - Point Cloud Data file format
VERSION 0.7
FIELDS x y z
SIZE 4 4 4
TYPE F F F
COUNT 1 1 1
WIDTH 1569
HEIGHT 1
VIEWPOINT 0 0 0 1 0 0 0
POINTS 1569
DATA ascii
-3.2847004 11.583035 -1.0305847
-3.2098439 11.589533 -1.0293475
-3.1251512 11.55901 -1.0247521
-3.0381591 11.51729 -1.0191846
-2.9572577 11.496163 -1.0155613
-2.8646171 11.42617 -1.0075195
-2.7795649 11.38257 -1.0019519
-2.6972294 11.347081 -0.99717981
-2.6185768 11.324598 -0.99364489
-2.5313444 11.261734 -0.98648673
-2.4298947 11.129134 -0.97305405
-2.339669 11.040544 -0.96368653
-2.2594473 10.994199 -0.95820743
-2.1831903 10.963896 -0.95423067
-2.0987167 10.88808 -0.94618875
-2.0218287 10.846895 -0.94132823
-1.9453485 10.804199 -0.93637937
-1.8710037 10.769807 -0.93222582
-1.7876134 10.677932 -0.92294669
-1.7108096 10.618878 -0.91667223
-1.6340361 10.554364 -0.90995592
-1.560315 10.50409 -0.90456516
-1.4893779 10.468103 -0.9005
-1.4147784 10.401047 -0.89369529
-1.346444 10.374959 -0.89060229
-1.2710309 10.288123 -0.88211846
-1.2039328 10.262092 -0.87911379
-1.1388526 10.250476 -0.87743473
-1.0739603 10.238449 -0.87575567
-1.0039735 10.172483 -0.86930442
-0.93896735 10.150681 -0.86682999
-0.87546653 10.142357 -0.86559278
-0.81074983 10.116757 -0.86285323
-0.74373376 10.054986 -0.85693222
-0.6804055 10.035509 -0.85481131
-0.61844802 10.03353 -0.85428107
-0.55466312 9.9973536 -0.85074615
-0.49021584 9.937891 -0.84517866
-0.42617521 9.8700562 -0.8389042
-0.36394507 9.827692 -0.83492744
-0.30265123 9.7978802 -0.8320995
-0.24193445 9.7756548 -0.82997853
-0.18135326 9.7450857 -0.82715064
-0.12093199 9.6962147 -0.82273197
-0.061282437 9.6728687 -0.82061106
-0.0019282434 9.6670856 -0.82008082
0.057288077 9.6499825 -0.81857848
0.11624651 9.6285334 -0.81672263
0.17503434 9.6117039 -0.81530869
0.23407999 9.6134357 -0.81557381
0.29288062 9.6058455 -0.81504357
0.35115981 9.5859499 -0.81345284
0.40924844 9.5666962 -0.8119505
0.4671627 9.5480871 -0.81053656
0.52344078 9.5032682 -0.80682486
0.58028167 9.476016 -0.80470395
0.63707566 9.4524002 -0.80293649
0.69236004 9.4115572 -0.7996667
0.74819607 9.3833017 -0.79754573
0.80294448 9.3457832 -0.79462945
0.85707814 9.3059645 -0.79153639
0.91085088 9.2668257 -0.78853172
0.95506978 9.1401978 -0.77775025
0.80889946 7.3065429 -0.61461413
0.81636912 6.9818807 -0.58606976
0.85955882 6.9797058 -0.58633488
0.90415794 6.9881306 -0.5875721
0.94742072 6.9854121 -0.58783722
0.96592695 6.8078656 -0.57246035
0.97893482 6.6076984 -0.55505091
1.0182447 6.5936918 -0.55434394
1.0599477 6.5951877 -0.55505091
1.1021994 6.5993671 -0.556023
1.1418214 6.5875726 -0.55558115
1.1841574 6.5912271 -0.55655324
1.2260348 6.5916715 -0.55726022
1.2689027 6.5967407 -0.55840909
1.3107142 6.5956697 -0.55902767
1.3511598 6.587503 -0.55902767
1.3886696 6.5654449 -0.55779046
1.4191743 6.5120311 -0.5537253
1.4471141 6.4497437 -0.54886478
1.4895734 6.4533606 -0.55001366
1.5279927 6.4392533 -0.54957181
1.5667669 6.4268532 -0.54930669
1.6030285 6.4045572 -0.54815781
1.6383324 6.3791637 -0.54674387
1.6787115 6.3738074 -0.54718572
1.7133766 6.3470383 -0.54568338
1.7445914 6.3085637 -0.54312056
1.7642744 6.2306509 -0.53693449
1.7899977 6.1766548 -0.53295773
1.8202205 6.13977 -0.53057164
1.854681 6.118 -0.52959955
1.8936592 6.1112618 -0.5300414
1.9233061 6.0748367 -0.5277437
1.9482877 6.0250096 -0.52420878
1.985532 6.0138879 -0.52429718
2.0125363 5.9723291 -0.52155763
2.0374868 5.9259562 -0.51837623
2.0691953 5.9001832 -0.51713896
2.0949633 5.8582997 -0.51439941
2.1308699 5.845335 -0.51439941
2.1576784 5.8078728 -0.51210177
2.1837552 5.7693706 -0.50971568
2.2176812 5.7521448 -0.50936216
2.2398314 5.7050495 -0.50618076
2.2810788 5.706923 -0.5076831
2.3205566 5.7038913 -0.50874358
2.3593209 5.6987491 -0.50962728
2.3961763 5.688755 -0.51006919
2.4298601 5.6711984 -0.50980407
2.4685907 5.6653142 -0.51068777
2.5190399 5.6855793 -0.51413429
2.5551057 5.6727405 -0.51439941
2.5923524 5.6623898 -0.51492965
2.6245265 5.6409583 -0.51439941
2.6565354 5.6193447 -0.51386917
2.6922586 5.6056328 -0.51413429
2.7226732 5.5809503 -0.51333898
2.7688046 5.5882387 -0.51572502
2.803489 5.5720339 -0.51581341
2.8308291 5.5414214 -0.5144878
2.8546898 5.5044932 -0.51254362
2.8795962 5.4701262 -0.5108645
2.9032497 5.4339042 -0.50900871
2.9578996 5.4553933 -0.51298547
3.0081205 5.4676881 -0.51607853
3.0493801 5.4630442 -0.51749247
3.0848062 5.4476981 -0.51784599
3.1211512 5.4338503 -0.51837623
3.1584446 5.4214826 -0.5190832
3.20381 5.4225836 -0.52120411
3.2447004 5.4156408 -0.52252972
3.2799375 5.399035 -0.52288324
3.3130035 5.378808 -0.52288324
3.3617709 5.3837266 -0.52553439
3.4101899 5.3874063 -0.52809721
3.4270465 5.3412285 -0.525446
3.4336915 5.2800164 -0.52120411
3.4693131 5.2638388 -0.52173436
3.5386105 5.2979517 -0.52765536
3.5877995 5.3008876 -0.53030652
3.6354673 5.3009539 -0.53269261
3.6770184 5.291636 -0.53410655
3.7208853 5.285265 -0.53587401
3.7671254 5.2817984 -0.53799498
3.7796304 5.2311316 -0.53499031
3.8145981 5.2118611 -0.53543216
3.8417602 5.1819553 -0.53472519
3.8824549 5.1702332 -0.53605074
3.9315915 5.1693068 -0.53861356
3.9814699 5.1687603 -0.54126477
4.0321016 5.168581 -0.54400432
4.0834975 5.1687555 -0.54683226
4.129447 5.1614923 -0.54886478
4.1604123 5.1352835 -0.54877645
4.1829996 5.098877 -0.54753923
4.1970229 5.0524259 -0.54515314
4.2369208 5.037251 -0.54639035
4.2722697 5.0164676 -0.54700899
4.3595576 5.0557919 -0.55469739
4.395083 5.0341997 -0.55531603
4.433805 5.0160937 -0.55637652
4.4704776 4.9954748 -0.55717182
4.5017138 4.9686885 -0.55726022
4.5327897 4.9417071 -0.55734861
4.5792923 4.9313202 -0.55946952
4.6217442 4.9161935 -0.56106025
4.6580024 4.8942366 -0.56185561
4.6976204 4.8756065 -0.56309283
4.7490082 4.8687963 -0.56583238
4.8053865 4.8665004 -0.56919056
4.8471274 4.8489003 -0.5706929
4.8952088 4.8372722 -0.5729906
4.9461808 4.8280191 -0.57564175
5.0015244 4.8224707 -0.57882315
5.0497727 4.8095531 -0.58112085
5.090796 4.7893991 -0.58253485
5.144165 4.7804503 -0.58545113
5.2086215 4.7811303 -0.58969301
5.2644238 4.7731686 -0.59287447
5.302516 4.7487516 -0.59393489
5.3419986 4.7253666 -0.59517211
5.4211483 4.7364125 -0.60109311
5.4704685 4.7206316 -0.60347915
5.509944 4.6960225 -0.60471642
5.556181 4.6768804 -0.60674894
5.609283 4.6630778 -0.60957688
5.6678133 4.653224 -0.61302346
5.7217903 4.6390624 -0.61593974
5.7680306 4.6181865 -0.61797231
5.8150105 4.5975351 -0.62009323
5.86902 4.5819979 -0.62300956
5.9238453 4.5665784 -0.62601423
5.9731536 4.5464344 -0.62840027
6.0503058 4.5468025 -0.63387942
6.1060877 4.5303674 -0.63697243
6.15627 4.5092978 -0.63944691
6.1935086 4.4784431 -0.64050734
6.2200603 4.4397774 -0.64041901
6.2488136 4.4026761 -0.64059573
6.3010607 4.3818822 -0.64333528
6.3524656 4.3600483 -0.6459865
6.4434233 4.3645644 -0.65287954
6.5222516 4.3598228 -0.65844703
6.5862961 4.3444033 -0.66242379
6.6428823 4.3234711 -0.66560525
6.6944299 4.2987776 -0.6682564
6.7560201 4.2800107 -0.67196804
6.810029 4.2558975 -0.67488438
6.8936715 4.2495785 -0.68089372
6.951107 4.2263484 -0.68416351
6.9991188 4.1969371 -0.68646121
7.0547476 4.171659 -0.68955421
7.1017232 4.1408377 -0.69176358
7.1563573 4.1140647 -0.69476825
7.20573 4.0838299 -0.69724268
7.2723913 4.0628605 -0.70148456
7.3451724 4.044589 -0.70634508
7.4311333 4.0327039 -0.71253115
7.576951 4.0518589 -0.72472662
7.6175323 4.0136499 -0.72631729
7.6446686 3.9682107 -0.72658241
7.7052341 3.9398234 -0.73020571
7.7479453 3.9018803 -0.73206156
7.8654385 3.9007392 -0.7413407
7.9688845 3.8913074 -0.74920583
8.1200867 3.9036274 -0.76175481
8.2636328 3.9104011 -0.77350837
8.4075632 3.9155579 -0.78526193
8.5274143 3.9078882 -0.79462945
8.6384039 3.894799 -0.80311322
8.6812611 3.8502028 -0.80496907
8.7403288 3.812396 -0.80841559
8.7891884 3.7696893 -0.81089002
8.8130713 3.7160761 -0.81097841
8.827425 3.6584973 -0.81018305
8.8561649 3.6068947 -0.81080168
8.8642578 3.5469351 -0.80947608
8.8580437 3.4815462 -0.80682486
8.8708754 3.4239004 -0.80602956
8.8470078 3.3524611 -0.80178761
8.8506069 3.2918627 -0.80019695
8.8584747 3.2330544 -0.79904807
8.8622036 3.1729305 -0.79754573
8.878686 3.1175032 -0.79728061
8.9155426 3.0691268 -0.79895973
8.9530821 3.0207338 -0.80072719
8.9667206 2.9641786 -0.80028528
8.9733677 2.9054215 -0.79922485
8.9796314 2.8466947 -0.79816437
8.9817085 2.7868195 -0.79675037
8.9852953 2.7276051 -0.79551315
8.9923134 2.6695857 -0.79462945
8.9970455 2.6110277 -0.79356897
9.0071468 2.5541432 -0.79303873
9.0255289 2.4996259 -0.79330385
9.0445433 2.4452393 -0.79365736
9.0661182 2.3914757 -0.79427594
9.0815859 2.3360503 -0.79436433
9.0938168 2.279798 -0.79418761
9.1037636 2.2230113 -0.79383409
9.1143246 2.1664186 -0.79356897
9.1225939 2.1093311 -0.79312712
9.1314774 2.0524423 -0.7927736
9.1409798 1.9957366 -0.79250848
9.1462326 1.9381652 -0.79188991
9.146244 1.879602 -0.79082942
9.1527205 1.8224734 -0.79038757
9.1578617 1.7651477 -0.78985733
9.1577492 1.7069147 -0.78888524
9.150404 1.6475139 -0.78729451
9.1171608 1.5838338 -0.78340614
9.1394787 1.5300007 -0.78455496
9.1506605 1.47421 -0.78473169
9.1693773 1.4195592 -0.78561544
9.1769304 1.3631239 -0.78552705
9.1584949 1.3030003 -0.78314102
9.167305 1.2469146 -0.78322935
9.1698446 1.1900004 -0.7827875
9.1611567 1.1317582 -0.78137356
9.1560564 1.0741318 -0.78031307
9.1505947 1.0166109 -0.77925259
9.1546793 0.96023679 -0.77907586
9.1742764 0.90541685 -0.78031307
9.1885862 0.84993362 -0.78110844
9.2025595 0.79430878 -0.78190374
9.2092466 0.73798722 -0.78208053
9.2116146 0.68131942 -0.78190374
9.2086649 0.62431329 -0.78128517
9.1984034 0.56693971 -0.78004795
9.197731 0.51026785 -0.77969444
9.198699 0.45372379 -0.77951771
9.2032995 0.39735913 -0.77969444
9.2095461 0.34102887 -0.78004795
9.2084789 0.28442135 -0.77978283
9.2269783 0.22833347 -0.78128517
9.2321901 0.17178778 -0.78163868
9.2300816 0.11509951 -0.78137356
9.2336025 0.058481682 -0.78163868
9.2307997 0.0018235422 -0.78137356
9.2246609 -0.054780375 -0.78084332
9.2241507 -0.11138079 -0.78084332
9.229269 -0.1680856 -0.78137356
9.2340384 -0.2248574 -0.78190374
9.2384586 -0.28169405 -0.78243399
9.2435246 -0.33862984 -0.78305262
9.2542105 -0.39589357 -0.78420144
9.2486219 -0.45252299 -0.78393632
9.2347307 -0.50866079 -0.78296423
9.2214937 -0.56470603 -0.78208053
9.215868 -0.62114358 -0.78190374
9.2089024 -0.67746025 -0.78163868
9.2055655 -0.73403138 -0.78172702
9.2008877 -0.79050183 -0.78172702
9.188921 -0.8463034 -0.78110844
9.1647205 -0.90081912 -0.77942932
9.1392069 -0.95496625 -0.77766186
9.1292152 -1.0105872 -0.7773084
9.1228418 -1.066584 -0.7773084
9.12008 -1.1230274 -0.77766186
9.1159821 -1.1793493 -0.77792698
9.1056128 -1.2348603 -0.77766186
9.1037817 -1.2915472 -0.7781921
9.1124363 -1.3498633 -0.77969444
9.1128416 -1.4071184 -0.7804898
9.1010857 -1.4625332 -0.78022468
9.0811329 -1.5165446 -0.77925259
9.0687122 -1.5717267 -0.77898747
9.0677214 -1.6289263 -0.77978283
9.0653906 -1.6859909 -0.7804898
9.0627003 -1.7430881 -0.78119677
9.0576963 -1.7998275 -0.78172702
9.0455065 -1.8551705 -0.78163868
9.0076399 -1.905074 -0.77925259
9.0132999 -1.9641247 -0.78084332
8.9981632 -2.0187383 -0.7805782
8.9768715 -2.0718963 -0.77978283
8.9659281 -2.127398 -0.77995956
8.9488344 -2.1814284 -0.7796061
8.9401131 -2.2375054 -0.78004795
8.9300747 -2.2933097 -0.78040141
8.9235411 -2.3500896 -0.78110844
8.9185696 -2.4073946 -0.78199214
8.9141912 -2.4649923 -0.78296423
8.8902731 -2.5172005 -0.78216887
8.8488283 -2.5642183 -0.77978283
8.8109627 -2.6119549 -0.77775025
8.7909565 -2.6648133 -0.77739674
8.7601681 -2.7142818 -0.77607119
8.7319527 -2.764375 -0.7750107
8.7015572 -2.8136113 -0.77377349
8.6746712 -2.8638279 -0.77288973
8.6531601 -2.9157286 -0.77253628
8.642642 -2.971359 -0.77324325
8.644927 -3.0315843 -0.77518743
8.6355419 -3.087925 -0.77607119
8.6042662 -3.1364193 -0.77492231
8.5876608 -3.1901956 -0.77518743
8.5856256 -3.2495267 -0.77686656
8.5766783 -3.3064454 -0.77792698
8.5534468 -3.3579166 -0.77766186
8.5317574 -3.4099667 -0.77757353
8.5162096 -3.4645042 -0.77810377
8.5067558 -3.521646 -0.77925259
8.581378 -3.6143699 -0.78853172
8.5086803 -3.6453834 -0.7836712
8.4761066 -3.6931469 -0.78269911
8.4150362 -3.7281413 -0.77898747
8.4029007 -3.7846131 -0.78004795
8.4130325 -3.8514407 -0.78331774
8.3982735 -3.9071908 -0.78420144
8.389451 -3.9658844 -0.78570378
8.4026718 -4.0353961 -0.78941548
8.4037151 -4.0995421 -0.79197824
8.3810806 -4.1523557 -0.79224336
8.347436 -4.1996741 -0.79144806
8.1769171 -4.17696 -0.77704328
8.159976 -4.2316394 -0.77792698
8.1541309 -4.2922993 -0.77995956
8.1346693 -4.3460059 -0.78066653
8.1069736 -4.3953629 -0.7805782
8.0562878 -4.4320612 -0.7781921
8.154192 -4.5513124 -0.79091781
8.2925377 -4.6954861 -0.80788535
8.2756634 -4.7532248 -0.80912256
8.2497854 -4.8059192 -0.80947608
8.2278595 -4.8610082 -0.81027144
8.2132597 -4.9206161 -0.81186211
8.1905746 -4.9755731 -0.81265748
8.1615868 -5.0267806 -0.81283426
8.139884 -5.0825672 -0.81380635
8.1220112 -5.1409402 -0.8152203
8.1012135 -5.1976714 -0.81636918
8.0758486 -5.2516255 -0.81707615
8.0509596 -5.3060122 -0.81787151
8.0141087 -5.3525457 -0.8174296
7.9745159 -5.3971524 -0.81672263
7.955215 -5.4555583 -0.81822497
7.9158645 -5.5002894 -0.81760639
7.8697481 -5.5401564 -0.81628078
7.8315516 -5.5854478 -0.81583893
7.675211 -5.5453162 -0.80249465
7.3291545 -5.3640628 -0.768206
7.314508 -5.422576 -0.77023858
7.3002152 -5.4817085 -0.77235949
7.2545495 -5.5173545 -0.77103394
7.2915831 -5.616466 -0.77898747
7.2852583 -5.6831555 -0.78216887
7.5589957 -5.9716401 -0.81707615
7.5696602 -6.0558648 -0.82246685
7.5400996 -6.1084676 -0.82335061
7.4901543 -6.1445098 -0.82193661
7.4867926 -6.2189927 -0.82591343
7.4576406 -6.2725072 -0.82697386
7.4296303 -6.3271894 -0.82821107
7.3959479 -6.3772111 -0.82882971
7.3574295 -6.4231267 -0.8289181
7.3156404 -6.4661713 -0.82865298
7.2750845 -6.510273 -0.82856458
7.2460747 -6.5648208 -0.82989019
7.2137322 -6.6165643 -0.83086228
7.1788378 -6.6661248 -0.83156925
7.1494122 -6.7209635 -0.83298326
7.1087604 -6.7653913 -0.83307159
7.0735707 -6.8151026 -0.83386695
7.0401783 -6.8667226 -0.83492744
6.9979124 -6.909791 -0.83492744
6.9532695 -6.9504867 -0.83466232
6.910491 -6.9930201 -0.83466232
6.8674526 -7.0352907 -0.83466232
6.8193154 -7.0722771 -0.83404368
6.7551823 -7.0923491 -0.83139253
6.7094893 -7.1314878 -0.83112741
6.6886611 -7.1973295 -0.83413208
6.6625609 -7.2580471 -0.83651811
6.6292758 -7.3113351 -0.8380205
6.5949225 -7.3637457 -0.83943444
6.5542355 -7.4092951 -0.84005302
6.5060277 -7.4463711 -0.83969957
6.4530563 -7.4778562 -0.83872747
6.3967133 -7.5051818 -0.83731347
2.9705024 -3.5292087 -0.37167743
2.9322345 -3.5274544 -0.36937973
2.8959973 -3.5276737 -0.36734715
2.8517122 -3.5175235 -0.36416575
2.8213592 -3.5240698 -0.36292851
2.7811482 -3.5178747 -0.36027735
2.737442 -3.5066092 -0.35709593
2.6982369 -3.5004628 -0.35453311
2.6688645 -3.5066495 -0.35338426
2.6395178 -3.5126078 -0.35223541
2.6018891 -3.5071397 -0.34984934
2.5726683 -3.5125923 -0.34870052
2.533556 -3.5040975 -0.34604934
2.5039053 -3.5082271 -0.3448121
2.4588084 -3.4901404 -0.34118882
2.4106159 -3.4667273 -0.3370353
2.3458931 -3.4182189 -0.33023059
2.2997351 -3.3954384 -0.32625383
2.2694468 -3.3954079 -0.3247515
2.2469246 -3.4067748 -0.32448637
2.2254355 -3.4196627 -0.32439801
2.2227116 -3.4617498 -0.32740268
2.1875682 -3.4534461 -0.32510498
2.1668649 -3.4676483 -0.32519335
2.2459133 -3.6436753 -0.34216091
2.2167859 -3.6463232 -0.34101209
2.1820757 -3.6393545 -0.33889112
2.1551406 -3.6449585 -0.33809578
2.1397598 -3.6701603 -0.339333
2.096844 -3.6478155 -0.33570972
2.0641072 -3.642415 -0.33385387
2.0368605 -3.6463161 -0.33297017
2.007241 -3.6456573 -0.33164456
1.9767565 -3.6430221 -0.33014223
1.9463801 -3.6401505 -0.32863989
0 -0 -0
0 -0 -0
1.7996818 -3.5201607 -0.31317466
1.7632625 -3.5017793 -0.31025836
1.7284648 -3.4857621 -0.30760717
1.7044214 -3.4909317 -0.30707693
0 -0 -0
1.6567668 -3.5016809 -0.30610484
0 -0 -0
0 -0 -0
1.5871181 -3.5206869 -0.30504435
1.5703323 -3.5412853 -0.30610484
1.5457859 -3.5444632 -0.30548623
1.5240084 -3.5538812 -0.30548623
1.5044957 -3.5686722 -0.30601647
1.4829519 -3.5787566 -0.30610484
0 -0 -0
0 -0 -0
1.428124 -3.6341848 -0.30884439
1.4140484 -3.664252 -0.31087697
1.4049524 -3.7082543 -0.31423512
1.3852981 -3.7252073 -0.31503049
1.3716363 -3.7589014 -0.31741655
1.358956 -3.7963178 -0.3201561
1.348178 -3.8402982 -0.32351428
1.3255618 -3.8513236 -0.3237794
1.3296132 -3.9414952 -0.33146781
1.3100939 -3.9637656 -0.33279341
0 -0 -0
1.274901 -4.0222716 -0.33677018
0 -0 -0
0 -0 -0
0 -0 -0
0 -0 -0
1.2457715 -4.39393 -0.36761227
1.217458 -4.3966913 -0.36717042
1.2710589 -4.7021608 -0.39456597
1.2660683 -4.800406 -0.40287301
1.2534664 -4.8736815 -0.40888235
1.2504295 -4.9885268 -0.41869172
1.2268867 -5.025135 -0.42134291
1.2365781 -5.203126 -0.43689653
1.2250527 -5.2989287 -0.44493845
1.2279093 -5.4637823 -0.45925483
1.2383506 -5.672657 -0.477548
1.2049663 -5.6869698 -0.47816661
1.2035413 -5.8571963 -0.49292484
1.2121341 -6.088181 -0.5131622
1.2081306 -6.2686234 -0.52880418
1.1913688 -6.3924451 -0.53932053
1.2204468 -6.7790174 -0.57352078
1.1861613 -6.828578 -0.57732081
1.1455556 -6.8435869 -0.57802784
1.1391989 -7.0717521 -0.59791172
1.3683408 -8.8386345 -0.7559222
1.3123255 -8.835041 -0.75486171
1.2555639 -8.8251762 -0.75327098
1.2005842 -8.8267918 -0.75274074
1.1471708 -8.8399191 -0.75327098
1.0930307 -8.8477802 -0.75335938
1.0369796 -8.8394814 -0.75203377
0.98195183 -8.838748 -0.75141519
0.9264524 -8.8327188 -0.75035471
0.87125969 -8.8283243 -0.74947095
0.81799161 -8.8434229 -0.75035471
0.76345688 -8.8452978 -0.75008959
0.70829308 -8.8388939 -0.74911749
0.65426588 -8.8460541 -0.74938262
0.59997517 -8.8499022 -0.74938262
0.54486477 -8.8404922 -0.74823374
0.49094155 -8.8496361 -0.74876398
0.43609172 -8.8415384 -0.74779189
0.38153177 -8.8370819 -0.74717325
0.19327289 -5.2239499 -0.42620343
0 -0 -0
0.11797049 -4.7748394 -0.38617057
0.087593131 -4.7177105 -0.38104492
0.058718931 -4.7241349 -0.38157517
0.029623114 -4.7074733 -0.38007283
0.00073637086 -4.7005939 -0.37945423
-0.028070707 -4.6945333 -0.37892398
-0.056875292 -4.6942725 -0.37892398
-0.085876793 -4.7047906 -0.3798961
-0.11442854 -4.6912298 -0.37874725
-0.1435447 -4.7013912 -0.37971935
-0.17282629 -4.7123671 -0.38077983
-0 -0 -0
-0 -0 -0
-0.26167116 -4.7471762 -0.38422635
-0 -0 -0
-0 -0 -0
-0 -0 -0
-0 -0 -0
-0.40000796 -4.6535511 -0.37680304
-0 -0 -0
-0 -0 -0
-0 -0 -0
-0 -0 -0
-0 -0 -0
-0.57455033 -4.6643448 -0.37936586
-0 -0 -0
-0 -0 -0
-0 -0 -0
-0.6872409 -4.638001 -0.37839377
-0 -0 -0
-0.74220854 -4.6174164 -0.37733328
-0 -0 -0
-0.80408728 -4.6383862 -0.38007283
-0.83675855 -4.6568947 -0.38219377
-0 -0 -0
-0 -0 -0
-0 -0 -0
-1.8085511 -8.8181486 -0.76104778
-1.8638605 -8.8127327 -0.76157802
-1.9170512 -8.7972374 -0.76122457
-1.9814584 -8.8319616 -0.76546645
-2.0221748 -8.7614021 -0.76016408
-2.0781949 -8.7585211 -0.76104778
-2.1137354 -8.6710873 -0.75424308
-2.1676259 -8.6608534 -0.7545082
-2.2157726 -8.6280947 -0.75274074
-2.2625847 -8.591218 -0.75061983
-2.3095469 -8.5560169 -0.74867564
-1.7416716 -6.2980032 -0.54214847
-1.7536927 -6.1932726 -0.53348798
-1.7847309 -6.1584768 -0.53127861
-1.8219188 -6.1455002 -0.53110188
-1.8604594 -6.1370649 -0.531367
-2.5374236 -8.1892834 -0.72304749
-2.5695884 -8.116581 -0.71774513
-2.600651 -8.0428467 -0.71235442
-2.6259105 -7.9539042 -0.70554972
-2.6536758 -7.8753414 -0.6997171
-2.6941764 -7.8363028 -0.69759613
-2.7313321 -7.7886047 -0.69467986
-2.7639799 -7.7294917 -0.69070309
-2.7847497 -7.639389 -0.68381
-2.8270631 -7.6100197 -0.68266118
-2.8458521 -7.5189328 -0.67567974
-2.8793948 -7.4687991 -0.67258668
-2.9069703 -7.4046302 -0.66816801
-2.9346066 -7.3422561 -0.66392612
-2.9687185 -7.2973537 -0.6613633
-2.9844849 -7.2090535 -0.65464699
-3.0054665 -7.1355252 -0.64934462
-3.0338957 -7.0812411 -0.6458981
-3.0534177 -7.0077009 -0.64059573
-3.0834486 -6.9596901 -0.63776779
-3.1007354 -6.8843288 -0.63228869
-3.1296518 -6.8361907 -0.62946075
-3.1505322 -6.7717013 -0.62504214
-3.1754224 -6.7171206 -0.62159556
-3.2096791 -6.6831436 -0.62018162
-3.2218046 -6.6042361 -0.61434901
-3.2401581 -6.5397148 -0.6099304
-3.2618709 -6.4832273 -0.60630709
-3.2943404 -6.4488974 -0.60489315
-3.3132145 -6.3887701 -0.60091639
-3.3314755 -6.3286552 -0.59693956
-3.3547564 -6.2791014 -0.59402329
-3.3538191 -6.1857166 -0.58668834
-3.3893104 -6.1606579 -0.58624649
-3.4153972 -6.1188703 -0.58412552
-3.4342287 -6.0648599 -0.58076739
-3.4545109 -6.0143056 -0.57776272
-3.4733 -5.9620104 -0.57458127
-3.5072834 -5.9362979 -0.57413942
-3.5385232 -5.9061213 -0.57325572
-3.5488398 -5.8417311 -0.56883705
-3.5699918 -5.7960978 -0.56636262
-3.5806949 -5.7343717 -0.56220907
-3.6014299 -5.689568 -0.55982304
-3.6131449 -5.6313119 -0.556023
-3.6248243 -5.5739632 -0.55231136
-3.6392255 -5.5216742 -0.5491299
-3.6619735 -5.4826736 -0.54736245
-3.6698651 -5.4221535 -0.54329735
-3.6940527 -5.3863897 -0.54188335
-3.7111197 -5.3407173 -0.53940892
-3.7484066 -5.3243618 -0.54011589
-3.7734871 -5.290719 -0.53896707
-3.7889633 -5.2440505 -0.53640425
-3.8045979 -5.1981959 -0.53392982
-3.824558 -5.1587491 -0.53216237
-3.8364031 -5.1088986 -0.52924603
-3.8592372 -5.074163 -0.52800882
-3.8787508 -5.0353937 -0.52632976
-3.8709781 -4.9620185 -0.52076226
-3.8970296 -4.9327016 -0.52014369
-3.9129114 -4.8908072 -0.51811111
-3.9315615 -4.8527737 -0.51652038
-3.9404166 -4.803144 -0.5136041
-3.9691775 -4.7781096 -0.51351571
-3.9907272 -4.7445173 -0.51245522
-3.9952235 -4.691123 -0.50909704
-4.0076718 -4.6476603 -0.50688773
-4.0282531 -4.6139774 -0.50582725
-4.0439548 -4.5749927 -0.50414819
-4.0540166 -4.5300512 -0.50176215
-4.079061 -4.5021381 -0.50140864
-4.0803514 -4.4483953 -0.49796209
-4.096725 -4.4115953 -0.49654815
-4.1087079 -4.3704085 -0.49460393
-4.1272073 -4.3364568 -0.49354345
-4.1426802 -4.2995734 -0.4921295
-4.1585517 -4.2633767 -0.4908039
-4.1888318 -4.242033 -0.49133414
-4.1894317 -4.1908889 -0.48815271
-4.1831861 -4.1335959 -0.48417595
-4.2034812 -4.1029801 -0.48355734
-4.2192559 -4.0681219 -0.48240849
-4.197978 -3.9981878 -0.47675264
-4.2398424 -3.9887359 -0.47887358
-4.2445374 -3.9443367 -0.47648752
-4.253984 -3.9047458 -0.47472006
-4.2298999 -3.8350785 -0.46897584
-4.2258983 -3.7844629 -0.46570605
-4.2430716 -3.7531822 -0.46499905
-4.2772722 -3.7369077 -0.46632466
-4.2918258 -3.7034338 -0.46535257
-4.3046141 -3.6686296 -0.46420372
-4.3026586 -3.6216202 -0.46137577
-4.3217354 -3.5926042 -0.46102229
-4.3098254 -3.5382066 -0.45713389
-4.3399649 -3.5185964 -0.45810598
-4.3536978 -3.4856746 -0.45722225
-4.3617206 -3.4483924 -0.45571992
-4.3678803 -3.4099171 -0.45404083
-4.3784657 -3.3751457 -0.45289201
-4.3745227 -3.3295131 -0.45015243
-4.4076104 -3.3121843 -0.4515664
-4.3838549 -3.2524314 -0.44670591
-4.4189963 -3.2366557 -0.44838497
-4.4097157 -3.188467 -0.44520357
-4.3837967 -3.1289403 -0.44025469
-4.3915133 -3.0939505 -0.43901747
-4.396513 -3.0572777 -0.43751514
-4.3856254 -3.0099499 -0.43433371
-4.4609137 -3.0215316 -0.44043145
-4.3824835 -2.9293323 -0.43009183
-4.4003754 -2.9023867 -0.43009183
-4.4055791 -2.8671811 -0.42876622
-4.3962684 -2.8228707 -0.42593831
-4.3832154 -2.7766507 -0.42275688
-4.3967915 -2.7475917 -0.4224034
-4.4110236 -2.7189937 -0.42213827
-4.4123044 -2.6825614 -0.42054757
-4.4201388 -2.6503146 -0.41966385
-4.4294586 -2.6190867 -0.41895685
-4.4815855 -2.6129334 -0.42266852
-4.4724913 -2.5709877 -0.4201057
-4.4361887 -2.5140259 -0.41480333
-4.4471831 -2.4843295 -0.41436148
-4.4597254 -2.4555538 -0.41409636
-4.4677048 -2.4243419 -0.41338935
-4.4693208 -2.3898365 -0.41206378
-4.4601073 -2.3498306 -0.40967771
-4.4753256 -2.3228786 -0.40976608
-4.4682097 -2.2844903 -0.40764514
-4.4803638 -2.2561347 -0.40746841
-4.5298171 -2.2463052 -0.41100329
-4.5837922 -2.2381387 -0.41498008
-4.5687118 -2.1961594 -0.41215214
-4.5136747 -2.1357014 -0.40543583
-4.5727444 -2.1294146 -0.40994284
-4.5313935 -2.0764158 -0.40464047
-4.5113592 -2.0338321 -0.40145904
-0.28156653 -0.12446222 0.010269637
-0.25219601 -0.10958899 0.013185939
-0.26842588 -0.11471488 0.011683602
-0.24801496 -0.10416362 0.013716175
-0.25417045 -0.10492831 0.013185939
-4.5545645 -1.854755 -0.39871949
-0 -0 -0
-0 -0 -0
-0 -0 -0
-0 -0 -0
-0 -0 -0
-0 -0 -0
-0 -0 -0
-0 -0 -0
-0 -0 -0
-0 -0 -0
-0 -0 -0
-0 -0 -0
-0 -0 -0
-0 -0 -0
-0 -0 -0
-0 -0 -0
-0 -0 -0
-0 -0 -0
-0 -0 -0
-0 -0 -0
-0 -0 -0
-0 -0 -0
-0 -0 -0
-0 -0 -0
-0 -0 -0
-0 -0 -0
-0 -0 -0
-0 -0 -0
-0 -0 -0
-0 -0 -0
-0 -0 -0
-0 -0 -0
-0 -0 -0
-0 -0 -0
-0 -0 -0
-0 -0 -0
-0 -0 -0
-0 -0 -0
-0 -0 -0
-0 -0 -0
-0 -0 -0
-0 -0 -0
-0 -0 -0
-0 -0 -0
-0 -0 -0
-0 -0 -0
-0 -0 -0
-0 -0 -0
-0 -0 -0
-0 -0 -0
-0 -0 -0
-0 -0 -0
-0 -0 -0
-0 -0 -0
-0 -0 -0
-0 -0 -0
-0 -0 -0
-0 -0 -0
-0 0 -0
-0 0 -0
-0 0 -0
-0.27356499 0.024133284 0.0098857582
-0.27638197 0.026104523 0.0095825894
-0 0 -0
-0 0 -0
-0.27980706 0.031651057 0.0091783637
-0 0 -0
-0 0 -0
-0 0 -0
-0 0 -0
-0.27476817 0.0396345 0.0095825894
-0.2715703 0.040863074 0.0098857582
-0.27131444 0.042528629 0.0098857582
-0 0 -0
-0.27077213 0.045854874 0.0098857582
-0.27244395 0.047868017 0.0096836453
-0.27018902 0.049174208 0.0098857582
-0 0 -0
-0 0 -0
-0 0 -0
-0 0 -0
-0 0 -0
-0.26819599 0.059085798 0.0098857582
-0 0 -0
-0.26745072 0.062372524 0.0098857582
-0 0 -0
-0.26666516 0.06564986 0.0098857582
-0 0 -0
-0 0 -0
-0 0 -0
-0.27072647 0.073767595 0.0092794197
-0.26548302 0.074070282 0.0097847013
-0 0 -0
-0 0 -0
-0.26312268 0.078655422 0.0098857582
-0.27023664 0.082626998 0.0090773078
-0 0 -0
-0.27582785 0.088082217 0.0083699133
-0.27717143 0.090397529 0.0081678005
-0 0 -0
-0.27227843 0.092496723 0.0085720262
-0.26795095 0.092847265 0.0089762509
-0.2655029 0.09381894 0.0091783637
-0.26585683 0.095787361 0.0090773078
-0.267129 0.09811046 0.0088751949
-0.26931298 0.10080528 0.0085720262
-0.26961753 0.10281409 0.0084709693
-0.27175939 0.10555827 0.0081678005
-0.26833552 0.10611498 0.0084709693
-0.26675797 0.10738419 0.0085720262
-0.26701313 0.10939987 0.0084709693
-0.26450339 0.1102631 0.0086730821
-0.26565051 0.1126683 0.0084709693
-0.26768991 0.11548945 0.0081678005
-0.26788571 0.11753313 0.0080667445
-0.26715949 0.11917464 0.0080667445
-0.26461437 0.1199827 0.0082688574
-0.26116756 0.12034404 0.0085720262
-0.25682712 0.1202421 0.0089762509
-0.25339454 0.12052254 0.0092794197
-0.24996829 0.12076543 0.0095825894
-0.24654871 0.12097086 0.0098857582
-0.24846749 0.12382383 0.0095825894
-0.24770305 0.12534606 0.0095825894
-0 0 -0
-0.25406781 0.13255019 0.0086730821
-0.25763628 0.13645241 0.0081678005
-0.25854301 0.13897973 0.0079656886
-0.25681388 0.14008363 0.0080667445
-0.25855511 0.14311244 0.0077635758
-0.25594103 0.14371511 0.0079656886
-0.25419191 0.14478698 0.0080667445
-0.2532987 0.14634396 0.0080667445
-0.25410873 0.1489082 0.0078646317
-0.25660321 0.15251113 0.0074604065
-0.25651267 0.15459961 0.0073593506
-0.25725302 0.15721478 0.0071572377
-0.26134557 0.16195384 0.0065509002
-0.26202777 0.16461922 0.0063487873
-0.26519847 0.16891174 0.0058435057
-0.26499087 0.17107849 0.0057424498
-0.26227519 0.17160562 0.0059445621
-0.25956309 0.17210589 0.006146675
-0.25767851 0.17313735 0.0062477309
-0.25579104 0.17415218 0.0063487873
-0.25390086 0.17515039 0.0064498438
-0.25200808 0.17613198 0.0065509002
-0.25254214 0.17883095 0.0063487873
-0.25224629 0.18096012 0.0062477309
-0.25113118 0.18250446 0.0062477309
-0.25000662 0.18404195 0.0062477309
-0.24807733 0.18497479 0.0063487873
-0.24931261 0.18830118 0.0060456186
-0.25288013 0.19347186 0.0054392805
-0.25404081 0.19685657 0.0051361118
-0.25516939 0.20026274 0.004832943
-0.25471243 0.20244648 0.0047318866
-0.25191987 0.20275243 0.0049339994
-0.24990213 0.20366305 0.0050350553
-0.24788272 0.2045566 0.0051361118
-0.24510068 0.20479235 0.0053382246
-0.24611102 0.20822844 0.0050350553
-0.24708833 0.21168455 0.0047318866
-0.24878162 0.21581502 0.0043276614
-0.24894306 0.21865579 0.004125549
-0.24907896 0.22150663 0.0039234362
-0.24918918 0.22436731 0.0037213238
-0 0 -0
-0 0 -0
-0 0 -0
-0 0 -0
-0 0 -0
-0 0 -0
-0 0 -0
-0 0 -0
-0 0 -0
-0 0 -0
-0 0 -0
-0 0 -0
-0 0 -0
-0 0 -0
-0 0 -0
-0 0 -0
-0 0 -0
-0 0 -0
-0 0 -0
-0 0 -0
-0 0 -0
-0 0 -0
-0 0 -0
-0 0 -0
-0 0 -0
-0 0 -0
-0 0 -0
-0 0 -0
-0 0 -0
-0 0 -0
-0 0 -0
-4.4037733 5.9382806 -0.71317208
-4.3790054 5.9812465 -0.71519315
-4.3521276 6.0217123 -0.71691114
-4.3376269 6.0798922 -0.72085232
-4.3265839 6.1438146 -0.72550094
-4.2995911 6.1857696 -0.72742099
-4.307694 6.279314 -0.73570758
-4.2969651 6.3468232 -0.74076045
-4.2728605 6.3954072 -0.74348897
-4.2559848 6.4555631 -0.74763227
-4.2575145 6.5449429 -0.7553125
-4.2382274 6.6036 -0.75925374
-4.2178483 6.6614251 -0.76309389
-4.1948109 6.7158718 -0.7665298
-4.1790891 6.7829924 -0.77148151
-4.1694155 6.8612247 -0.77774704
-4.145133 6.9165487 -0.78128397
-4.1258945 6.9812546 -0.7859326
-4.1195388 7.0691934 -0.79330969
-4.1162214 7.1642165 -0.80149525
-4.1025777 7.2430134 -0.80776072
-4.0755138 7.299324 -0.81139874
-4.0584631 7.3747506 -0.81726003
-4.0425358 7.4537396 -0.82352555
-4.024384 7.5301762 -0.82948786
-4.0100799 7.6154723 -0.83646071
-3.9971693 7.7052903 -0.84393889
-3.9719918 7.7730842 -0.84889066
-3.9559689 7.8604102 -0.85606563
-3.9553645 7.980814 -0.86697972
-3.9438336 8.081831 -0.87567055
-3.9264727 8.1731396 -0.88324982
-3.9021859 8.2519436 -0.88941425
-3.8758199 8.3280497 -0.89527547
-3.8242328 8.35077 -0.89517444
-3.7908981 8.413991 -0.89962089
-3.7323487 8.4216299 -0.89790297
-3.7056406 8.501833 -0.90426952
-3.6643748 8.5500154 -0.90709907
-3.6199536 8.5915937 -0.90922129
-3.5736377 8.6292706 -0.91093922
-3.5269954 8.6667013 -0.9126572
-3.4800282 8.7038841 -0.91437513
-3.3887465 8.6287622 -0.90386528
-3.3819027 8.7691412 -0.91690153
-3.3283849 8.790658 -0.91700262
-3.2781947 8.8211737 -0.91811424
-3.2362733 8.8747721 -0.92175227
-3.1928122 8.9253769 -0.92508709
-3.152473 8.9861078 -0.9295336
-3.0943649 8.9968138 -0.92862409
-3.0362439 9.0071459 -0.92771459
-2.983727 9.0341091 -0.92862409
-2.9355848 9.0749664 -0.93104941
-2.8756428 9.0795288 -0.92963463
-2.8210554 9.1008034 -0.93003887
-2.7680469 9.1274633 -0.93104941
-2.7159486 9.15763 -0.93246424
-2.6610918 9.1788998 -0.93296951
-2.6025527 9.187397 -0.93216103
-2.5442748 9.1964808 -0.93145365
-2.4896133 9.2186432 -0.93216103
-2.4340153 9.2375937 -0.93256527
-2.3708546 9.2273006 -0.92993778
-2.3033228 9.1982441 -0.92539024
-2.238122 9.1764402 -0.92165118
-2.1737354 9.1561203 -0.91811424
-2.1125913 9.1479588 -0.91589099
-2.0546782 9.1529837 -0.91508251
-1.9974189 9.1605577 -0.91457725
-1.9409672 9.1716681 -0.91447622
-1.8846544 9.1834049 -0.91447622
-1.827495 9.1908932 -0.91407198
-1.7663686 9.1775093 -0.91154557
-1.7056574 9.1646996 -0.9091202
-1.6444664 9.1475754 -0.90629065
-1.5845692 9.1359272 -0.9040674
-1.5268437 9.1356649 -0.90305686
-1.464919 9.1085176 -0.89931774
-1.4049034 9.0907879 -0.89658922
-1.3480765 9.0923481 -0.89588183
-1.2905846 9.0886278 -0.89466918
-1.2290444 9.0539837 -0.89032376
-1.1691271 9.0278082 -0.88688785
-1.1086048 8.9933405 -0.88264346
-1.0509757 8.9792223 -0.8805213
-0.99421847 8.9706697 -0.87900543
-0.93667531 8.9528532 -0.87658006
-0.87822044 8.9227877 -0.87294203
-0.82044363 8.8953161 -0.86960721
-0.76405913 8.8793669 -0.86748499
-0.7079013 8.863061 -0.86536282
-0.65233737 8.8513632 -0.86374593
-0.59767962 8.8502359 -0.86324066
-0.54299951 8.8477783 -0.8626343
-0.48831728 8.8439903 -0.86192691
-0.43370205 8.8398638 -0.86121953
-0.37881565 8.8274488 -0.85970366
-0.32340589 8.795804 -0.85626775
-0.26818654 8.7568521 -0.85212445
-0.21343322 8.7165594 -0.84788007
-0.15932941 8.6838846 -0.84444416
-0.10581484 8.6657982 -0.84252411
-0.05258733 8.6573305 -0.8416146
0.00052876328 8.6306276 -0.83888608
0.053434893 8.6225033 -0.8380776
0.10600566 8.5951538 -0.83534908
0.15857597 8.5853891 -0.83443958
0.21090738 8.5703306 -0.8330248
0.26253787 8.5380478 -0.8298921
0.3145901 8.5273285 -0.82898259
0.36677814 8.5222559 -0.82867938
0.41720036 8.4820852 -0.82483923
0.46719861 8.4426117 -0.82110018
0.51599383 8.3909292 -0.8161484
0.56706613 8.38165 -0.8155421
0.61745691 8.3641224 -0.81412727
0.66733617 8.3423252 -0.81230825
0.71491796 8.2964439 -0.80806392
0.76141208 8.2443495 -0.80321324
0.80846661 8.2038794 -0.79957521
0.85650623 8.1769972 -0.79735196
0.90611392 8.1666431 -0.79684669
0.8153671 6.9603829 -0.67406327
0.85805988 6.9552488 -0.67406327
0.96243268 7.4253979 -0.72277242
0.97070026 7.145299 -0.69467872
0.96533853 6.7934866 -0.659208
0.98010868 6.6063643 -0.64061362
1.0209305 6.6021924 -0.64081573
1.0611051 6.5938392 -0.64061362
1.098259 6.5675797 -0.63859248
1.1315547 6.5205293 -0.63444918
1.1572632 6.4341536 -0.62626362
1.1910695 6.3966122 -0.62313086
1.2144793 6.3071241 -0.61464214
1.2381964 6.2244225 -0.60686082
1.2659516 6.1660328 -0.60160589
1.2946872 6.1153255 -0.59715945
1.3321857 6.1072659 -0.59715945
1.3574166 6.04462 -0.59150028
1.3852911 5.9964356 -0.58735698
1.4107853 5.9403949 -0.58240521
1.4335203 5.8755708 -0.57654393
1.4468042 5.7759523 -0.56704462
1.4794912 5.7563677 -0.56593305
1.5086938 5.7240939 -0.56350768
1.5383352 5.6945605 -0.56138551
1.570592 5.675426 -0.56037492
1.5996865 5.6455822 -0.55825275
1.6329106 5.6308832 -0.55774748
1.6713942 5.6341105 -0.55916226
1.7010204 5.6075649 -0.55744427
1.7353957 5.5970221 -0.55744427
1.7633921 5.5663528 -0.55532211
1.7874002 5.5241938 -0.55198723
1.8093965 5.4772272 -0.54814714
1.8213426 5.4019203 -0.54127526
1.8525108 5.3849988 -0.54066896
1.8907913 5.3885498 -0.54228586
1.9258313 5.3824668 -0.54289216
1.9625732 5.3808289 -0.54400378
1.9927778 5.3612261 -0.54319537
2.0281038 5.3554096 -0.54390275
2.0634336 5.3493619 -0.54461014
2.0965817 5.3375258 -0.54471117
2.109704 5.2756062 -0.53935522
2.1330285 5.2404485 -0.53692985
2.1548588 5.2024465 -0.53420132
2.1878996 5.1918769 -0.53450453
2.2279503 5.1975555 -0.5366267
2.2685506 5.2038493 -0.53884995
2.3060849 5.2025638 -0.54026473
2.3408263 5.194665 -0.54097211
2.3768008 5.1892486 -0.54198271
2.4090168 5.1754689 -0.54208374
2.4330678 5.144403 -0.54026473
2.4654496 5.1311703 -0.54046685
2.4990702 5.1204162 -0.54097211
2.5299993 5.1040945 -0.54087108
2.5621648 5.0902514 -0.5410732
2.6010494 5.0894933 -0.54279113
2.6528552 5.113173 -0.54733866
2.693918 5.1152825 -0.54946083
2.7219701 5.0925155 -0.54875344
2.7579112 5.0844622 -0.54976404
2.7799389 5.0508862 -0.54784393
2.8259203 5.060658 -0.55097669
2.8534849 5.0371647 -0.55026931
2.8818595 5.0152483 -0.54976404
2.9040589 4.9828606 -0.54804605
2.9279954 4.953815 -0.54673231
2.9639645 4.9451418 -0.54784393
3.0009706 4.9379129 -0.54915768
3.0343451 4.9244881 -0.54976404
3.0692494 4.9133697 -0.55067354
3.1004043 4.8961258 -0.55087566
3.1325383 4.8803582 -0.55127984
3.1645954 4.8643808 -0.55168408
3.1943831 4.8448715 -0.55168408
3.2118869 4.8069839 -0.54946083
3.2558284 4.8086019 -0.55208832
3.2942801 4.8016577 -0.55370522
3.3339047 4.7960563 -0.55552423
3.3907752 4.8145475 -0.56037492
3.4335468 4.8122759 -0.5626992
3.4705882 4.8015976 -0.56401294
3.5082154 4.7914486 -0.56542772
3.5363634 4.7682347 -0.5652256
3.5655541 4.7464461 -0.5652256
3.5909953 4.7197289 -0.5646193
3.6235321 4.7023339 -0.5652256
3.6670103 4.6988325 -0.56765097
3.698858 4.6801457 -0.56815624
3.748647 4.6837668 -0.57159215
3.7998717 4.6884975 -0.57523018
3.8374064 4.675859 -0.57664502
3.8660247 4.652225 -0.57664502
3.9028263 4.6383104 -0.5779587
3.9641256 4.6528921 -0.5831126
4.0068998 4.6450515 -0.58533585
4.0438356 4.6301179 -0.58664954
4.0807385 4.6149054 -0.58796328
4.127563 4.6105309 -0.59079289
4.1657987 4.5961733 -0.5923087
4.2019954 4.5793209 -0.59352142
4.2252736 4.5483503 -0.59281403
4.2715087 4.541903 -0.59554249
4.3267426 4.5444241 -0.59958476
4.3738813 4.5378432 -0.60241437
4.4148464 4.524447 -0.60433441
4.4628043 4.5177946 -0.60726506
4.5002918 4.5001731 -0.60867983
4.5292354 4.4738731 -0.60888195
4.5587378 4.4480824 -0.6091851
4.6045728 4.437974 -0.61181259
4.6468511 4.4240403 -0.61393476
4.6920309 4.4124804 -0.61646116
4.7372427 4.4005318 -0.61898756
4.7920156 4.3969364 -0.62282771
4.8528199 4.3981771 -0.62747633
4.8989906 4.3855677 -0.63010377
4.9459348 4.3732152 -0.63283229
4.99366 4.3611054 -0.63566184
5.0549841 4.3602681 -0.64031047
5.1255741 4.3665819 -0.64617175
5.1682596 4.3484979 -0.64829391
5.2063236 4.3262396 -0.64980978
5.2527695 4.3106189 -0.65243721
5.2984457 4.2939639 -0.65496361
5.344892 4.2775316 -0.6575911
5.3952379 4.2637739 -0.66072381
5.4754243 4.2728119 -0.66769671
5.5196667 4.2530985 -0.670021
5.5607052 4.2305932 -0.6719411
5.6032658 4.2089391 -0.67406327
5.6481667 4.1886983 -0.67648864
5.6817899 4.1598387 -0.67749918
5.7096267 4.1266456 -0.67780232
5.8150282 4.148725 -0.6878069
5.8737288 4.136447 -0.6919502
5.9161563 4.1122503 -0.69407243
5.9527636 4.0837498 -0.6954872
6.0947051 4.1263309 -0.7098372
6.1372828 4.1004605 -0.71195936
6.2096767 4.0939317 -0.71771955
6.2079906 4.0383968 -0.71448576
6.2854061 4.0340757 -0.72085232
6.2848215 3.9794705 -0.71782064
6.3259983 3.9513712 -0.71984178
6.3433475 3.9083073 -0.7190333
6.3842149 3.8796422 -0.72105443
6.4625196 3.8731198 -0.72752202
6.562397 3.8784328 -0.73651606
6.6402287 3.8696434 -0.74288261
6.714747 3.8580618 -0.74884492
6.8421807 3.875613 -0.76097167
6.9518356 3.8815606 -0.77097625
7.0504861 3.8800726 -0.77966708
7.1353831 3.8699317 -0.78674102
7.205502 3.850924 -0.79209703
7.2413201 3.8131273 -0.79351181
7.28931 3.7814476 -0.79634136
7.3327527 3.7470596 -0.7986657
7.3991542 3.7239058 -0.80361742
7.4049268 3.6700435 -0.80169737
7.4085288 3.6153784 -0.79957521
7.4072556 3.5586543 -0.79694772
7.4217563 3.5097358 -0.79613924
7.4593883 3.4716845 -0.79795825
7.4742179 3.4229505 -0.79725087
7.4823804 3.3713052 -0.79583609
7.5029254 3.3253307 -0.79583609
7.5268364 3.2808206 -0.79624033
7.5395093 3.2314408 -0.79543185
7.5371904 3.1758502 -0.79300654
7.5537772 3.1284013 -0.79270333
7.570066 3.0808687 -0.79240018
7.5879035 3.0339923 -0.79229915
7.6156378 2.9910123 -0.79330969
7.6301336 2.9427958 -0.79290545
7.6443248 2.8945141 -0.79250127
7.6638064 2.848248 -0.79270333
7.676465 2.7994664 -0.79219806
7.6785092 2.7469521 -0.79058117
7.6867704 2.6968229 -0.78967166
7.6994095 2.6483133 -0.78926742
7.7117434 2.5997498 -0.78886324
7.722826 2.5508232 -0.78835791
7.7430654 2.5049193 -0.78886324
7.763032 2.4588628 -0.78936851
7.7760725 2.4105947 -0.78916639
7.7859569 2.361393 -0.78866112
7.7945762 2.3118782 -0.78805476
7.8028817 2.2623467 -0.78744841
7.8271461 2.2174079 -0.78856003
7.84444 2.1704004 -0.78896427
7.847044 2.119375 -0.78785264
7.8502798 2.0686529 -0.78684211
7.860898 2.0199506 -0.78663999
7.8799 1.9733697 -0.78734738
7.8995924 1.9268675 -0.78815579
7.9141707 1.8790492 -0.788459
7.919735 1.829111 -0.78785264
7.927897 1.7798285 -0.7875495
7.9260316 1.7283967 -0.78623575
7.9355145 1.679525 -0.78613472
7.9544415 1.632601 -0.78704423
7.9643097 1.5837626 -0.78704423
7.9631305 1.5327978 -0.7859326
7.965539 1.4826348 -0.78522521
7.972528 1.4333794 -0.78502309
7.9968572 1.3871522 -0.78663999
8.0199375 1.3405164 -0.78815579
8.0211353 1.2901769 -0.78744841
8.0171022 1.2391139 -0.78623575
8.0019197 1.1865455 -0.78391147
7.990334 1.1347691 -0.78199136
8.0030613 1.0865222 -0.78259772
8.0243778 1.0393106 -0.78411359
8.0286283 0.98981118 -0.78391147
8.0286217 0.93983662 -0.78330511
8.0065498 0.88749129 -0.78047556
8.0375719 0.84103554 -0.78310299
8.0356503 0.79102087 -0.7823956
8.0453062 0.74215639 -0.78290087
8.0467348 0.69252181 -0.78259772
8.0300055 0.64147431 -0.78047556
8.0129547 0.59065819 -0.77835333
8.0194054 0.54168117 -0.77865654
8.0166206 0.49209997 -0.77805018
8.0234623 0.44312051 -0.77845442
8.0319929 0.39417288 -0.77906078
8.0273018 0.34458441 -0.77835333
8.0511379 0.29612464 -0.78057659
8.0458422 0.24650595 -0.7798692
8.0342741 0.19681808 -0.77855545
8.0263777 0.14735395 -0.77764595
8.0251417 0.098078221 -0.77744383
8.0255919 0.048835032 -0.77744383
8.0327044 -0.00041136134 -0.77815127
8.0375252 -0.049730603 -0.77865654
8.0579596 -0.099307477 -0.78077871
8.0631666 -0.14885937 -0.78138506
8.0611076 -0.19830662 -0.78128397
8.0448227 -0.24730422 -0.77976817
8.0173044 -0.29570448 -0.77714068
8.025279 -0.34532133 -0.77815127
8.0488443 -0.39583132 -0.78077871
8.0432844 -0.44504532 -0.78047556
8.0413952 -0.49445081 -0.78057659
8.0451574 -0.54425365 -0.78128397
8.0396824 -0.5934608 -0.78108186
8.0348978 -0.64270067 -0.78098083
8.0337772 -0.69224644 -0.78128397
8.0303688 -0.74161941 -0.78138506
8.0009155 -0.78843611 -0.77885866
7.9969163 -0.83761775 -0.77895969
7.9965701 -0.88721937 -0.77946496
7.9929519 -0.93650055 -0.77966708
7.965333 -0.98284322 -0.77744383
7.9492865 -1.0304188 -0.77643329
7.9457717 -1.0795776 -0.77673644
7.9399829 -1.1284517 -0.77683753
7.9407821 -1.1783186 -0.77764595
7.935369 -1.2273246 -0.77784806
7.9326 -1.2767832 -0.77835333
7.9275599 -1.3259255 -0.77865654
7.9339781 -1.3770972 -0.78017235
7.9253793 -1.4257534 -0.78017235
7.9145255 -1.4739912 -0.77997029
7.9111938 -1.5236558 -0.78057659
7.9055986 -1.5729463 -0.78098083
7.8889771 -1.6200227 -0.78027344
7.8779149 -1.6681918 -0.78017235
7.8636427 -1.7156496 -0.77976817
7.8558798 -1.7645222 -0.78007132
7.8371506 -1.8108988 -0.77926284
7.8210521 -1.8578022 -0.77875757
7.8375335 -1.9126003 -0.78168821
7.8150353 -1.9579933 -0.78057659
7.8019104 -2.0056608 -0.78047556
7.8096585 -2.0588233 -0.78259772
7.808404 -2.1098197 -0.78381038
7.7991462 -2.1587534 -0.78421462
7.7905393 -2.2079246 -0.78471988
7.7653794 -2.2523575 -0.78350723
7.738061 -2.2959986 -0.78209245
7.7200193 -2.3422792 -0.78168821
7.7074022 -2.3901939 -0.78189033
7.6925912 -2.4374406 -0.78189033
7.6547747 -2.4772406 -0.77946496
7.6110921 -2.5147951 -0.77643329
7.5908051 -2.5598581 -0.77592802
7.5777774 -2.6073577 -0.77623117
7.5672684 -2.6557827 -0.77683753
7.5592604 -2.7051826 -0.77774704
7.5415845 -2.7511735 -0.77764595
7.5245619 -2.7973959 -0.77764595
7.5258622 -2.8505638 -0.77966708
7.5045171 -2.8952549 -0.77926284
7.4736481 -2.9361525 -0.77784806
7.4462547 -2.9782586 -0.77683753
7.4306045 -3.0250177 -0.77714068
7.4220133 -3.074744 -0.7782523
7.3956733 -3.1171343 -0.77744383
7.3700075 -3.1597097 -0.77673644
7.3459215 -3.202883 -0.77623117
7.3297687 -3.2495098 -0.77663541
7.3378077 -3.3070996 -0.77976817
7.3318486 -3.3586929 -0.78138506
7.3165131 -3.4061372 -0.78199136
7.3017707 -3.4539452 -0.78269881
7.2903032 -3.5034244 -0.78381038
7.2847614 -3.555949 -0.78562939
7.2841964 -3.6111889 -0.78805476
7.2485728 -3.6491036 -0.7865389
7.2189598 -3.689888 -0.78573048
7.182055 -3.7267795 -0.78411359
7.1088824 -3.744343 -0.77835333
7.1717505 -3.8338692 -0.78825688
7.1515894 -3.8797002 -0.78866112
7.1337495 -3.9268677 -0.78936851
7.1190743 -3.975903 -0.79048014
7.101469 -4.0234346 -0.79128855
7.0775104 -4.0674281 -0.79138964
7.0472631 -4.1077719 -0.79078329
7.0176439 -4.1484036 -0.79027802
6.9988837 -4.195478 -0.79108644
6.995111 -4.2517819 -0.79371393
6.9807472 -4.3019323 -0.7951287
6.9584384 -4.3473206 -0.79563397
6.9291115 -4.3883376 -0.79533082
6.90624 -4.4334588 -0.79583609
6.8897467 -4.4828067 -0.79714984
6.8753986 -4.5337615 -0.79876673
6.8499322 -4.5775218 -0.79906988
6.8250108 -4.6216974 -0.79947412
6.7973442 -4.6640511 -0.79957521
6.7514458 -4.6937428 -0.79745299
6.6973066 -4.7173166 -0.79432023
6.676333 -4.764102 -0.79533082
6.6566496 -4.8119731 -0.79654348
6.6269989 -4.8527269 -0.79654348
6.6114798 -4.9039683 -0.79836249
6.6083064 -4.9647651 -0.8017984
6.5959263 -5.0190783 -0.80412269
6.5784006 -5.0697818 -0.80584067
6.5769687 -5.1333156 -0.80968082
6.5609555 -5.1859155 -0.81170195
6.5523105 -5.2447295 -0.81473362
6.5200062 -5.2848349 -0.81473362
6.4913011 -5.327898 -0.81523889
6.458487 -5.3676276 -0.81523889
6.4223862 -5.404592 -0.81483465
6.3951607 -5.44906 -0.81564313
6.3698907 -5.4953475 -0.81675476
6.3427949 -5.5402203 -0.81766427
6.3071909 -5.5777159 -0.81746215
6.2728481 -5.6163111 -0.81746215
6.2449021 -5.6607094 -0.81837165
6.2166471 -5.7049756 -0.81928116
6.1807961 -5.7423358 -0.81918013
6.1461701 -5.7808342 -0.81928116
6.1105843 -5.8184376 -0.81928116
6.0769162 -5.8578935 -0.81958431
6.047266 -5.9013247 -0.82049382
6.0095267 -5.9369206 -0.8202917
5.9701724 -5.9708681 -0.81988752
5.9285302 -6.0024323 -0.81918013
5.892283 -6.0394082 -0.81928116
5.8495927 -6.0697174 -0.81847268
5.8074384 -6.100451 -0.8177653
5.7624016 -6.1279964 -0.81665367
5.7240157 -6.1625094 -0.81655264
5.6874404 -6.1989818 -0.81675476
5.6452889 -6.2293386 -0.8161484
5.5996623 -6.2557049 -0.81503677
5.559855 -6.2884555 -0.81483465
5.5224738 -6.3239503 -0.81503677
5.4855156 -6.3599772 -0.81533998
5.4496136 -6.3973031 -0.81584525
2.9614215 -3.5191193 -0.42940596
2.9302373 -3.5257447 -0.42789012
2.8908808 -3.522121 -0.42506054
2.8566897 -3.524332 -0.42303941
2.8033142 -3.5021741 -0.41788554
2.7614205 -3.4935472 -0.41455069
2.7240222 -3.4900298 -0.41192323
2.6825221 -3.4806688 -0.40858838
2.6424448 -3.4725146 -0.40545562
2.6073482 -3.470365 -0.40313134
2.570008 -3.4647195 -0.40040281
2.5363615 -3.4635639 -0.39828062
2.5086527 -3.470191 -0.39716899
2.4792252 -3.4741788 -0.39575422
2.4492707 -3.4771228 -0.39423838
2.4125617 -3.4700265 -0.39150986
2.3332691 -3.4002552 -0.38110104
2.2878258 -3.3782556 -0.37665457
2.2637389 -3.3872659 -0.37604824
2.2445548 -3.4035842 -0.37635142
2.2306793 -3.4281349 -0.37766513
2.2187357 -3.4559927 -0.37938309
2.1974883 -3.4695415 -0.37938309
2.1661468 -3.4669259 -0.37746304
2.1422246 -3.4759164 -0.37695774
2.1115589 -3.4736903 -0.37513873
2.078445 -3.4669521 -0.37281445
2.0485301 -3.4650784 -0.37109649
2.0127072 -3.4526529 -0.36816585
1.9810786 -3.446821 -0.36604366
1.9579313 -3.4554489 -0.36563945
1.9342678 -3.4630537 -0.36513415
1.9115437 -3.4722419 -0.364831
1.8883058 -3.4804072 -0.36442676
1.8556634 -3.4708681 -0.36200142
1.8278438 -3.4698639 -0.36058661
1.7982745 -3.4651167 -0.35876763
1.7729058 -3.4681118 -0.35785812
1.7453327 -3.4664824 -0.35644332
1.715638 -3.4601884 -0.35452324
1.6930659 -3.4679677 -0.35422009
1.6721857 -3.4791877 -0.35432115
1.6491055 -3.4857848 -0.35391691
1.6264272 -3.4931319 -0.35361373
1.608276 -3.5102823 -0.35442218
1.5850729 -3.5164561 -0.35401797
1.5618545 -3.5224771 -0.35361373
1.5378271 -3.5265219 -0.35300741
1.5161599 -3.5358915 -0.35300741
1.4986835 -3.5552135 -0.35411903
1.4795047 -3.5707769 -0.35482642
0 -0 -0
0 -0 -0
1.4226167 -3.6205566 -0.35735282
1.4114685 -3.6579943 -0.36048558
1.3946316 -3.6814735 -0.36210248
1.384835 -3.724468 -0.36584157
0 -0 -0
1.3567798 -3.7908316 -0.37119755
0 -0 -0
0 -0 -0
1.3153645 -3.9000149 -0.38029259
1.3070041 -3.9552488 -0.38534543
1.2912811 -3.9896994 -0.38817501
1.2880958 -4.0648899 -0.39534998
1.2840357 -4.1401892 -0.40252498
1.2744814 -4.2003551 -0.40808308
1.2713057 -4.2844043 -0.41616759
1.2726839 -4.387681 -0.42627323
1.2679627 -4.4739017 -0.43455985
1.2333281 -4.4557076 -0.43183133
1.2622269 -4.6716204 -0.45376053
1.2548219 -4.7600918 -0.46224925
1.2394489 -4.8216639 -0.46790841
1.2506617 -4.9922824 -0.48498693
1.2680727 -5.1970439 -0.50560242
1.2504009 -5.2647433 -0.51186788
1.2373152 -5.3556843 -0.52055877
1.2231599 -5.44666 -0.52924961
1.2308116 -5.6426439 -0.54885453
1.2249862 -5.7863588 -0.56300241
1.6633831 -8.1045294 -0.80260688
1.618277 -8.1380024 -0.80503219
1.3193332 -6.8532882 -0.67113262
1.2772574 -6.8612547 -0.67113262
1.2365408 -6.8767962 -0.6719411
1.1938126 -6.8813133 -0.67163789
1.1555002 -6.9120598 -0.67406327
1.1305884 -7.0280523 -0.6852805
1.2810167 -8.2884731 -0.81412727
1.2310102 -8.3020821 -0.81473362
1.1776708 -8.2927341 -0.8130157
1.1246262 -8.28403 -0.81139874
1.0733923 -8.2878151 -0.8110956
1.0231268 -8.2991819 -0.81160086
0.97160715 -8.3003635 -0.8110956
0.92033041 -8.3032017 -0.81079245
0.86895204 -8.3047352 -0.81038821
0.81690824 -8.2990189 -0.80927658
0.76405489 -8.2830706 -0.80715442
0.71296108 -8.2846298 -0.80685121
0.66290492 -8.2987652 -0.8078618
0.61314005 -8.318552 -0.8094787
0.56235445 -8.326128 -0.80988294
0.51089084 -8.3234634 -0.80927658
0.45980939 -8.3264418 -0.80927658
0.40856481 -8.3261251 -0.80897343
0.35721382 -8.3225117 -0.80836707
0.2009134 -5.4522634 -0.51641542
0.14947391 -4.8637033 -0.45648906
0.1182474 -4.8078375 -0.45072883
0.088074505 -4.771668 -0.44698977
0.058614243 -4.7571964 -0.44547391
0.029204894 -4.7206564 -0.44173482
0.00024206558 -4.7048287 -0.44011793
-0.028525429 -4.6888242 -0.43850103
-0.057146128 -4.6766229 -0.43728834
-0.085673697 -4.667232 -0.43637884
