# .PCD v0.7 - Point Cloud Data file format
VERSION 0.7
FIELDS x y z
SIZE 4 4 4
TYPE F F F
COUNT 1 1 1
WIDTH 1657
HEIGHT 1
VIEWPOINT 0 0 0 1 0 0 0
POINTS 1657
DATA ascii
-1.7254688 -2.2122331 -0.76377308
-1.7390103 -2.2016041 -0.76377308
-1.7530867 -2.191643 -0.7640487
-1.7713408 -2.1868215 -0.76625383
-1.7822876 -2.1729383 -0.76515126
-1.8011135 -2.1686175 -0.76763201
-1.8193346 -2.1634116 -0.76983708
-1.8307055 -2.1500115 -0.76901019
-1.8476287 -2.1431069 -0.77066404
-1.8563197 -2.1266599 -0.76873457
-1.8680607 -2.1137888 -0.76818329
-1.8809955 -2.1022871 -0.76818329
-1.8925689 -2.0892808 -0.76763201
-1.9066522 -2.079046 -0.76818329
-1.9174112 -2.0651941 -0.76735634
-1.9293886 -2.0526898 -0.76708072
-1.9445976 -2.0435984 -0.76818329
-1.9571003 -2.0316281 -0.76818329
-1.9695293 -2.0195813 -0.76818329
-1.9818841 -2.0074587 -0.76818329
-1.9934849 -1.9945801 -0.76790762
-2.0056858 -1.9823109 -0.76790762
-2.0184991 -1.9706385 -0.76818329
-2.0284772 -1.956214 -0.76735634
-2.0418339 -1.9450569 -0.76790762
-2.05443 -1.9331506 -0.76818329
-2.0648451 -1.9191995 -0.76763201
-2.0779982 -1.907794 -0.76818329
-2.0832572 -1.8891952 -0.76570255
-2.0912302 -1.8731698 -0.76432437
-2.1034043 -1.86094 -0.76459998
-2.101032 -1.8359789 -0.75936288
-2.1093473 -1.82054 -0.75826031
-2.1160896 -1.8038207 -0.75660652
-2.1205003 -1.7852299 -0.75412577
-2.1328924 -1.7734146 -0.75467706
-2.1377912 -1.7554129 -0.75247192
-2.1440427 -1.7386293 -0.75081813
-2.1554208 -1.726042 -0.75109375
-2.1659708 -1.7127841 -0.75109375
-2.1756821 -1.6988699 -0.75081813
-2.1845427 -1.6843141 -0.75026685
-2.1956012 -1.6714607 -0.75054246
-2.211194 -1.662001 -0.75247192
-2.2159472 -1.6443914 -0.75054246
-2.227546 -1.6319001 -0.75109375
-2.233623 -1.6153843 -0.74971557
-2.2395816 -1.5988554 -0.74833739
-2.2469928 -1.5834221 -0.74751049
-2.2495644 -1.564664 -0.74502975
-2.2543683 -1.5475665 -0.7433759
-2.2670045 -1.535862 -0.74447846
-2.2731895 -1.5197855 -0.7433759
-2.2800651 -1.5042205 -0.742549
-2.2916684 -1.4917755 -0.7433759
-2.2999699 -1.4771664 -0.74310029
-2.3154857 -1.4671432 -0.74530536
-2.3138485 -1.446283 -0.74172211
-2.3177702 -1.4290305 -0.74006826
-2.3240314 -1.4132833 -0.73924136
-2.3301864 -1.3975132 -0.73841447
-2.3337536 -1.3802524 -0.73676062
-2.3363667 -1.362516 -0.73483115
-2.3355169 -1.3428828 -0.73179913
-2.3386958 -1.3256822 -0.73014534
-2.3417513 -1.3084931 -0.72849149
-2.3463683 -1.2922443 -0.72738898
-2.3601665 -1.2810338 -0.72931844
-2.3679824 -1.2665279 -0.72931844
-2.3748589 -1.2515261 -0.72904277
-2.3816402 -1.2364876 -0.72876716
-2.3831921 -1.2187862 -0.72683769
-2.3923423 -1.2050054 -0.72738898
-2.3962467 -1.1885945 -0.72628641
-2.3948579 -1.1696492 -0.72353005
-2.3976583 -1.1528492 -0.72215182
-2.4038181 -1.1377044 -0.7218762
-2.4133675 -1.1241515 -0.7227031
-2.4175985 -1.1081202 -0.7218762
-2.4217236 -1.0920794 -0.72104931
-2.4310148 -1.0783691 -0.7218762
-2.4358237 -1.0626633 -0.72132492
-2.4440651 -1.0484556 -0.7218762
-0.35674879 -0.15008736 -0.070269495
-0.37897348 -0.15673302 -0.076884791
-0.37458697 -0.1522281 -0.075230964
-0.37015966 -0.147783 -0.073577143
-0.35495728 -0.13917617 -0.068615668
-0.30200216 -0.11621608 -0.052077428
-0.32517993 -0.12288126 -0.058968361
-0.31601802 -0.11719543 -0.055936351
-0.29054621 -0.10569111 -0.047942866
-0.28033003 -0.10001578 -0.044635218
-0.2764039 -0.096700549 -0.043257032
-0.26881242 -0.092184983 -0.040776297
-0 -0 -0
-0.25258365 -0.083143033 -0.035539187
-0.24211559 -0.07803601 -0.032231539
-0.24258985 -0.076548949 -0.032231539
-0 -0 -0
-0 -0 -0
-0 -0 -0
-0 -0 -0
-0 -0 -0
-0 -0 -0
-0.25214824 -0.067819498 -0.034160998
-0 -0 -0
-0 -0 -0
-0 -0 -0
-0.26400819 -0.064121559 -0.037193011
-0 -0 -0
-0 -0 -0
-0 -0 -0
-0 -0 -0
-0 -0 -0
-0.24924167 -0.050874021 -0.032231539
-0 -0 -0
-0 -0 -0
-0 -0 -0
-0 -0 -0
-0 -0 -0
-0 -0 -0
-0 -0 -0
-0 -0 -0
-0 -0 -0
-0 -0 -0
-0 -0 -0
-0 -0 -0
-0 -0 -0
-0 -0 -0
-0 -0 -0
-0 -0 -0
-0 -0 -0
-0 -0 -0
-0 -0 -0
-0 -0 -0
-0 -0 -0
-0 -0 -0
-0.25967619 -0.015666405 -0.033885363
-0.25880766 -0.014019311 -0.033609726
-0.26080897 -0.012526163 -0.034160998
-0.26280162 -0.01100898 -0.034712274
-0 -0 -0
-0 -0 -0
-0.31309378 0.021987956 -0.053140819
-0.3148627 0.024061684 -0.053714871
-0 0 -0
-0.31263602 0.027747262 -0.053140819
-0.29530063 0.027971599 -0.047974348
-0.28464377 0.0286838 -0.04481706
-0 0 -0
-0.27380496 0.030946935 -0.041659772
-0.26695505 0.03180426 -0.039650589
-0.27340457 0.034304611 -0.041659772
-0.27129057 0.035723336 -0.04108572
-0.27296302 0.037657123 -0.041659772
-0.27367434 0.039472029 -0.041946799
-0.27437365 0.041297074 -0.042233825
-0.27884373 0.043741617 -0.043668956
-0.28140441 0.045926224 -0.044530034
-0.28394869 0.048143886 -0.045391113
-0.28647622 0.050394483 -0.046252191
-0 0 -0
-0.28677684 0.05408749 -0.046539217
-0.2808027 0.054723706 -0.04481706
-0.27670836 0.055674341 -0.043668956
-0.27636155 0.057371143 -0.043668956
-0.2731967 0.058452804 -0.042807877
-0.2756367 0.060758203 -0.043668956
-0.27432543 0.062232539 -0.043381929
-0.27487037 0.064136118 -0.043668956
-0.28005514 0.06718488 -0.045391113
-0.28149596 0.069367878 -0.045965165
-0.28199276 0.071332432 -0.046252191
-0.28247601 0.073305689 -0.046539217
-0.28109616 0.07478755 -0.046252191
-0.2797088 0.07625524 -0.045965165
-0.27739248 0.077447407 -0.045391113
-0.27139226 0.077546112 -0.043668956
-0.26815641 0.078392021 -0.042807877
-0.26767036 0.080035925 -0.042807877
-0.26808912 0.081960678 -0.043094903
-0.27214685 0.085051484 -0.044530034
-0.27070853 0.086424671 -0.044243008
-0.26835412 0.087482758 -0.043668956
-0.27144289 0.090352647 -0.04481706
-0.26726034 0.090769291 -0.043668956
-0.26669836 0.092407458 -0.043668956
-0.26612633 0.094042152 -0.043668956
-0.26194483 0.094359621 -0.042520851
-0.26225877 0.096299045 -0.042807877
-0.26255873 0.098245859 -0.043094903
-0.26105729 0.099510111 -0.042807877
-0.26044178 0.10111006 -0.042807877
-0.25981647 0.10270619 -0.042807877
-0.25918141 0.10429846 -0.042807877
-0.2594215 0.10625356 -0.043094903
-0.26229531 0.10933205 -0.044243008
-0.26338026 0.11169458 -0.04481706
-0.26532406 0.1144575 -0.045678139
-0.26549241 0.1164717 -0.045965165
-0.26651931 0.11888599 -0.046539217
-0.27100983 0.12291356 -0.048261374
-0.27372402 0.12619179 -0.049409479
-0.27381045 0.12827869 -0.049696505
-0.27560821 0.13120146 -0.050557584
-0.27738032 0.13415107 -0.051418662
-0.27483559 0.13499932 -0.05084461
-0.27571318 0.13754486 -0.051418662
-0.27145246 0.1374896 -0.050270557
-0.26720291 0.13738731 -0.049122453
-0.2655074 0.13857771 -0.048835427
-0.26042849 0.13794559 -0.047400296
-0.25873524 0.13908406 -0.04711327
-0.2603943 0.14205518 -0.047974348
-0.25951776 0.14365025 -0.047974348
-0.26029822 0.14618456 -0.0485484
-0.26188776 0.14921126 -0.049409479
-0.2642774 0.15274541 -0.050557584
-0.26498428 0.15533927 -0.051131636
-0.26402617 0.15696226 -0.051131636
-0.26387659 0.159077 -0.051418662
-0.26371098 0.1611958 -0.051705688
-0.26677859 0.16534923 -0.053140819
-0.26737744 0.16800833 -0.053714871
-0.26714754 0.17016336 -0.054001898
-0.26690128 0.17232189 -0.054288924
-0.26503927 0.17342886 -0.054001898
-0.261581 0.17345479 -0.053140819
-0.26209798 0.17613101 -0.053714871
-0.25469404 0.17339924 -0.051418662
-0.24969305 0.17222416 -0.049983531
-0.24784853 0.17320126 -0.049696505
-0.24834047 0.17583184 -0.050270557
-0.2488094 0.17847492 -0.05084461
-0.24616404 0.17886612 -0.050270557
-0.24429262 0.1798024 -0.049983531
-0.24931102 0.18590192 -0.052279741
-0.25273907 0.19090927 -0.054001898
-0.24701095 0.18894735 -0.052279741
-0.24509187 0.18986994 -0.051992714
-0.24392225 0.19137022 -0.051992714
-0.24124789 0.19166586 -0.051418662
-0.24601996 0.19796886 -0.053714871
-0.23887768 0.19461191 -0.051418662
-0.24209881 0.19974823 -0.053140819
-0.24380001 0.2036975 -0.054288924
-0.24254556 0.2051896 -0.054288924
-0.24345765 0.20855147 -0.055150002
-0 0 -0
-0 0 -0
-0 0 -0
-0 0 -0
-0 0 -0
-0 0 -0
-0 0 -0
-0 0 -0
-0 0 -0
-0 0 -0
-0 0 -0
-0 0 -0
-0 0 -0
-0 0 -0
-0 0 -0
-0 0 -0
-0 0 -0
-0 0 -0
-0 0 -0
-0 0 -0
-0 0 -0
-0 0 -0
-0 0 -0
-0 0 -0
-0 0 -0
-0 0 -0
-1.7934855 2.1572647 -0.79969585
-0 0 -0
-0 0 -0
-0 0 -0
-1.7162507 2.170563 -0.7882148
-0 0 -0
-0 0 -0
-1.6731075 2.1979735 -0.7867797
-0 0 -0
-1.6471499 2.2198787 -0.78735375
-1.6295378 2.2245326 -0.78534454
-1.6141746 2.2321599 -0.78448349
-0 0 -0
-1.5805954 2.2431841 -0.78132617
-1.5662551 2.2520535 -0.78103918
-1.5534908 2.2632015 -0.78161323
-1.5433332 2.278244 -0.78362238
-0 0 -0
-1.5226394 2.3082092 -0.78764075
-1.5105367 2.3207209 -0.78878886
-0 0 -0
-0 0 -0
-0 0 -0
-1.4481049 2.3489358 -0.78591859
-1.4286914 2.3495901 -0.78304833
-1.4137554 2.3574905 -0.78276134
-1.3987762 2.3652959 -0.78247428
-1.3779682 2.3630738 -0.77874297
-1.3667824 2.3772991 -0.78075212
-1.348866 2.3798058 -0.77874297
-1.3314371 2.3830187 -0.77702081
-1.313558 2.3852684 -0.7750116
-1.2966146 2.3890727 -0.7735765
-1.2774173 2.3885345 -0.77070624
-1.2645222 2.3997183 -0.77185434
-1.2458051 2.3997788 -0.76927108
-1.2275708 2.4005532 -0.76697487
-1.2222897 2.4268661 -0.77328944
-1.2043989 2.4283118 -0.77128029
-1.1898963 2.4365172 -0.77156729
-1.1757531 2.4454994 -0.77214134
-1.1656384 2.4630599 -0.77558565
-1.1492912 2.4675603 -0.7747246
-1.1361226 2.4789207 -0.7761597
-1.1240379 2.4928324 -0.77845591
-1.1040648 2.4891727 -0.7750116
-0 0 -0
-1.0707949 2.4963703 -0.77300245
-0 0 -0
-1.0364159 2.5004718 -0.77013218
-1.0174441 2.497911 -0.76726192
-1.000676 2.5005488 -0.76611382
-0.98251373 2.4995084 -0.76381761
-0.9671585 2.5054901 -0.76381761
-0.95549685 2.5212321 -0.76697487
-0.94000888 2.5270474 -0.76697487
-0.92415744 2.5318677 -0.76668787
-0.91086257 2.5438044 -0.76869702
-0.8961879 2.5520573 -0.76955813
-0.88518357 2.5710964 -0.77386349
-0.86786157 2.5719407 -0.77242839
-0.84665859 2.5608437 -0.76726192
-0.83092964 2.5659907 -0.76726192
-0.81285644 2.5637348 -0.76496571
-0 0 -0
-0.77577645 2.5551822 -0.75922519
-0.75763321 2.5516284 -0.75664192
-0 0 -0
-0 0 -0
-0 0 -0
-0 0 -0
-0 0 -0
-0 0 -0
-0 0 -0
-0 0 -0
-0 0 -0
-0 0 -0
-0 0 -0
-0 0 -0
-0 0 -0
-0 0 -0
-0 0 -0
-0 0 -0
-0 0 -0
-0 0 -0
-0 0 -0
-0 0 -0
-0 0 -0
-0 0 -0
-0 0 -0
-0 0 -0
-0 0 -0
-0 0 -0
-0 0 -0
-0 0 -0
-0 0 -0
-0 0 -0
-0 0 -0
-0 0 -0
-0 0 -0
-0 0 -0
-0 0 -0
-0 0 -0
-0 0 -0
-0.14671421 2.6423349 -0.75204951
-0.13040476 2.6412718 -0.75147545
-0.11435954 2.6458504 -0.75262356
-0.097877257 2.6398013 -0.7506144
-0.081911467 2.6480122 -0.75291061
-0.065615386 2.6465495 -0.75233656
-0.049305454 2.6430712 -0.75118846
-0.033052243 2.6404505 -0.75032735
-0 0 -0
-0.00064548384 2.6502366 -0.75319761
0.015597876 2.6473169 -0.75233656
0.031877045 2.6500449 -0.75319761
0.048208095 2.6536305 -0.75434572
0.064465858 2.6523271 -0.75405872
0.080857307 2.6557114 -0.75520682
0.096654676 2.6417634 -0.75118846
0.11277977 2.6392066 -0.7506144
0.12911309 2.6413352 -0.75147545
0.14452168 2.6261466 -0.74717009
0.16045591 2.6223421 -0.74630898
0.1762193 2.6165295 -0.74487388
0.19297728 2.6249521 -0.74774414
0.21015128 2.6370866 -0.75176251
0.22657531 2.6386106 -0.75262356
0.24346709 2.6448016 -0.75491977
0.26025519 2.6489778 -0.75664192
0.27680388 2.6501889 -0.75750303
0.2943292 2.6598654 -0.76094735
0.31030944 2.6551552 -0.76008624
0.32612553 2.6493983 -0.75893813
0.34360859 2.656847 -0.7618084
0.3587423 2.6461461 -0.75922519
0.37254331 2.6268244 -0.75405872
0.38823196 2.6216464 -0.75319761
0.40152624 2.6012287 -0.74774414
0.41687009 2.594933 -0.74659604
0.43310079 2.5942159 -0.74717009
0.4476988 2.5839593 -0.74487388
0.46541241 2.5915341 -0.74803114
0.48148051 2.5895712 -0.7483182
0.49899244 2.5950336 -0.7509014
0.51640242 2.5994389 -0.75319761
0.52945012 2.5821466 -0.74889225
0.54349673 2.5704153 -0.74630898
0.55803227 2.5614169 -0.74458683
0.57583898 2.5672908 -0.74745709
0.59460193 2.5767753 -0.75147545
0.60973692 2.5702825 -0.7506144
0.62822324 2.5776598 -0.75405872
0.64426059 2.5746858 -0.75434572
0.66123956 2.5753229 -0.75578088
0.67873931 2.5777006 -0.75779003
0 0 -0
0.70060503 2.534097 -0.74688303
0.71797007 2.5362015 -0.74889225
0.73164952 2.5253086 -0.74688303
0 0 -0
0.76035786 2.5088069 -0.74458683
0.77545339 2.5031793 -0.74429983
0.78935063 2.4938085 -0.74286467
0.80493259 2.4898295 -0.74315172
0.81628615 2.4730201 -0.73942035
0.83236367 2.4706876 -0.74028146
0.84844321 2.4682512 -0.74114251
0.86230278 2.4593835 -0.73999441
0.87866861 2.4576538 -0.74114251
0.89176142 2.4468167 -0.73942035
0.90742588 2.4430947 -0.73999441
0.92341769 2.4401681 -0.74085552
0.93768299 2.4326689 -0.74028146
0.95469433 2.4322188 -0.74200362
0.9663974 2.4183109 -0.73942035
0.98519218 2.4220943 -0.74257767
1.0004021 2.4168887 -0.74286467
1.0170739 2.4151182 -0.74429983
1.0284753 2.4009087 -0.74171656
1.0470175 2.4033332 -0.74458683
1.0644629 2.4029934 -0.74659604
1.0807623 2.3999097 -0.74774414
1.0934721 2.3888791 -0.74630898
1.1101315 2.3864665 -0.74774414
1.1202465 2.3700852 -0.74458683
1.1380883 2.3700736 -0.74688303
1.1530298 2.3639066 -0.74717009
1.1653847 2.3524964 -0.74573493
1.1802282 2.3461571 -0.74602199
1.1906769 2.3311951 -0.74343872
1.2049584 2.3238454 -0.74343872
1.2232134 2.3240354 -0.74602199
1.2279642 2.2987468 -0.73999441
1.2393044 2.2861173 -0.73827225
0 0 -0
1.2738061 2.2824447 -0.74229062
1.2915655 2.2812529 -0.74458683
1.306971 2.2757766 -0.74544793
1.3175327 2.2619216 -0.74343872
1.3274862 2.2471983 -0.74114251
1.3412497 2.2390108 -0.74114251
1.3534697 2.2282834 -0.74028146
1.3625927 2.2125978 -0.7376982
1.3771586 2.2058201 -0.73827225
1.3957938 2.2054205 -0.74114251
1.4124054 2.2016509 -0.74286467
1.429023 2.1977601 -0.74458683
1.4430088 2.1897502 -0.74487388
1.4580147 2.183244 -0.74573493
1.4697717 2.1718774 -0.74487388
1.4809021 2.1596589 -0.74372578
1.4941256 2.1505315 -0.74372578
1.5050861 2.138191 -0.74257767
1.5204035 2.1320345 -0.74372578
1.535702 2.1257703 -0.74487388
1.5475844 2.1147618 -0.74429983
1.5656683 2.11215 -0.74688303
1.5866556 2.1132243 -0.7509014
1.5937905 2.0958266 -0.74803114
1.6066202 2.0860078 -0.74803114
1.622337 2.0798857 -0.7494663
1.6392272 2.0751522 -0.75147545
1.6471394 2.059073 -0.74917924
1.6633625 2.0533919 -0.7509014
1.6710677 2.0372243 -0.74860519
1.6804746 2.0232491 -0.74717009
1.694708 2.0150986 -0.74803114
1.704555 2.0017459 -0.74688303
1.7111729 1.9847221 -0.74429983
1.7233188 1.9741852 -0.74429983
1.7347651 1.9628565 -0.74401277
1.7499716 1.9557432 -0.74544793
1.7619389 1.9449687 -0.74544793
1.7757832 1.9362381 -0.74630898
1.7837176 1.9210955 -0.74458683
1.7915334 1.9059285 -0.74286467
1.8051761 1.8969809 -0.74372578
1.8147871 1.8838001 -0.74286467
1.82765 1.8740003 -0.74343872
1.8377676 1.8613881 -0.74286467
1.8491542 1.8500767 -0.74286467
1.8591081 1.8373495 -0.74229062
1.8730898 1.8285831 -0.74343872
1.8911729 1.823702 -0.74630898
1.9009395 1.8107429 -0.74573493
1.9099205 1.7970765 -0.74487388
1.9265268 1.7905382 -0.74717009
1.9346533 1.7760935 -0.74602199
1.9511939 1.7693346 -0.7483182
1.9634413 1.7586066 -0.74889225
1.9734772 1.7458916 -0.74860519
1.979823 1.7299697 -0.74688303
1.9954789 1.7221681 -0.74889225
2.0023618 1.7067862 -0.74745709
2.0127969 1.6944678 -0.74745709
2.0135767 1.6741285 -0.74372578
2.0186269 1.6574891 -0.74171656
2.0250375 1.6420568 -0.74028146
2.0447989 1.6373799 -0.74401277
2.0457871 1.6176766 -0.74056846
2.0586958 1.6074502 -0.74171656
2.0616901 1.5895271 -0.73913336
2.0767417 1.580906 -0.74114251
2.0887008 1.5698593 -0.74200362
2.1044502 1.5615776 -0.74429983
2.1132193 1.5480697 -0.74401277
2.1358781 1.5446111 -0.74889225
2.1421959 1.5292516 -0.74774414
2.1507556 1.5155271 -0.74745709
2.1631608 1.5044882 -0.74860519
2.1715615 1.4906452 -0.7483182
2.1655941 1.4670913 -0.74286467
2.1689792 1.4500517 -0.74085552
2.1778357 1.4367157 -0.74085552
2.1930346 1.4275035 -0.74315172
2.2130399 1.4212624 -0.74717009
2.2306223 1.4132923 -0.75032735
2.2368145 1.3980567 -0.7494663
2.2543228 1.3898315 -0.75262356
2.2595334 1.3739837 -0.75147545
2.2679214 1.3600937 -0.75147545
2.2655025 1.339818 -0.74774414
2.264576 1.3205879 -0.74458683
2.265991 1.302851 -0.74229062
2.273109 1.2884506 -0.74200362
2.2868271 1.2777469 -0.74401277
2.2946241 1.2636912 -0.74401277
2.2955978 1.2459352 -0.74171656
2.3065791 1.2336318 -0.74286467
2.3158004 1.2203481 -0.74343872
2.3215442 1.2052337 -0.74286467
2.3271894 1.1900947 -0.74229062
2.3361595 1.176654 -0.74286467
2.3459103 1.1635733 -0.74372578
2.3581712 1.1516771 -0.74544793
2.3816001 1.1450653 -0.7509014
2.385983 1.1292022 -0.75004035
0 0 -0
0 0 -0
2.4238322 1.0929605 -0.75578088
2.4348719 1.0800077 -0.75721598
2.4291584 1.0596904 -0.75319761
2.4241681 1.0398612 -0.7494663
2.4260888 1.0231081 -0.74803114
2.4190447 1.0027065 -0.74372578
2.4340248 0.99145436 -0.74659604
2.4311674 0.97294563 -0.74372578
2.4433331 0.96046031 -0.74573493
2.4563308 0.94820684 -0.74803114
2.4567273 0.93108273 -0.74630898
2.4677818 0.91799247 -0.74803114
2.4778681 0.90447348 -0.7494663
2.4815671 0.8886075 -0.74889225
2.4942045 0.87590009 -0.75118846
2.5013437 0.86120236 -0.75176251
2.5174742 0.84950876 -0.75520682
2.5244584 0.83464646 -0.75578088
2.5322666 0.82002509 -0.75664192
2.5363374 0.80418283 -0.75635493
2.536649 0.78718746 -0.75491977
2.5405145 0.77133018 -0.75463277
2.5424442 0.75491059 -0.75377166
2.5387478 0.73689663 -0.75118846
2.5395348 0.72026145 -0.75004035
2.545753 0.70517623 -0.7506144
2.5491071 0.68929285 -0.75032735
2.5625517 0.67607844 -0.75319761
2.5722189 0.66177183 -0.75491977
2.576231 0.64597654 -0.75491977
2.5866609 0.63174498 -0.75692898
2.5904884 0.61586165 -0.75692898
2.5951519 0.60017055 -0.75721598
2.5922427 0.58276778 -0.75520682
2.592026 0.56603527 -0.75405872
2.5879529 0.54853457 -0.75176251
2.5875163 0.53187501 -0.7506144
2.5963683 0.5171085 -0.75233656
0 0 -0
2.6015768 0.48503295 -0.75204951
2.6082752 0.46973833 -0.75319761
2.6101646 0.45356184 -0.75291061
2.6072295 0.43659091 -0.75118846
2.6089134 0.42043304 -0.7509014
2.6019771 0.40295529 -0.74803114
2.6091385 0.38768414 -0.7494663
2.6143134 0.37207115 -0.75032735
0 0 -0
2.6262825 0.34094471 -0.75262356
2.6397338 0.32622859 -0.75606787
2.6435888 0.31024784 -0.75664192
2.6463947 0.29412663 -0.75692898
2.6300478 0.27599162 -0.75147545
2.6316917 0.25984874 -0.75147545
2.6408677 0.24439894 -0.75377166
2.6375453 0.22778027 -0.75233656
2.6302993 0.21090703 -0.7497533
2.6296334 0.19462329 -0.74917924
2.6441586 0.17938635 -0.75319761
2.6528585 0.16362715 -0.75549382
2.6605079 0.14771523 -0.75750303
2.6604073 0.13134106 -0.75721598
2.6602061 0.11497369 -0.75692898
0 0 -0
2.6738639 0.082699761 -0.76066029
2.6551683 0.065825276 -0.75491977
2.6440291 0.049322896 -0.75147545
2.6442819 0.033098511 -0.75147545
2.6444352 0.016872879 -0.75147545
2.6416152 0.00064717664 -0.7506144
2.6425273 -0.015567548 -0.7509014
2.6356771 -0.031697895 -0.74889225
2.6497993 -0.048136812 -0.75319761
2.6456237 -0.064299986 -0.75204951
2.6403921 -0.080384158 -0.7506144
2.6341054 -0.096371099 -0.74889225
2.6191092 -0.11191206 -0.74458683
0 -0 -0
2.6146691 -0.14388496 -0.74372578
2.6080005 -0.15957198 -0.74200362
2.6174853 -0.1762841 -0.74516088
2.6211309 -0.19269465 -0.74659604
2.6246734 -0.20915657 -0.74803114
2.6376562 -0.22649294 -0.75233656
2.6324015 -0.24232012 -0.75118846
2.640398 -0.25940847 -0.75405872
2.6444728 -0.27620432 -0.75578088
2.6341596 -0.29147336 -0.75319761
2.6266131 -0.30696112 -0.75147545
2.6313353 -0.32389405 -0.75348467
2.6197987 -0.33880076 -0.7506144
2.6176705 -0.35486916 -0.7506144
2.6135471 -0.37065434 -0.75004035
2.610276 -0.38654307 -0.7497533
2.6154284 -0.40372455 -0.75204951
2.6166849 -0.42037436 -0.75319761
2.6168904 -0.43689659 -0.75405872
2.612273 -0.45261741 -0.75348467
2.6066182 -0.46812826 -0.75262356
2.5980465 -0.48306024 -0.7509014
2.5875087 -0.49754205 -0.74860519
2.5872257 -0.51397055 -0.7494663
2.5755785 -0.52810037 -0.74688303
2.5741639 -0.54429102 -0.74745709
2.575455 -0.5610972 -0.74889225
2.5663562 -0.57562894 -0.74717009
2.5655756 -0.59201235 -0.74803114
2.5646908 -0.60840786 -0.74889225
2.5525341 -0.62208796 -0.74630898
2.5653942 -0.64193118 -0.75147545
2.5558407 -0.65622824 -0.7497533
2.5573235 -0.67336416 -0.75147545
2.5605414 -0.69104296 -0.75377166
2.5553298 -0.70648545 -0.75348467
2.5555549 -0.72345799 -0.75491977
2.5584273 -0.74126083 -0.75721598
2.5464845 -0.75476414 -0.75491977
2.5482216 -0.7723226 -0.75692898
2.5470943 -0.78907913 -0.75807709
2.5376391 -0.8032456 -0.75664192
2.5445101 -0.82263708 -0.76037329
2.5194054 -0.83161986 -0.75405872
2.4997327 -0.84216321 -0.7494663
2.495424 -0.85779727 -0.7497533
2.4801714 -0.86960185 -0.74659604
2.4747891 -0.88480353 -0.74659604
2.4747126 -0.90194243 -0.7483182
2.4709275 -0.91777784 -0.74889225
2.4742072 -0.93631625 -0.75176251
2.4639473 -0.94975549 -0.75032735
2.4598563 -0.96555686 -0.7509014
2.4547749 -0.98098797 -0.75118846
2.441612 -0.99314117 -0.74889225
2.4443216 -1.0117714 -0.75176251
2.4265928 -1.0219122 -0.74803114
2.4237983 -1.0382926 -0.74917924
2.4244061 -1.0562091 -0.75147545
2.4082472 -1.0667931 -0.7483182
2.4112623 -1.0858808 -0.75147545
2.4071665 -1.1018528 -0.75233656
2.4003603 -1.1166021 -0.75233656
2.4012566 -1.134997 -0.75491977
2.393384 -1.1492945 -0.75463277
2.3914516 -1.1664803 -0.75635493
2.3842492 -1.1811321 -0.75635493
2.3769569 -1.1957393 -0.75635493
2.3704283 -1.2107376 -0.75664192
2.3595538 -1.2234942 -0.75549382
2.3553922 -1.2397352 -0.75664192
2.3426726 -1.251454 -0.75491977
2.3282142 -1.2621496 -0.75262356
2.3221042 -1.2773355 -0.75319761
2.3092053 -1.2887565 -0.75147545
2.298754 -1.3014842 -0.7506144
2.2890639 -1.3146098 -0.75004035
2.2743344 -1.3247703 -0.74774414
2.2768822 -1.345039 -0.75147545
2.2702293 -1.3599697 -0.75204951
2.265116 -1.3758646 -0.75319761
2.2598929 -1.391748 -0.75434572
2.2456245 -1.4020344 -0.75233656
2.2377887 -1.4162996 -0.75262356
2.2346985 -1.433627 -0.75463277
2.2162259 -1.4410414 -0.75118846
2.2001452 -1.4498657 -0.74860519
2.195986 -1.4665323 -0.75032735
2.18536 -1.4789046 -0.7497533
2.1786137 -1.4939121 -0.7506144
2.1764843 -1.512174 -0.75319761
0 -0 -0
2.149967 -1.5332036 -0.75032735
2.1451764 -1.5497345 -0.75204951
2.1294448 -1.5583395 -0.7497533
2.1129191 -1.5662391 -0.74717009
2.0994401 -1.5762968 -0.74573493
2.0813441 -1.582767 -0.74257767
2.070076 -1.5943384 -0.74200362
2.056479 -1.6040627 -0.74056846
2.0458465 -1.6160567 -0.74028146
2.032901 -1.6261845 -0.73913336
2.0399985 -1.6525033 -0.74573493
2.0401857 -1.6734991 -0.7497533
2.031352 -1.6872107 -0.75032735
2.0260913 -1.7039613 -0.75233656
2.0185139 -1.7188466 -0.75348467
2.0072041 -1.7305738 -0.75319761
2.0008759 -1.7466388 -0.75491977
1.9843812 -1.7538055 -0.75262356
1.9707284 -1.7633922 -0.75147545
1.9620003 -1.7773814 -0.75233656
1.9447063 -1.7835566 -0.7497533
1.9288142 -1.7908908 -0.74774414
1.9149984 -1.8000665 -0.74659604
1.9094665 -1.8170681 -0.74889225
1.8969021 -1.8274204 -0.7483182
1.8863391 -1.8396943 -0.74860519
1.8716085 -1.8478674 -0.74717009
1.8561717 -1.8552517 -0.74544793
1.8514836 -1.8734223 -0.7483182
1.8426291 -1.8874905 -0.7494663
1.8316777 -1.8994509 -0.7497533
1.827913 -1.918981 -0.75319761
1.8141356 -1.9280668 -0.75233656
1.8120484 -1.9496912 -0.75664192
1.8019937 -1.9628909 -0.75750303
1.7924885 -1.9767504 -0.75865114
1.7796868 -1.9869978 -0.75836408
1.7649237 -1.9950094 -0.75721598
1.7463495 -1.998585 -0.75434572
1.7371812 -2.0128901 -0.75578088
1.7173446 -2.0147598 -0.75233656
1.7074164 -2.0281918 -0.75348467
1.6900427 -2.0327351 -0.75118846
1.6763232 -2.0415857 -0.7506144
1.6673827 -2.0562987 -0.75233656
1.6547341 -2.0664909 -0.75233656
1.6432109 -2.0781085 -0.75291061
1.6292505 -2.0866416 -0.75233656
0 -0 -0
1.6017818 -2.1041903 -0.75147545
1.5865399 -2.1109152 -0.75032735
1.5707053 -2.1167626 -0.74889225
1.556556 -2.1248143 -0.7483182
1.5446111 -2.1358781 -0.74889225
1.5342575 -2.149215 -0.75032735
1.5199385 -2.157022 -0.7497533
1.5083145 -2.1686676 -0.7506144
1.4966047 -2.1802516 -0.75147545
1.4858834 -2.1933601 -0.75291061
1.4777175 -2.2104018 -0.75578088
1.4651812 -2.2210269 -0.75635493
1.4515257 -2.2299755 -0.75635493
1.43885 -2.2404523 -0.75692898
1.4291744 -2.2557139 -0.75922519
1.4137846 -2.2620032 -0.75836408
1.3968645 -2.2657416 -0.75664192
1.3774651 -2.2652643 -0.75348467
1.3625551 -2.2720301 -0.75291061
1.3490759 -2.2811725 -0.75319761
1.3379467 -2.2943738 -0.75491977
1.3219351 -2.2992172 -0.75377166
1.3068584 -2.305618 -0.75319761
1.295488 -2.3186121 -0.75491977
1.2826221 -2.3290353 -0.75578088
1.2683072 -2.3368616 -0.75578088
1.2516876 -2.3403752 -0.75434572
1.2368577 -2.3471637 -0.75405872
1.2237555 -2.35726 -0.75491977
1.214062 -2.3741081 -0.75807709
1.1977497 -2.3780899 -0.75692898
1.1861124 -2.3914027 -0.75893813
1.1718366 -2.3994966 -0.75922519
1.1533593 -2.3988702 -0.75664192
1.1386184 -2.4059019 -0.75664192
1.1214101 -2.4076319 -0.75491977
1.1034262 -2.4074993 -0.75262356
1.0850928 -2.4063637 -0.75004035
1.0734113 -2.4199831 -0.75233656
1.0573945 -2.4238892 -0.75147545
1.0413702 -2.42769 -0.7506144
1.0324038 -2.4481592 -0.75520682
1.0199276 -2.4606433 -0.75721598
1.0058931 -2.469517 -0.75807709
0.99214363 -2.4792006 -0.75922519
0.97516257 -2.4807832 -0.75779003
0.96061158 -2.4885077 -0.75836408
0.9453243 -2.494355 -0.75836408
0.92533129 -2.4875369 -0.75434572
0.91005063 -2.4931679 -0.75434572
0.89634836 -2.5032148 -0.75578088
0.88065505 -2.5077636 -0.75549382
0.86556256 -2.5140259 -0.75578088
0.84828526 -2.5138431 -0.75405872
0.83554733 -2.5271873 -0.75664192
0.82179338 -2.5377355 -0.75836408
0.80533934 -2.5399902 -0.75750303
0.79200715 -2.5522039 -0.75979924
0.77661008 -2.5579324 -0.76008624
0.75953901 -2.5580573 -0.75865114
0.74596173 -2.5700302 -0.76094735
0.72861248 -2.5690289 -0.75922519
0.71079302 -2.5660648 -0.75692898
0.6935367 -2.5648291 -0.75520682
0.68022573 -2.5782995 -0.75807709
0.66248661 -2.5750022 -0.75578088
0.64969772 -2.591099 -0.75951219
0.63219869 -2.5885222 -0.75750303
0.61630392 -2.5923524 -0.75750303
0.60017055 -2.5951519 -0.75721598
0 -0 -0
0.56725901 -2.5976417 -0.75578088
0.5509131 -2.5991991 -0.75520682
0.53302979 -2.5931466 -0.75233656
0.51916218 -2.6067035 -0.75549382
0.50333887 -2.6107805 -0.75578088
0.48836088 -2.6194706 -0.75750303
0.47261766 -2.6243033 -0.75807709
0.45814216 -2.6365924 -0.76094735
0.44479591 -2.6563611 -0.76611382
0.43031228 -2.6703897 -0.76955813
0.41421133 -2.6748731 -0.77013218
0.39708894 -2.6726265 -0.76869702
0.37879881 -2.6617346 -0.76467866
0.36323196 -2.6697042 -0.76640081
0.34487766 -2.6566827 -0.7618084
0.32786763 -2.6530442 -0.76008624
0.31213886 -2.6597633 -0.7615214
0.29760474 -2.6778142 -0.76640081
0.28057107 -2.6738737 -0.76467866
0.26387808 -2.6726847 -0.76381761
0.24659529 -2.6647148 -0.76094735
0 -0 -0
0.21227759 -2.6474874 -0.75491977
0.19518554 -2.6372759 -0.75147545
0.1784845 -2.6307781 -0.74917924
0.16274886 -2.6385167 -0.75118846
0.1467669 -2.6432915 -0.75233656
0.13040476 -2.6412718 -0.75147545
0.11431859 -2.6448934 -0.75233656
0.098683879 -2.6618187 -0.75721598
0.082203425 -2.6575868 -0.75578088
0.065755308 -2.6522954 -0.75405872
0.049532227 -2.6555221 -0.75491977
0.033237316 -2.6557763 -0.75491977
0.017026499 -2.6702986 -0.75922519
0.00064021739 -2.6770585 -0.76123434
-0.015725259 -2.6674328 -0.75836408
-0.031960648 -2.6567497 -0.75520682
-0.048208095 -2.6536305 -0.75434572
-0.064750217 -2.6638186 -0.75750303
-0.081182599 -2.6662436 -0.75836408
-0.097399049 -2.6618662 -0.75721598
-0.1134822 -2.6554763 -0.75549382
-0.12996252 -2.6585569 -0.75664192
-0.14653797 -2.6624918 -0.75807709
-0.16298983 -2.6634548 -0.75865114
-0.17855188 -2.6509356 -0.75520682
-0.19453172 -2.6459689 -0.75405872
-0.21076342 -2.6447256 -0.75405872
-0.22723432 -2.6462457 -0.75491977
-0.24426116 -2.6533864 -0.75750303
-0.26100782 -2.6566041 -0.75893813
-0.27680388 -2.6501889 -0.75750303
-0.29390609 -2.6560571 -0.75979924
-0.31030944 -2.6551552 -0.76008624
-0.32718256 -2.6579547 -0.7615214
-0.34373185 -2.6577971 -0.76209545
-0.36042064 -2.6584854 -0.7629565
-0.37375763 -2.6353598 -0.75664192
-0.38992086 -2.6330168 -0.75664192
-0.40694875 -2.6362545 -0.75836408
-0.42067909 -2.6185763 -0.75377166
-0.43721291 -2.6187801 -0.75463277
-0.45294532 -2.6141605 -0.75405872
-0.46897697 -2.6113322 -0.75405872
-0.48621964 -2.6149971 -0.75606787
-0.50080544 -2.6044397 -0.75377166
-0.51565415 -2.595681 -0.75204951
-0.53118557 -2.5905914 -0.75147545
-0.54687256 -2.5863464 -0.75118846
-0.56130153 -2.576391 -0.74917924
-0.57730943 -2.573833 -0.7494663
-0.5943861 -2.5758419 -0.75118846
-0 -0 -0
-0.63163173 -2.5916185 -0.75836408
-0.6470558 -2.5858357 -0.75779003
-0.66768277 -2.6003714 -0.76353055
-0 -0 -0
-0.69654298 -2.5808854 -0.76008624
-0.71389991 -2.5821018 -0.7618084
-0.72633266 -2.5656922 -0.75807709
-0.74393064 -2.567627 -0.76008624
-0.7599439 -2.5639322 -0.76037329
-0.7723226 -2.5482216 -0.75692898
-0.79674363 -2.5717967 -0.76582676
-0.81337732 -2.5695989 -0.76668787
-0.82381737 -2.5481555 -0.7615214
-0.84063971 -2.5466907 -0.7626695
-0.85288149 -2.5315006 -0.75951219
-0.86621583 -2.5198793 -0.75750303
-0.88197857 -2.5154207 -0.75779003
-0.89513606 -2.5036488 -0.75578088
-0.90719712 -2.4891105 -0.75291061
-0.92812979 -2.4987602 -0.75779003
-0.94514161 -2.4974971 -0.75922519
-0.95941341 -2.4889698 -0.75836408
-0.97641939 -2.4874938 -0.75979924
-0.99273163 -2.4841239 -0.76066029
-1.0047034 -2.4700015 -0.75807709
-1.0235076 -2.4726396 -0.76094735
-1.0386602 -2.4663129 -0.76094735
-1.0492426 -2.4493289 -0.75750303
-1.0669326 -2.4489911 -0.75951219
-1.0799974 -2.43802 -0.75807709
-1.0882431 -2.4165018 -0.75319761
-1.1006556 -2.4045539 -0.75147545
-1.1121535 -2.3908083 -0.74917924
-1.1284412 -2.3874028 -0.75032735
-1.144729 -2.3838871 -0.75147545
-1.1664803 -2.3914516 -0.75635493
-1.1807064 -2.3833909 -0.75606787
-1.1961701 -2.3778126 -0.75664192
-1.2129182 -2.3746927 -0.75807709
-1.2270248 -2.3663554 -0.75779003
-1.2383956 -2.3528497 -0.75578088
-1.2523574 -2.344362 -0.75549382
-1.2662617 -2.3357916 -0.75520682
-1.281032 -2.3288171 -0.75549382
-1.2948301 -2.3200767 -0.75520682
-1.3109307 -2.3154216 -0.75635493
-1.3255906 -2.3081648 -0.75664192
-1.3387632 -2.2983327 -0.75606787
-1.3547907 -2.2933731 -0.75721598
-1.3678519 -2.2833741 -0.75664192
-1.3838272 -2.2782121 -0.75779003
-1.4023041 -2.2770171 -0.76037329
-1.4157416 -2.2675574 -0.76008624
-1.430141 -2.2596371 -0.76037329
-1.4465669 -2.2548497 -0.7618084
-1.4603752 -2.2459314 -0.7618084
-1.4772933 -2.2417262 -0.76353055
-1.4931498 -2.2358048 -0.76467866
-1.5046915 -2.2234287 -0.76353055
-1.5226425 -2.2204723 -0.76582676
-1.5400668 -2.216593 -0.76783597
-1.5536386 -2.2071016 -0.76783597
-1.5738301 -2.2068832 -0.77128029
-1.5834126 -2.191751 -0.76927108
-1.5968311 -2.1819942 -0.76927108
-1.606194 -2.16677 -0.76726192
-1.6240628 -2.1630001 -0.76955813
-1.6355636 -2.1507077 -0.76869702
-1.6458051 -2.1368382 -0.76726192
-1.6606539 -2.1289647 -0.76812297
-1.6748741 -2.1202378 -0.76869702
-1.6950366 -2.1188943 -0.77214134
-1.7025764 -2.1017573 -0.76955813
-1.7069306 -2.0809057 -0.76553977
-1.7227286 -2.0740762 -0.76697487
-1.7335718 -2.0612681 -0.76611382
-1.74308 -2.046947 -0.76467866
-1.7562329 -2.0369384 -0.76496571
-1.7642863 -2.0210743 -0.7629565
-1.7747501 -2.0080583 -0.76209545
-1.7895942 -1.9999852 -0.76324356
-1.8082666 -1.9960634 -0.76611382
-1.8224236 -1.9870476 -0.76697487
-1.8384942 -1.9800382 -0.76869702
-1.8538908 -1.9722085 -0.77013218
-1.8685998 -1.9635707 -0.77128029
-1.8786181 -1.9499995 -0.77041918
-1.8905478 -1.9384358 -0.77041918
-1.9044261 -1.9288431 -0.77128029
-1.914193 -1.9150898 -0.77041918
-1.9279526 -1.9053277 -0.77128029
-1.9389215 -1.8927933 -0.77099323
-1.9498091 -1.880196 -0.77070624
-1.9689419 -1.8754611 -0.77386349
-1.9797145 -1.8626885 -0.7735765
-1.9882987 -1.8478988 -0.77242839
-2.0031295 -1.8389016 -0.77386349
-2.014375 -1.826576 -0.77386349
-2.0234034 -1.8122653 -0.77300245
-2.0359206 -1.8010846 -0.7735765
-2.0303361 -1.7740688 -0.76697487
-2.0390072 -1.7597009 -0.76611382
-2.0541418 -1.7508831 -0.76783597
-2.0567822 -1.7314637 -0.76467866
-2.0651572 -1.7169746 -0.76381761
-2.0771346 -1.7054858 -0.76439166
-2.0808613 -1.6872817 -0.7618084
-2.0934191 -1.6762773 -0.7626695
-2.1036651 -1.6634008 -0.7626695
-2.1085448 -1.6463372 -0.76066029
-2.1239192 -1.6374602 -0.7626695
-2.1331639 -1.6238174 -0.76238245
-2.1430874 -1.610698 -0.76238245
-2.151391 -1.596377 -0.7618084
-2.1634648 -1.5848435 -0.7626695
-2.1700425 -1.5692949 -0.7615214
-2.1811905 -1.5570626 -0.76209545
-2.1867871 -1.5408927 -0.76066029
-2.1875474 -1.5214331 -0.75750303
-2.2086916 -1.5161085 -0.7618084
-2.2020864 -1.4917895 -0.75606787
-2.2032325 -1.4729292 -0.75319761
-2.2098293 -1.4578013 -0.75233656
-2.2115049 -1.4395146 -0.7497533
-2.2219086 -1.4269525 -0.75032735
-2.2298129 -1.4127799 -0.75004035
-2.2343769 -1.3965347 -0.74860519
-2.2404571 -1.3812915 -0.74774414
-2.2521651 -1.3695077 -0.74889225
-2.2572389 -1.3536936 -0.74774414
-2.2646778 -1.3393308 -0.74745709
-2.2720253 -1.3249276 -0.74717009
-2.2751284 -1.3080992 -0.74544793
-2.2831118 -1.2941146 -0.74544793
-2.2868271 -1.2777469 -0.74401277
-2.2811954 -1.2563034 -0.73942035
-2.2913873 -1.2436523 -0.74028146
-2.2913711 -1.2255068 -0.7376982
-2.2963045 -1.2100855 -0.73683715
-2.3036861 -1.1959728 -0.73683715
-2.3160996 -1.1844298 -0.73855931
-2.3258908 -1.1714877 -0.73942035
-2.3407602 -1.1610217 -0.74200362
-2.3443961 -1.1449572 -0.74085552
-2.3496504 -1.1297213 -0.74028146
-2.3513417 -1.1128265 -0.73855931
-2.35552 -1.0971658 -0.7376982
-2.356982 -1.0802995 -0.73597604
-2.3539586 -1.0614897 -0.73281878
-2.3560483 -1.045086 -0.73138362
-2.3580256 -1.0286968 -0.72994852
-2.35901 -1.0119454 -0.72822636
-2.3722372 -1.0004264 -0.73052257
-0 -0 -0
-0.39853847 -0.16338973 -0.088158011
-0.35772669 -0.1442319 -0.074667782
-0.38535509 -0.15253583 -0.083278567
-0.38360238 -0.14913474 -0.082417488
-0.3576332 -0.13660562 -0.073806703
-0.33421966 -0.12540194 -0.066056997
-0 -0 -0
-0.2978498 -0.10774454 -0.054001898
-0.3021211 -0.10718293 -0.055150002
-0.27831432 -0.096918136 -0.047400296
-0 -0 -0
-0 -0 -0
-0 -0 -0
-0 -0 -0
-0.25462109 -0.080113508 -0.039076537
-0 -0 -0
-0.25650343 -0.077255137 -0.039363563
-0.25697264 -0.075679809 -0.039363563
-0.25835386 -0.074362598 -0.039650589
-0 -0 -0
-0.26942 -0.073932633 -0.042807877
-0.26523688 -0.071058311 -0.041372746
-0.27309042 -0.071335681 -0.043668956
-0 -0 -0
-0.2851133 -0.07070148 -0.04711327
-0 -0 -0
-0.29249313 -0.068705387 -0.049122453
-0.29197451 -0.066699691 -0.048835427
-0 -0 -0
-0 -0 -0
-0 -0 -0
-0 -0 -0
-0 -0 -0
-0.26032785 -0.049602207 -0.038502485
-0 -0 -0
-0 -0 -0
-0 -0 -0
-0 -0 -0
-0 -0 -0
-0 -0 -0
-0 -0 -0
-0 -0 -0
-0 -0 -0
-0 -0 -0
-0 -0 -0
-0 -0 -0
-0 -0 -0
-0 -0 -0
-0 -0 -0
-0 -0 -0
-0 -0 -0
-0 -0 -0
-0 -0 -0
-0 -0 -0
-0 -0 -0
-0 -0 -0
-0.28194353 -0.013228801 -0.043668956
-0.27819028 -0.011358297 -0.042520851
-0.29357436 -0.010118277 -0.04711327
-0 -0 -0
-0.29367644 -0.006514906 -0.04711327
-0.29371089 -0.0047128187 -0.04711327
-0.28032359 -0.0028308993 -0.043094903
-0.2812936 -0.0011106248 -0.043381929
-0 0 -0
-0.2764968 0.0022816479 -0.041946799
-0 0 -0
-0.2735751 0.0056034275 -0.04108572
-0 0 -0
-0 0 -0
-0.27629671 0.010762059 -0.041946799
-0 0 -0
-0.27136159 0.013886532 -0.040511668
-0 0 -0
-0.27881655 0.017733861 -0.042807877
-0.27942309 -0.0065807765 -0.045953155
-0.28327656 -0.0049380236 -0.047142655
-0 -0 -0
-0.2871348 -0.0014864289 -0.048332155
-0.28713852 0.00027542509 -0.048332155
-0.28331244 0.0020154184 -0.047142655
-0.27852127 0.0036971497 -0.04565578
-0.28326637 0.0054919459 -0.047142655
-0.28609079 0.0072990386 -0.04803478
-0.28508627 0.0090254294 -0.047737405
-0.28693381 0.01084401 -0.048332155
-0.28304628 0.012441996 -0.047142655
-0.28391823 0.014224954 -0.04744003
-0.25617912 0.014449987 -0.038816158
-0.25227368 0.015788993 -0.037626658
-0.25788772 0.017720606 -0.039410908
-0.26348737 0.019721692 -0.041195158
-0.26336139 0.021338049 -0.041195158
-0.25942042 0.022627518 -0.040005658
-0.25737518 0.02404415 -0.039410908
-0.26292402 0.026182057 -0.041195158
-0 0 -0
-0 0 -0
-0 0 -0
-0 0 -0
-0 0 -0
-0 0 -0
-0 0 -0
-0 0 -0
-0 0 -0
-0 0 -0
-0 0 -0
-0 0 -0
-0 0 -0
-0 0 -0
-0 0 -0
-0 0 -0
-0 0 -0
-0 0 -0
-0 0 -0
-0 0 -0
-0 0 -0
-0 0 -0
-0 0 -0
-0 0 -0
-0 0 -0
-0 0 -0
-0 0 -0
-0 0 -0
-0 0 -0
-0 0 -0
-0 0 -0
-0.26190177 0.079740644 -0.044168908
-0 0 -0
-0 0 -0
-0 0 -0
-0 0 -0
-0 0 -0
-0 0 -0
-0.25733528 0.090596952 -0.043871533
-0 0 -0
-0 0 -0
-0 0 -0
-0 0 -0
-0 0 -0
-0.2573815 0.10140218 -0.045061029
-0 0 -0
-0 0 -0
-0.26252928 0.10904259 -0.04744003
-0.26449519 0.11176263 -0.048332155
-0.26555985 0.11413504 -0.048926905
-0.26660526 0.1165247 -0.049521655
-0.27025032 0.1200911 -0.05100853
-0.26863775 0.12135517 -0.050711155
-0.26788807 0.12300122 -0.050711155
-0.2653968 0.12383753 -0.050116405
-0.26463196 0.12546365 -0.050116405
-0.26471788 0.12749818 -0.05041378
-0.2630724 0.12870164 -0.050116405
-0.26227775 0.1303134 -0.050116405
-0.26062024 0.13149133 -0.04981903
-0.25980851 0.13308799 -0.04981903
-0.25983468 0.13511899 -0.050116405
-0.25815573 0.13626622 -0.04981903
-0.25647256 0.13739794 -0.049521655
-0.25730354 0.13987881 -0.050116405
-0.25644043 0.14145496 -0.050116405
-0.26057038 0.14581667 -0.051900655
-0.25967076 0.14741276 -0.051900655
-0.25876138 0.1490033 -0.051900655
-0.25784224 0.15058821 -0.051900655
-0.26184613 0.1550803 -0.053684901
-0.26088965 0.15668404 -0.053684901
-0.26481995 0.16125502 -0.055469152
-0.26382554 0.16287687 -0.055469152
-0.26282117 0.16449262 -0.055469152
-0.26180691 0.16610216 -0.055469152
-0.26078281 0.16770545 -0.055469152
-0.26295096 0.17138372 -0.056658652
-0.2610971 0.17246871 -0.056361277
-0.26321024 0.17618795 -0.057550777
-0.26212421 0.17779966 -0.057550777
-0.28386608 0.19505922 -0.066174649
-0.27560624 0.19189562 -0.063498273
-0.27598524 0.19468197 -0.064093024
-0.27323064 0.19526328 -0.063498273
-0.27202737 0.19693612 -0.063498273
-0.27081388 0.19860154 -0.063498273
-0.2718915 0.20196478 -0.064390399
-0 0 -0
-0 0 -0
-0 0 -0
-0 0 -0
-0 0 -0
-0 0 -0
-0 0 -0
-0 0 -0
-0 0 -0
-0 0 -0
-0 0 -0
-0 0 -0
-0 0 -0
-0 0 -0
-0 0 -0
-0 0 -0
-0 0 -0
-0 0 -0
-0 0 -0
-0 0 -0
-0 0 -0
-0 0 -0
-0 0 -0
-0 0 -0
-0 0 -0
-0 0 -0
-1.7959013 1.8622891 -0.76470822
-0 0 -0
-0 0 -0
-0 0 -0
-0 0 -0
-1.7302332 1.9080156 -0.76113975
-0 0 -0
-0 0 -0
-0 0 -0
-0 0 -0
-0 0 -0
-0 0 -0
-0 0 -0
-0 0 -0
-0 0 -0
-0 0 -0
-1.6307793 2.0622988 -0.77779269
-0 0 -0
-1.6024334 2.0783756 -0.77630585
-1.5867585 2.0843709 -0.77481896
-1.5727916 2.0925415 -0.77422422
-1.5639058 2.1075189 -0.77630585
-1.5509449 2.1170752 -0.77630585
-1.544641 2.1358345 -0.77987432
-1.5348359 2.1499341 -0.78165859
-1.5199651 2.15697 -0.78076649
-1.5072467 2.1670394 -0.78106385
-1.5090547 2.1982846 -0.78939033
-1.4773266 2.1806302 -0.77927959
-1.4591419 2.1825113 -0.77660322
-1.4462485 2.1922202 -0.77690059
-1.441106 2.2138543 -0.78165859
-1.4182056 2.2081962 -0.77630585
-1.4030963 2.2144372 -0.77541375
-1.3920132 2.2270527 -0.77690059
-1.3803269 2.2388024 -0.77809012
-1.3591208 2.2349944 -0.77362949
-1.3443992 2.2416544 -0.77303475
-1.3286748 2.2465744 -0.77184522
-1.3134217 2.2522106 -0.77095312
-1.303862 2.2676759 -0.77362949
-1.2885104 2.2731419 -0.77273732
-1.2689483 2.2710044 -0.76916885
-1.2568327 2.2820928 -0.77035832
-1.2396173 2.2838881 -0.76827675
-1.2260308 2.2922931 -0.76857412
-1.2128329 2.3014619 -0.76916885
-1.1982485 2.3080132 -0.76887149
-1.1797158 2.3068221 -0.76589775
-1.1689762 2.3208385 -0.76827675
-1.153865 2.326257 -0.76768196
-1.1408271 2.3358667 -0.76857412
-1.1273007 2.3445435 -0.76916885
-1.1092165 2.3436499 -0.76649249
-1.0956218 2.3521428 -0.76708722
-1.0839543 2.3648961 -0.76916885
-1.0694232 2.3715026 -0.76916885
-1.0560136 2.3806379 -0.77006096
-1.043296 2.391448 -0.77154785
-1.0312384 2.4039462 -0.77362949
-1.0183244 2.4146268 -0.77511632
-1.0005634 2.4137743 -0.77273732
-0.9817704 2.4101424 -0.76946622
-0.96022075 2.3992803 -0.76381612
-0.9475776 2.4104581 -0.76560032
-0.93276948 2.4162269 -0.76560032
-0.91386408 2.4111919 -0.76203185
-0.9030484 2.4274914 -0.76560032
-0.89337713 2.447336 -0.77035832
-0.88961446 2.48423 -0.78076649
-0.083419457 0.23860532 -0.037626658
-0.86154991 2.5021815 -0.78314549
-0.8409884 2.4920428 -0.77809012
-0 0 -0
-0.81475836 2.5157993 -0.78255069
-0.78429288 2.4734282 -0.76708722
-0 0 -0
-0 0 -0
-0 0 -0
-0 0 -0
-0 0 -0
-0 0 -0
-0 0 -0
-0 0 -0
-0 0 -0
-0 0 -0
-0 0 -0
-0 0 -0
-0 0 -0
-0 0 -0
-0 0 -0
-0 0 -0
-0 0 -0
-0 0 -0
-0 0 -0
-0 0 -0
-0 0 -0
-0 0 -0
-0 0 -0
-0 0 -0
-0 0 -0
-0 0 -0
-0.033650745 0.23895235 -0.034058161
-0 0 -0
-0.030715898 0.23934731 -0.034058161
-0.031709291 0.25942945 -0.040303033
-0 0 -0
-0.027150126 0.24746333 -0.036437161
-0.025731012 0.24857479 -0.036734536
-0.023359511 0.24017687 -0.034058161
-0 0 -0
-0 0 -0
-0 0 -0
-0 0 -0
-0 0 -0
-0 0 -0
-0 0 -0
-0.12620564 2.5553997 -0.75578696
-0.11027528 2.5504029 -0.75400275
-0.094339922 2.5433986 -0.75162375
-0.078643098 2.5410666 -0.75073159
-0.062906966 2.5357747 -0.74894738
-0.047310621 2.5342038 -0.74835259
-0.031481571 2.5124886 -0.74151301
-0.016020859 2.5059514 -0.73943138
-0.00065145263 2.5231881 -0.74478412
0.014830551 2.5231447 -0.74478412
0.030311996 2.5230062 -0.74478412
0.046273291 2.5495017 -0.75311059
0.061892834 2.5482152 -0.75281322
0.077382766 2.543016 -0.75132638
0.092950217 2.541539 -0.75102895
0.10846186 2.5390131 -0.75043422
0.12362083 2.529717 -0.74775785
0.13851292 2.5174711 -0.74418938
0.15424798 2.5213387 -0.74567622
0.16939573 2.5155816 -0.74418938
0 0 -0
0.20093419 2.5218794 -0.74686575
0.21681197 2.5253553 -0.74835259
0.23291467 2.5306327 -0.75043422
0.24759926 2.5206041 -0.74775785
0.26296172 2.5180879 -0.74746048
0.27882683 2.5202229 -0.74864995
0 0 -0
0.30926692 2.512821 -0.74746048
0.32492408 2.5127699 -0.74805522
0.3398236 2.5069444 -0.74686575
0.35439613 2.49914 -0.74508148
0.36804748 2.4855847 -0.74151301
0.38431028 2.4898849 -0.74359459
0.3992781 2.4855945 -0.74299985
0.41389367 2.4793308 -0.74181038
0.43121564 2.4889746 -0.74567622
0.44664821 2.4872215 -0.74597359
0.4643423 2.497576 -0.75013685
0.48091927 2.5012431 -0.75221848
0.49588579 2.4963722 -0.75162375
0.51119393 2.4932826 -0.75162375
0.52549601 2.4854283 -0.75013685
0.54134566 2.4849558 -0.75102895
0.55365962 2.4685442 -0.74686575
0.56943947 2.4678917 -0.74775785
0.58347034 2.4597061 -0.74627101
0.59764814 2.4523692 -0.74508148
0.61407399 2.4542134 -0.74686575
0.62698567 2.442076 -0.74418938
0.64098632 2.4344895 -0.74299985
0.65740371 2.4360416 -0.74478412
0.66928744 2.4209187 -0.74121559
0.68490905 2.4195225 -0.74210775
0.69761771 2.4079378 -0.73972875
0.71454871 2.4109354 -0.74210775
0.72628397 2.3964543 -0.73883659
0.74323368 2.3992491 -0.74121559
0.759381 2.3991952 -0.74270248
0.7735008 2.3926735 -0.74210775
0.78996211 2.3933225 -0.74389201
0.80280435 2.3830013 -0.74210775
0.81523955 2.3717098 -0.74002612
0.83261853 2.3747723 -0.74270248
0.84428269 2.361527 -0.74002612
0.85908365 2.3571992 -0.74032348
0 0 -0
0.88625652 2.3420143 -0.73883659
0.90507239 2.3481143 -0.74270248
0.91667342 2.3354063 -0.74032348
0.93240261 2.3332844 -0.74151301
0.94921887 2.3337104 -0.74359459
0.96279037 2.3260777 -0.74299985
0.98148978 2.3306861 -0.74656838
0.99389309 2.3202314 -0.74508148
1.0103981 2.3193417 -0.74686575
1.0315682 2.3288124 -0.75221848
1.0415273 2.3128622 -0.74894738
1.0564935 2.3081644 -0.74954212
1.0706363 2.3016384 -0.74954212
1.0875937 2.3010685 -0.75162375
1.0992135 2.2891874 -0.74983948
1.1161679 2.2884071 -0.75192112
1.1293409 2.2798042 -0.75132638
1.1428794 2.2719786 -0.75102895
1.1611398 2.2734268 -0.75400275
1.1697953 2.2560873 -0.75043422
1.1773927 2.2370379 -0.74627101
1.1933453 2.2339823 -0.74775785
1.200662 2.2148662 -0.74359459
1.2151496 2.2091305 -0.74418938
1.229612 2.2033005 -0.74478412
1.241227 2.1923907 -0.74359459
1.2570326 2.1888733 -0.74508148
1.2661159 2.1736934 -0.74240512
1.2706912 2.1510854 -0.73705238
1.2922046 2.1571734 -0.74210775
1.3009567 2.1418591 -0.73943138
1.314575 2.1346493 -0.73972875
1.3210768 2.1160135 -0.73586285
1.3355669 2.1102881 -0.73675501
1.3531288 2.1092868 -0.73943138
1.363444 2.0969419 -0.73794448
1.3747092 2.0861444 -0.73705238
1.3901343 2.0816407 -0.73853922
1.3959262 2.0627911 -0.73467338
1.4139551 2.0620623 -0.73764712
1.4178669 2.0408006 -0.73288912
1.4429994 2.0500214 -0.73972875
1.4583219 2.0450158 -0.74121559
1.4714015 2.0368032 -0.74151301
1.488381 2.0339012 -0.74389201
1.5031066 2.0277989 -0.74508148
1.5178131 2.0215921 -0.74627101
1.5353891 2.0190816 -0.74894738
1.5401771 1.999788 -0.74508148
1.5618119 2.0023468 -0.74983948
1.5764354 1.9957232 -0.75102895
1.5826886 1.9785563 -0.74805522
1.6032108 1.9791957 -0.75221848
1.6092708 1.9619384 -0.74924475
0 0 -0
1.6399841 1.9500813 -0.75251585
1.6482054 1.9356197 -0.75073159
1.6594278 1.9247469 -0.75043422
1.6693233 1.9123704 -0.74954212
1.6822903 1.9035227 -0.75013685
1.6863 1.8846252 -0.74656838
1.6978322 1.8742428 -0.74656838
1.7034935 1.857456 -0.74389201
1.7174566 1.8497677 -0.74508148
1.7268128 1.8371074 -0.74418938
1.7334461 1.821635 -0.74210775
1.7465777 1.8130276 -0.74299985
1.7616683 1.8063785 -0.74478412
1.7780844 1.8009713 -0.74716312
1.7843776 1.7852994 -0.74508148
1.7952985 1.7743171 -0.74508148
1.8088839 1.7659363 -0.74627101
1.817624 1.7528154 -0.74537885
1.8304185 1.7436055 -0.74627101
1.8410826 1.7323414 -0.74627101
1.8551736 1.7242626 -0.74775785
1.8664217 1.7134929 -0.74805522
1.8761933 1.701367 -0.74775785
1.8929971 1.6955569 -0.75043422
1.8997903 1.6807461 -0.74894738
1.9079108 1.6671726 -0.74805522
1.9195498 1.6566823 -0.74864995
1.9245933 1.6405365 -0.74656838
1.9295112 1.6243916 -0.74448675
1.9313674 1.605806 -0.74121559
1.9426596 1.5951371 -0.74181038
1.9538937 1.5843902 -0.74240512
1.9717753 1.5789373 -0.74567622
1.9814264 1.5668091 -0.74567622
1.9917552 1.5552094 -0.74597359
2.0035284 1.5447083 -0.74686575
2.0137286 1.5329642 -0.74716312
2.0147023 1.5142679 -0.74389201
2.0208893 1.4996011 -0.74270248
2.0292823 1.4866086 -0.74240512
2.0453279 1.4791658 -0.74508148
2.0520344 1.4649235 -0.74418938
2.0711293 1.4594558 -0.74805522
2.0769105 1.4445391 -0.74686575
2.0841606 1.4306873 -0.74627101
2.0921097 1.4173366 -0.74597359
2.0999732 1.4039421 -0.74567622
2.1069543 1.3899788 -0.74508148
2.1138432 1.3759826 -0.74448675
2.1222463 1.3629864 -0.74448675
2.1394401 1.3555613 -0.74775785
2.1428602 1.3393714 -0.74597359
2.1583519 1.3307086 -0.74864995
2.1632135 1.3154553 -0.74746048
2.1646945 1.2982279 -0.74508148
2.1882322 1.294158 -0.75073159
2.184586 1.2739716 -0.74656838
2.1857409 1.2567348 -0.74418938
2.1934109 1.2432998 -0.74418938
2.2034986 1.2312154 -0.74508148
2.2218831 1.2236611 -0.74894738
2.2259932 1.2081826 -0.74775785
2.2342064 1.1949518 -0.74805522
2.2617664 1.1919063 -0.75519222
2.2639534 1.1753657 -0.75340796
2.2694228 1.1605825 -0.75281322
2.2765012 1.1466358 -0.75281322
2.26981 1.1258557 -0.74805522
0 0 -0
2.2800133 1.0962614 -0.74686575
2.2866969 1.0822508 -0.74686575
2.2837749 1.0637636 -0.74359459
2.2945983 1.0517204 -0.74508148
2.2853432 1.0305541 -0.73972875
2.2811511 1.0118648 -0.73616022
2.2873168 0.99784887 -0.73616022
2.2819905 0.97890043 -0.73229438
2.2949915 0.96784914 -0.73467338
2.2982411 0.95265192 -0.73378122
2.3217263 0.94573855 -0.73972875
2.328372 0.93182981 -0.74002612
2.350039 0.92381561 -0.74537885
2.3521006 0.90800273 -0.74418938
2.373697 0.89964658 -0.74954212
2.3818569 0.88606405 -0.75043422
2.390836 0.87274265 -0.75162375
2.3952472 0.85773432 -0.75132638
2.4004653 0.84302121 -0.75132638
0 0 -0
2.4006791 0.81014067 -0.74805522
2.4074178 0.79599488 -0.74864995
2.4058986 0.77914816 -0.74656838
2.4115441 0.76465988 -0.74686575
2.4043369 0.74616784 -0.74299985
2.428968 0.73750675 -0.74954212
2.4334474 0.72258902 -0.74954212
2.4350848 0.70684516 -0.74864995
2.4439685 0.69319379 -0.75013685
2.4555364 0.68022507 -0.75251585
2.4633503 0.66614288 -0.75370538
2.4766228 0.65345269 -0.75667912
2.4722641 0.63610166 -0.75400275
2.4826031 0.62254673 -0.75608438
2.4668994 0.60254169 -0.74983948
0 0 -0
2.4480631 0.56619561 -0.74151301
2.4421763 0.54906821 -0.73853922
2.4464321 0.53427678 -0.73883659
2.4524662 0.51985008 -0.73972875
0 0 -0
2.4755149 0.49307516 -0.74508148
2.4841187 0.47896183 -0.74686575
2.5020278 0.46651292 -0.75162375
2.504843 0.451152 -0.75162375
2.5113266 0.43642855 -0.75281322
