# .PCD v0.7 - Point Cloud Data file format
VERSION 0.7
FIELDS x y z
SIZE 4 4 4
TYPE F F F
COUNT 1 1 1
WIDTH 1570
HEIGHT 1
VIEWPOINT 0 0 0 1 0 0 0
POINTS 1570
DATA ascii
4.9179201 1.8616306 -0.75577039
4.9459352 1.8376147 -0.75845891
4.9273882 1.7964013 -0.75367934
4.9522843 1.7711251 -0.75591975
4.9406633 1.732856 -0.75233507
4.9736457 1.7102196 -0.75591975
5.0065355 1.6872433 -0.75950444
5.0214891 1.6580411 -0.76025128
5.0259228 1.6253744 -0.75935507
5.0254316 1.5912243 -0.75771213
5.0436015 1.5629913 -0.75905639
5.0549893 1.5325882 -0.75935507
5.0652461 1.5018234 -0.75950444
5.0439734 1.4619139 -0.75472486
5.078537 1.4382058 -0.75875765
5.0720172 1.4028037 -0.75636786
5.1082144 1.3791238 -0.76069933
5.0534697 1.3311454 -0.75084144
5.0538802 1.2981466 -0.74964648
5.0646281 1.2678318 -0.75009459
5.0896044 1.2409441 -0.75278312
5.0971231 1.2096915 -0.75278312
5.1169748 1.181282 -0.75472486
5.1521072 1.156135 -0.75905639
5.1359167 1.1194518 -0.75547165
5.1542978 1.0903704 -0.75726402
5.1599226 1.0585252 -0.75711465
5.1837778 1.0303104 -0.75980318
5.1297989 0.98691553 -0.7505427
5.1726995 0.96228486 -0.75621849
5.1424966 0.92406535 -0.75069207
5.1529412 0.89333761 -0.75143886
5.1524739 0.86072671 -0.7505427
5.1693735 0.83097607 -0.75233507
5.1900105 0.80165327 -0.75472486
5.1752691 0.76689845 -0.75173759
5.1926045 0.73693252 -0.75367934
5.2205443 0.70824236 -0.75726402
5.1894894 0.67163545 -0.75188696
5.1974382 0.64026338 -0.75248438
5.2228756 0.61088276 -0.75577039
5.2166972 0.57773805 -0.75427675
5.2516146 0.54900098 -0.75905639
5.2106013 0.5124225 -0.75233507
5.2422018 0.48306605 -0.75666654
5.2667408 0.45274976 -0.75995255
5.251678 0.4190135 -0.75726402
5.2334414 0.38526207 -0.75412738
5.2475452 0.35393888 -0.75591975
5.2683702 0.32287896 -0.75875765
5.2514935 0.28951678 -0.75591975
5.2600846 0.25762582 -0.75696528
5.2753963 0.22593497 -0.75905639
5.2628498 0.1930571 -0.75696528
5.2481222 0.16028181 -0.75457549
5.2667994 0.12850709 -0.75726402
5.2813296 0.096437879 -0.75935507
5.2353525 0.063477375 -0.75233507
5.2366323 0.031358358 -0.75248438
5.2565017 -0.00078093662 -0.75547165
5.2603531 -0.033059943 -0.75606912
5.2402773 -0.065086231 -0.75308186
5.2565856 -0.097554378 -0.75562102
5.2430377 -0.12948611 -0.75367934
5.2747583 -0.16266736 -0.75860828
5.2706966 -0.19491933 -0.75816017
5.2694016 -0.22725604 -0.75816017
5.318274 -0.26207727 -0.76577771
5.328413 -0.29536396 -0.76757002
5.3462386 -0.3292729 -0.77055728
5.2878866 -0.35824859 -0.7620436
5.2855887 -0.3906877 -0.7620436
5.2663369 -0.42176649 -0.75950444
5.2597094 -0.45373139 -0.75890702
5.24895 -0.48526585 -0.75771213
5.2399697 -0.51687998 -0.75681591
5.2288322 -0.54819554 -0.75562102
5.2263532 -0.58037812 -0.75577039
5.2433162 -0.61485839 -0.75890702
5.2826219 -0.65236086 -0.76547897
5.2696948 -0.68361539 -0.76413471
5.2526646 -0.71420211 -0.76219296
5.2315421 -0.74404788 -0.75965381
5.2659993 -0.7819519 -0.76562834
5.2659879 -0.81500596 -0.76637512
5.2589355 -0.84698725 -0.76607645
5.2692423 -0.8818543 -0.76846623
5.2111273 -0.90502125 -0.76040065
5.2083955 -0.93750525 -0.7608487
5.2628098 -0.98068923 -0.77010924
5.2333922 -1.0084674 -0.76652449
5.2222571 -1.0395936 -0.76577771
5.2196541 -1.072414 -0.76637512
5.2323208 -1.108524 -0.76936239
5.181951 -1.1311095 -0.76264107
5.1922774 -1.1667901 -0.7653296
5.2004337 -1.202194 -0.76771939
5.1612153 -1.2265295 -0.76279044
5.1459079 -1.2562972 -0.76159555
5.1457753 -1.2897731 -0.76279044
5.1482978 -1.3240342 -0.76443344
5.1142635 -1.3487848 -0.76040065
5.1058912 -1.3801399 -0.76040065
5.1221013 -1.4183091 -0.76428407
5.1361318 -1.456189 -0.76786876
5.1365957 -1.4904338 -0.76936239
5.1102929 -1.516855 -0.76667386
5.1037273 -1.5490448 -0.76712197
5.1130133 -1.5861951 -0.77010924
5.1031842 -1.6175381 -0.77010924
5.1016288 -1.6515629 -0.7714535
5.0594811 -1.6722775 -0.76637512
5.0631776 -1.7080343 -0.7686156
5.0712996 -1.7455094 -0.77160287
5.0157151 -1.760862 -0.76443344
5.0085397 -1.7929386 -0.76503086
4.9797974 -1.8171926 -0.76219296
4.9768934 -1.8508176 -0.76353723
4.9617453 -1.8799182 -0.76293981
4.9842453 -1.9235069 -0.76846623
4.9723492 -1.9540534 -0.76846623
4.9584298 -1.9837915 -0.7681675
4.9223566 -2.0044773 -0.76428407
4.920012 -2.0388086 -0.76592708
4.9110532 -2.0704963 -0.76652449
4.8828096 -2.0939624 -0.76398534
4.8698692 -2.1238835 -0.76398534
4.8513227 -2.1513181 -0.76308918
4.8515511 -2.1871433 -0.7653296
4.8335457 -2.2148104 -0.76458281
4.8377905 -2.2527785 -0.76757002
4.8265576 -2.2836897 -0.76801813
4.7999792 -2.3072619 -0.76592708
4.7661862 -2.327122 -0.76264107
4.7465029 -2.3536861 -0.76174492
4.7893691 -2.411684 -0.7714535
4.7665586 -2.4369729 -0.77010924
4.7304554 -2.4552374 -0.76652449
4.7319207 -2.4929771 -0.76936239
4.7078166 -2.5173004 -0.76786876
4.687068 -2.543309 -0.7669726
4.6774368 -2.5753601 -0.76801813
4.6753569 -2.6117301 -0.77040792
4.6532226 -2.6369545 -0.76936239
4.6446691 -2.6698933 -0.77070665
4.6299076 -2.6993387 -0.77100539
4.5783658 -2.7070553 -0.76488149
4.5955858 -2.7554429 -0.77085602
4.5642309 -2.7748535 -0.76831686
4.5647931 -2.8137062 -0.7714535
4.5331893 -2.8327515 -0.76891428
4.5482945 -2.8811562 -0.77473944
4.5022454 -2.8908393 -0.76966113
4.5051384 -2.9318981 -0.77339518
4.4623051 -2.9431484 -0.76891428
4.444984 -2.9710226 -0.76906365
4.4348559 -3.0037875 -0.77055728
4.4032993 -3.0219877 -0.7681675
4.4074011 -3.06476 -0.77234966
4.3723493 -3.0803525 -0.76936239
4.3493428 -3.1042497 -0.7686156
4.3286114 -3.1297195 -0.76831686
4.2981601 -3.1480384 -0.76622576
4.3057585 -3.1943886 -0.77130413
4.2758021 -3.2130239 -0.76936239
4.2489271 -3.2338083 -0.76801813
4.2493625 -3.2755177 -0.77190155
4.2104816 -3.2869227 -0.76831686
4.1840301 -3.3077888 -0.76712197
4.1474485 -3.3204184 -0.76398534
4.1423554 -3.3582613 -0.7669726
4.0964561 -3.3629057 -0.7620436
4.074224 -3.3867133 -0.76174492
4.0563922 -3.414196 -0.76234233
4.066216 -3.4653237 -0.76846623
4.0538588 -3.4979618 -0.77025855
4.0315747 -3.5221193 -0.77010924
4.0343237 -3.5684137 -0.77503818
4.0256085 -3.6049769 -0.77772671
4.0041451 -3.6302741 -0.77787608
3.9796102 -3.6527684 -0.77742797
3.9426386 -3.6636534 -0.77444071
3.9114442 -3.6796439 -0.77264839
3.8887925 -3.7035749 -0.77264839
3.8752463 -3.7362902 -0.77459008
3.8557851 -3.7634518 -0.77533692
3.8115246 -3.7661858 -0.77085602
3.8037202 -3.8048894 -0.77414203
3.8178113 -3.8661573 -0.78220761
3.7905657 -3.8859704 -0.78146076
3.7892859 -3.9326577 -0.78638977
3.7650843 -3.9558342 -0.78638977
3.7231355 -3.9601278 -0.78250635
3.6799309 -3.9626067 -0.77832419
3.6729217 -4.0040607 -0.78220761
3.6383278 -4.0155287 -0.77996713
3.6235092 -4.0488315 -0.78220761
3.6031806 -4.0761757 -0.78325313
3.5729008 -4.0922475 -0.78205824
3.549015 -4.1155915 -0.78235698
3.5102353 -4.1214795 -0.77922034
3.4906073 -4.1497517 -0.78056461
3.478976 -4.1878271 -0.78385061
3.4419286 -4.1953325 -0.78116208
3.4005644 -4.1971626 -0.77742797
3.374747 -4.2179494 -0.77742797
3.3353209 -4.2215052 -0.77414203
3.2388227 -4.1514425 -0.75681591
3.1770942 -4.1242304 -0.74785417
3.1247993 -4.1082263 -0.74113286
3.0989394 -4.1265316 -0.74098349
3.0765047 -4.1494408 -0.74173027
3.0714207 -4.1961703 -0.74695796
3.0589309 -4.2333732 -0.75039333
3.0438039 -4.2673602 -0.75323123
3.023253 -4.2940426 -0.75472486
3.0120785 -4.3344388 -0.75875765
3.072084 -4.4792485 -0.78190887
3.0312443 -4.4783592 -0.77832419
2.9993165 -4.4902954 -0.77712923
2.9570205 -4.4863205 -0.77309644
2.9450655 -4.5284219 -0.77742797
2.9193594 -4.549736 -0.77802545
2.8972032 -4.5767546 -0.77966845
2.8648779 -4.5877352 -0.77847356
2.8418581 -4.6136475 -0.77996713
2.8037448 -4.6149397 -0.77712923
2.7718191 -4.6261182 -0.77608371
2.7101963 -4.5868464 -0.76622576
2.0072918 -3.4447339 -0.56368989
1.9831637 -3.4518406 -0.56279367
1.9536663 -3.4493153 -0.56025451
1.9281292 -3.4534667 -0.55891025
1.9026147 -3.4574347 -0.55756599
1.8761821 -3.4594812 -0.55592299
1.8470014 -3.4561007 -0.55338383
1.8193145 -3.4551179 -0.55129278
1.7944397 -3.4591932 -0.55009782
1.7709324 -3.4657354 -0.54935104
1.7429701 -3.4632859 -0.54711062
1.7203705 -3.4712572 -0.54666251
1.708573 -3.5013003 -0.54994851
1.6840619 -3.5054784 -0.54890293
1.6574519 -3.5050175 -0.54711062
1.6350803 -3.5133283 -0.54681188
1.6139036 -3.524194 -0.54696125
1.5926552 -3.5349319 -0.54711062
1.5745385 -3.5527747 -0.54845488
1.5538938 -3.5650885 -0.54890293
1.5366604 -3.5854633 -0.5506953
1.5180844 -3.6030266 -0.55203956
1.4963261 -3.6131871 -0.55218893
0 -0 -0
0 -0 -0
1.4537641 -3.7017884 -0.56219625
1.4612417 -3.7890646 -0.57489204
1.895216 -5.0067029 -0.77010924
1.8716872 -5.0377035 -0.77324581
0 -0 -0
1.3844516 -3.8703396 -0.58236021
1.3502121 -3.8489013 -0.57758057
0 -0 -0
1.3101367 -3.8867333 -0.58101594
1.2940089 -3.9181738 -0.58475
1.276328 -3.9457984 -0.58788663
1.261041 -3.9818373 -0.59236753
1.2430197 -4.0102797 -0.59565347
1.2593846 -4.1531539 -0.61701238
1.2408992 -4.1845045 -0.62074643
1.1711934 -4.0400782 -0.59684837
1.2177227 -4.2993169 -0.63642955
0 -0 -0
1.4226438 -5.2695518 -0.78594166
1.3922969 -5.2858319 -0.78713655
1.3568881 -5.2827821 -0.78534424
1.3251677 -5.2938862 -0.78579229
1.3013183 -5.3374634 -0.79131871
1.2591913 -5.3059011 -0.78519487
1.2303886 -5.3299069 -0.78773403
1.1961478 -5.3306022 -0.78668851
1.1619447 -5.3310781 -0.78564292
1.1281899 -5.3332701 -0.78489614
1.0972307 -5.3488102 -0.7862404
1.067471 -5.3709598 -0.78863019
1.0281514 -5.3443937 -0.78355187
0.99515879 -5.3496294 -0.7834025
0.96318865 -5.3605013 -0.78414929
0.93179727 -5.3750792 -0.78549355
0.90156478 -5.3972754 -0.78803277
0.86717701 -5.3948956 -0.78683782
0.83496261 -5.4059782 -0.78773403
0.80177641 -5.4109998 -0.78773403
0.76717287 -5.4060273 -0.7862404
0.72934288 -5.3763385 -0.78101271
0.69836766 -5.3964024 -0.7834025
0.66693223 -5.4143257 -0.78549355
0.62796551 -5.3692102 -0.77802545
0.59544337 -5.3768935 -0.77862287
0.55895209 -5.3470087 -0.77354455
0.53086406 -5.3985562 -0.78086334
0.49700502 -5.3938351 -0.77966845
0.46339291 -5.390872 -0.77877223
0.43124747 -5.4054418 -0.78056461
0.39915779 -5.4227781 -0.78280503
0.36275965 -5.3787575 -0.77578497
0.33005071 -5.3858166 -0.77653182
0.29781091 -5.4025497 -0.77877223
0.26465586 -5.4042754 -0.77877223
0.22871292 -5.3405972 -0.76891428
0.19702017 -5.3715439 -0.77339518
0.15539764 -5.0870247 -0.73022938
0.12191088 -4.9939752 -0.7160399
0.09160497 -5.0134134 -0.71887779
0.060594413 -4.9931178 -0.71574116
0.030035881 -5.0072384 -0.71783227
-0.00076370069 -5.2100291 -0.74845159
-0.03361325 -5.3453865 -0.76891428
-0.066561297 -5.3569441 -0.77070665
-0.099522471 -5.3613777 -0.7714535
-0.1324174 -5.3606663 -0.7714535
-0.16714917 -5.4190512 -0.78041524
-0.19944091 -5.3922329 -0.77653182
-0.23192376 -5.3770776 -0.77444071
-0.26545024 -5.3864169 -0.77608371
-0.297232 -5.36198 -0.77264839
-0.32707694 -5.31071 -0.76518023
-0.36186945 -5.3411579 -0.77010924
-0.3934657 -5.3230596 -0.76771939
-0.42532843 -5.3106894 -0.76622576
-0.45637259 -5.2902474 -0.76353723
-0.49174413 -5.3188539 -0.76831686
-0.5208686 -5.280313 -0.76293981
-0.55925059 -5.334053 -0.77160287
-0.58617365 -5.2784371 -0.7636866
-0.6212042 -5.2973275 -0.76712197
-0.65005428 -5.2639771 -0.76264107
-0.68705571 -5.2961693 -0.7681675
-0.71980637 -5.2938137 -0.76846623
-0.75060171 -5.2775502 -0.76667386
-0.78442448 -5.2826257 -0.7681675
-0.82060945 -5.3021412 -0.77190155
-0.85643351 -5.3175054 -0.77503818
-0.84851563 -5.0703049 -0.73799622
-0.87198722 -5.0211658 -0.7312749
-0.90400773 -5.0225325 -0.73232043
-0.93589652 -5.0227232 -0.73321658
-0.97063118 -5.0372744 -0.73635322
-1.0227798 -5.1378922 -0.75278312
-1.0602623 -5.1605754 -0.75726402
-1.0955997 -5.1713834 -0.75995255
-1.1228775 -5.1442776 -0.75681591
-1.150515 -5.1199269 -0.75412738
-1.1778961 -5.0954309 -0.75143886
-1.2123425 -5.1015749 -0.75352997
-1.2452654 -5.1007638 -0.75457549
-1.2801487 -5.1074128 -0.75681591
-1.3117096 -5.1004195 -0.75696528
-1.3449994 -5.0999231 -0.75816017
-1.3803982 -5.1068459 -0.76055002
-1.4209498 -5.1316299 -0.76577771
-1.4621272 -5.1570587 -0.77115476
-1.4915367 -5.1403937 -0.76995987
-1.4585704 -4.9140887 -0.7357558
-1.4990408 -4.9391065 -0.74113286
-1.556584 -5.0176368 -0.7550236
-1.5619301 -4.9278789 -0.74232775
-1.6137745 -4.9849882 -0.75293249
-1.6365687 -4.9515233 -0.74919844
-1.6640735 -4.9329572 -0.74785417
-1.727155 -5.0180116 -0.76308918
-1.7529963 -4.9933262 -0.7608487
-1.7872698 -4.9927154 -0.7624917
-1.8226192 -4.994658 -0.76458281
-1.8501278 -4.9750404 -0.76323855
-1.8921869 -4.9941049 -0.7681675
-1.9423854 -5.0331326 -0.77638245
-1.9587575 -4.9843116 -0.77040792
-1.9841589 -4.9593477 -0.76831686
-2.0082085 -4.9315133 -0.76577771
-2.0452471 -4.9355392 -0.76846623
-2.0697277 -4.9092312 -0.76622576
-2.1037102 -4.9055257 -0.76771939
-2.1274426 -4.8780255 -0.7653296
-2.1637502 -4.8793406 -0.76771939
-2.1973076 -4.8740845 -0.76906365
-2.2168708 -4.8380399 -0.7653296
-2.2427564 -4.8162799 -0.76398534
-2.267189 -4.7917037 -0.76219296
-2.2849765 -4.753643 -0.75816017
-2.3180075 -4.747529 -0.75950444
-2.3378654 -4.7146158 -0.75636786
-2.3618557 -4.6904688 -0.75472486
-2.3860884 -4.6670856 -0.75323123
-2.4092119 -4.6418266 -0.75143886
-2.4168999 -4.587595 -0.74471754
-2.4310105 -4.5465231 -0.74023664
-2.4550874 -4.5245695 -0.73904175
-2.480895 -4.5059557 -0.73844433
-2.4959538 -4.4682074 -0.73456085
-2.5360031 -4.475172 -0.73844433
-2.5451753 -4.4278131 -0.7329179
-2.572794 -4.4129672 -0.73306727
-2.5907612 -4.3817792 -0.73037869
-2.6099687 -4.3530812 -0.72813827
-2.6330328 -4.3310714 -0.72709274
-2.6569631 -4.310626 -0.7263459
-2.6770725 -4.2841811 -0.72455359
-2.6969576 -4.2576518 -0.72276121
-2.7144806 -4.2277131 -0.72037143
-2.7457654 -4.219264 -0.72186506
-2.7454624 -4.1627226 -0.71469563
-2.7671051 -4.1400447 -0.71365011
-2.7819171 -4.1074357 -0.71081221
-2.8031497 -4.0845828 -0.70976663
-2.8134778 -4.0462027 -0.7058832
-2.8257196 -4.0110826 -0.70259726
-2.8238463 -3.9566531 -0.69572657
-2.8434346 -3.9328425 -0.69453168
-2.864006 -3.9105361 -0.69363546
-2.8932505 -3.9000351 -0.69497973
-2.9206913 -3.886951 -0.69587594
-2.9462831 -3.8713169 -0.69632399
-2.954886 -3.833591 -0.69258994
-2.9460959 -3.7740865 -0.68467373
-2.9802389 -3.7698979 -0.68736225
-2.9754984 -3.7168119 -0.68064094
-2.986414 -3.6838937 -0.67780304
-2.980094 -3.6303511 -0.67093235
-2.9795527 -3.5846286 -0.6655553
-2.9989438 -3.5632534 -0.66495782
-3.0322986 -3.5583289 -0.66764635
-3.0314605 -3.5134594 -0.66241866
-3.0425503 -3.4828806 -0.66002887
-3.0586216 -3.4582224 -0.65883392
-3.0764844 -3.4357078 -0.65808713
-3.0842216 -3.4021182 -0.65509987
-3.1010258 -3.3787599 -0.65420371
-3.1055415 -3.3422883 -0.65061897
-3.1212473 -3.3181298 -0.64957345
-3.1504152 -3.3082221 -0.65151519
-3.1418238 -3.258939 -0.64524192
-3.1596887 -3.2374775 -0.64479387
-3.1753232 -3.21381 -0.64389765
-3.1872892 -3.1865778 -0.64225471
-3.1807444 -3.1412604 -0.63672829
-3.1780124 -3.100286 -0.63209802
-3.1734734 -3.0580924 -0.62716901
-3.2014906 -3.0474226 -0.62911075
-3.2006743 -3.0094388 -0.62507796
-3.1995132 -2.9715803 -0.62104517
-3.2001951 -2.9358549 -0.61746049
-3.1990938 -2.898906 -0.61357701
-3.2072408 -2.870652 -0.61163533
-3.2173846 -2.8443716 -0.61014169
-3.2444615 -2.8330283 -0.61208338
-3.2617836 -2.8130674 -0.61208338
-3.2654305 -2.7814631 -0.60939485
-3.2582176 -2.7410121 -0.60461527
-3.2863855 -2.7304435 -0.60685569
-3.2877858 -2.6976874 -0.60386842
-3.3004346 -2.6743517 -0.60312164
-3.2974768 -2.6386111 -0.59938759
-3.3252447 -2.6275208 -0.60162801
-3.3163528 -2.5876107 -0.59684837
-3.3298175 -2.5654035 -0.59640032
-3.3266046 -2.5305614 -0.59281558
-3.3373246 -2.5065408 -0.59191942
-3.3462863 -2.4813063 -0.59072453
-3.349478 -2.4519696 -0.58848411
-3.354841 -2.4244244 -0.58669174
-3.3672385 -2.4020717 -0.58624363
-3.3657415 -2.3699846 -0.58325636
-3.3631659 -2.3374426 -0.58011979
-3.377445 -2.3167624 -0.58011979
-3.3547435 -2.2710621 -0.57339847
-3.3694375 -2.2509842 -0.57354778
-3.3683233 -2.2204757 -0.57085925
-3.3777394 -2.1970718 -0.57011247
-3.3844984 -2.1720345 -0.56891757
-3.4111311 -2.1596859 -0.57130736
-3.4016709 -2.124579 -0.56727457
-3.414643 -2.1036668 -0.56727457
-3.4055123 -2.0693316 -0.56339115
-3.4240835 -2.0519531 -0.56443667
-3.4332039 -2.0288935 -0.5638392
-3.4353347 -2.0018187 -0.56204689
-3.4449806 -1.979225 -0.56159878
-3.453618 -1.9561017 -0.56100136
-3.4517398 -1.9271656 -0.55861151
-3.4634995 -1.9059498 -0.55861151
-3.4733903 -1.8837202 -0.55831277
-3.4787779 -1.8591118 -0.55726725
-3.4909947 -1.8381919 -0.55741662
-3.4978187 -1.8144617 -0.55666983
-3.4842286 -1.7803751 -0.55248767
-3.5030375 -1.7629609 -0.55383193
-3.4863205 -1.7278303 -0.54920167
-3.4835253 -1.6999056 -0.54696125
-3.4840848 -1.6737921 -0.54531825
-3.4746213 -1.6430893 -0.54203224
-3.4864309 -1.6225724 -0.54233098
-3.4981194 -1.6019723 -0.54262972
-3.4889488 -1.5719543 -0.53949308
-3.5012407 -1.5517179 -0.53994119
-3.5152287 -1.5321795 -0.54068798
-3.5354712 -1.5152525 -0.54248035
-3.5374115 -1.4904615 -0.54128546
-3.5355263 -1.4641917 -0.53949308
-3.5526876 -1.4458225 -0.54083735
-3.5523098 -1.4203283 -0.53934371
-0.24269938 -0.096485801 -0.00089094351
-0.28572914 -0.11134853 -0.0077616312
-0.27993324 -0.1071443 -0.0067160917
-0.26019245 -0.097852983 -0.0034301106
-0.27007842 -0.099639349 -0.0049237381
-0.26696029 -0.096649244 -0.0043262872
-0.27221394 -0.096644618 -0.0050731013
-0.27467206 -0.095615156 -0.0053718267
-0.27525356 -0.093927994 -0.0053718267
-0.27958068 -0.093476564 -0.0059692776
-0.27732638 -0.090847187 -0.0055211894
-0.27599311 -0.088547297 -0.005222464
-0.27369764 -0.085974731 -0.0047743754
-0.27138108 -0.083433703 -0.0043262872
-0.27378401 -0.0823287 -0.0046250126
-0.27523378 -0.080922291 -0.0047743754
-0.27382228 -0.078693539 -0.0044756499
-0.27144077 -0.076221816 -0.0040275618
-0.27190337 -0.074554853 -0.0040275618
-0.27139947 -0.07263343 -0.0038781988
-0.26992455 -0.070475228 -0.0035794734
-0.26843342 -0.068337873 -0.0032807479
-0.26884767 -0.066689514 -0.0032807479
-0.27021393 -0.065266751 -0.0034301106
-0.2715728 -0.06382972 -0.0035794734
-0.27292418 -0.062378466 -0.0037288361
-0.27523407 -0.061123382 -0.0040275618
-0.27753878 -0.059842285 -0.0043262872
-0.27886939 -0.058336701 -0.0044756499
-0.27825224 -0.056431953 -0.0043262872
-0.27956429 -0.054910153 -0.0044756499
-0.27989593 -0.053193744 -0.0044756499
-0.28021705 -0.051475335 -0.0044756499
-0.27955335 -0.049586304 -0.0043262872
-0.27887702 -0.04770736 -0.0041769245
-0.27818823 -0.045838591 -0.0040275618
-0.28041869 -0.044432241 -0.0043262872
-0.2787298 -0.042421345 -0.0040275618
-0.27898484 -0.040710289 -0.0040275618
-0.27824953 -0.038864996 -0.0038781988
-0.2765215 -0.036903571 -0.0035794734
-0.27674273 -0.035206173 -0.0035794734
-0.27695355 -0.033507451 -0.0035794734
-0.28010231 -0.03213333 -0.0040275618
-0.28127766 -0.030516637 -0.0041769245
-0 -0 -0
-0.28655413 -0.027515193 -0.0049237381
-0.28868788 -0.025925351 -0.005222464
-0 -0 -0
-0.28602591 -0.022163633 -0.0047743754
-0.27826408 -0.019877622 -0.0035794734
-0 -0 -0
-0.27256328 -0.016136138 -0.0026832968
-0.26771912 -0.014222662 -0.0019364828
-0.26384979 -0.01241134 -0.0013390318
-0 -0 -0
-0 -0 -0
-0 -0 -0
-0 -0 -0
-0 -0 -0
-0.2710492 -0.0027312541 -0.0023845711
-0.27303842 -0.0010673426 -0.0026832968
-0.2760061 0.00062731106 -0.003131385
-0 0 -0
-0 0 -0
-0.2848441 0.0059292675 -0.0044756499
-0 0 -0
-0 0 -0
-0.28468668 0.011171311 -0.0044756499
-0 0 -0
-0.28452817 0.014664014 -0.0044756499
-0 0 -0
-0.28136727 0.017953347 -0.0040275618
-0 -0 -0
-0 -0 -0
-0 -0 -0
-0 -0 -0
-0 -0 -0
-0 0 -0
-0 0 -0
-0 0 -0
-0 0 -0
-0 0 -0
-0 0 -0
-0 0 -0
-0 0 -0
-0 0 -0
-0 0 -0
-0 0 -0
-0 0 -0
-0 0 -0
-0 0 -0
-0 0 -0
-0 0 -0
-0 0 -0
-0 0 -0
-0 0 -0
-0 0 -0
-0 0 -0
-0 0 -0
-0 0 -0
-0 0 -0
-0 0 -0
-0 0 -0
-0 0 -0
-0 0 -0
-0 0 -0
-0 0 -0
-0 0 -0
-0 0 -0
-0 0 -0
-0 0 -0
-0 0 -0
-0 0 -0
-0 0 -0
-0 0 -0
-0 0 -0
-0 0 -0
-0 0 -0
-0 0 -0
-0 0 -0
-0 0 -0
-0 0 -0
-0 0 -0
-0 0 -0
-0 0 -0
-0 0 -0
-0 0 -0
-0 0 -0
-0 0 -0
-0 0 -0
-0 0 -0
-0 0 -0
-0 0 -0
-0 0 -0
-0 0 -0
-0 0 -0
-0 0 -0
-0 0 -0
-0 0 -0
-0 0 -0
-0 0 -0
-0 0 -0
-0 0 -0
-0 0 -0
-0 0 -0
-0 0 -0
-0 0 -0
-0 0 -0
-0 0 -0
-0 0 -0
-0 0 -0
-0 0 -0
-0 0 -0
-0 0 -0
-0 0 -0
-0 0 -0
-0 0 -0
-0 0 -0
-0 0 -0
-0 0 -0
-0 0 -0
-0 0 -0
-0 0 -0
-0 0 -0
-0 0 -0
-0 0 -0
-0 0 -0
-0 0 -0
-0 0 -0
-0 0 -0
-0 0 -0
-0 0 -0
-0 0 -0
-0 0 -0
-0 0 -0
-0 0 -0
-0 0 -0
-0 0 -0
-0 0 -0
-0 0 -0
-0 0 -0
-0 0 -0
-0 0 -0
-0 0 -0
-0 0 -0
-0 0 -0
-0 0 -0
-0 0 -0
-0.26549765 0.2182143 -0.01727494
-0.26187572 0.21794781 -0.016792195
-0 0 -0
-0.24790822 0.21154875 -0.014378473
-0.25781962 0.22273116 -0.016792195
-0.26760274 0.23404281 -0.019205919
-0.24471194 0.21672955 -0.014539388
-0.26471052 0.23730908 -0.019205919
-0.26324943 0.23892885 -0.019205919
-0.24650113 0.22653303 -0.015826706
-0.2458299 0.22871269 -0.015987622
-0.23291388 0.21940306 -0.013412984
-0.26231217 0.25007915 -0.020332322
-0.24157839 0.23319888 -0.015987622
-0.27971756 0.27325979 -0.024998851
-0.24010339 0.23753247 -0.016309451
-0.27843773 0.27876461 -0.025481597
-0.24549708 0.2488835 -0.018240429
-0.26878977 0.27580541 -0.024033362
-0.26709241 0.27744946 -0.024033362
-0.24087435 0.25336012 -0.018240429
-0.25216785 0.26848847 -0.021297811
-0.2679885 0.2888242 -0.025481597
-0.23550242 0.25702399 -0.018079514
-0.23392092 0.25846416 -0.018079514
-0.23101339 0.25842446 -0.017757684
-0 0 -0
-0.24536237 0.28130364 -0.022102384
-0 0 -0
-0 0 -0
-0 0 -0
-0 0 -0
-0 0 -0
-0 0 -0
-0 0 -0
-0 0 -0
-0 0 -0
-2.9472702 3.8221028 -0.74815011
-2.9195771 3.8346183 -0.7470237
-2.9179387 3.8816488 -0.75297755
-2.9275975 3.9446521 -0.76214969
-2.8893371 3.943435 -0.75828773
-2.8720281 3.9706852 -0.76021868
-2.8717005 4.0219669 -0.76697713
-2.8378701 4.0266047 -0.76440251
-2.8102915 4.0398908 -0.76359791
-2.8033285 4.0830941 -0.76874715
-2.7549672 4.0659027 -0.76198876
-2.733808 4.0884733 -0.76311517
-2.7331333 4.14224 -0.77035636
-2.7028186 4.1514883 -0.76890808
-2.6719599 4.1596909 -0.76729894
-2.6463861 4.1760073 -0.76729894
-2.626992 4.202209 -0.76922995
-2.604785 4.2241287 -0.77035636
-2.596257 4.2687011 -0.77582741
-2.5618918 4.2710099 -0.77325279
-2.5296066 4.2764554 -0.77132183
-2.5077951 4.2995691 -0.77277005
-2.4872713 4.3251419 -0.774701
-2.4675014 4.3523421 -0.77695382
-2.4542329 4.3915229 -0.78145945
-2.4315274 4.414279 -0.78290766
-2.3987446 4.4187074 -0.78097671
-2.368793 4.4281211 -0.78001124
-2.3406575 4.4408264 -0.77968937
-2.3333807 4.4936433 -0.78676963
-2.2909303 4.4788804 -0.78145945
-2.2767286 4.5192952 -0.78628689
-2.248956 4.5331798 -0.78628689
-2.2483945 4.6027613 -0.79642451
-2.2265275 4.6298118 -0.79883826
-2.1816058 4.6085968 -0.79256254
-2.1366119 4.586112 -0.78612596
-2.1043181 4.5901642 -0.78451681
-2.0708377 4.5912943 -0.78242493
-2.0778563 4.6833014 -0.79658544
-2.0001271 4.583796 -0.77663201
-2.0097194 4.683959 -0.79224074
-1.9717335 4.6743779 -0.78837878
-1.9456613 4.69277 -0.78950518
-1.908636 4.6845126 -0.78596509
-1.8769217 4.6888056 -0.78467774
-1.8499224 4.7048264 -0.78548235
-1.8277755 4.7335815 -0.78853971
-1.7962469 4.7382474 -0.7874133
-1.7698938 4.7565799 -0.78870064
-1.7386432 4.7617874 -0.7877351
-1.7030679 4.7547126 -0.78467774
-1.6869485 4.802319 -0.79111433
-1.6452349 4.7771201 -0.78499955
-1.6263111 4.8179836 -0.79030979
-1.6078773 4.8616047 -0.7961027
-1.5719322 4.8526006 -0.79288441
-1.5558567 4.9054294 -0.80028647
-1.5225087 4.9045153 -0.79851645
-1.4923866 4.913765 -0.79851645
-1.4692355 4.9464817 -0.80253929
-1.441885 4.9658298 -0.80430937
-1.4200108 5.0049663 -0.80945861
-1.3853197 4.9993186 -0.80704492
-1.3484315 4.9848599 -0.80318296
-1.3233622 5.0140338 -0.80672306
-1.2802678 4.9742694 -0.79867733
-1.2446777 4.9619284 -0.7952981
-1.2210041 4.9972758 -0.79996467
-1.1839219 4.9777889 -0.79545903
-1.1495732 4.9686131 -0.79272348
-1.1162484 4.9630556 -0.79063159
-1.0813491 4.949563 -0.78725237
-1.045429 4.930037 -0.78290766
-1.0217223 4.9682603 -0.7882179
-0.98600876 4.9483023 -0.7838732
-0.95918113 4.972672 -0.78693056
-0.93444514 5.0095105 -0.79207981
-0.89318377 4.956871 -0.78242493
-0.87036335 5.0060148 -0.78966612
-0.84370983 5.0355959 -0.79368895
-0.8008495 4.9666257 -0.78145945
-0.7702086 4.9704709 -0.78129852
-0.74332643 4.9995089 -0.78532141
-0.71235752 5.0020218 -0.78499955
-0.67752212 4.9759822 -0.78001124
-0.64506888 4.9653649 -0.77759749
-0.62489367 5.0524864 -0.79127526
-0.58961767 5.0199575 -0.78532141
-0.55814952 5.0175953 -0.78435594
-0.51755035 4.9276776 -0.76906902
-0.49507669 5.0093346 -0.78194219
-0.4591369 4.9562607 -0.77277005
-0.43195051 4.9963498 -0.77888483
-0.40073198 4.9920197 -0.77775842
-0.36629727 4.943203 -0.76939082
-0.3372989 4.9650512 -0.77260911
-0.3070713 4.9709678 -0.77325279
-0.2767289 4.9757147 -0.77373552
-0.24692582 4.9921055 -0.77614927
-0.21564838 4.9787359 -0.77373552
-0.18619746 5.0095539 -0.77856296
-0.15487291 4.991859 -0.7755056
-0.12426516 4.9937019 -0.77566653
-0.093789227 5.0032516 -0.77711475
-0.06317573 5.0106411 -0.77824116
-0.032132439 4.9655347 -0.7708391
-0.0016708416 4.9824166 -0.77357465
0.028776495 4.9606204 -0.77003449
0.058815859 4.926796 -0.76456338
0.089062758 4.9273291 -0.76472431
0.11941367 4.931623 -0.76552886
0.14761053 4.8627281 -0.75442576
0.17992328 4.9297862 -0.76552886
0.20832181 4.8852024 -0.75844866
0.23685235 4.8542581 -0.75362116
0.26609239 4.8428583 -0.75201201
0.29556215 4.837194 -0.7513684
0.32907414 4.892405 -0.76070142
0.35518849 4.8371401 -0.75201201
0.3906514 4.9076757 -0.76391971
0.4194929 4.8904357 -0.76150602
0.44461575 4.8346968 -0.75281662
0.47754785 4.8652744 -0.75828773
0.50114781 4.8023725 -0.74847192
0.52962977 4.7903781 -0.7470237
0.56198728 4.8125262 -0.75120747
0.58524454 4.7580485 -0.74283987
0.61177355 4.7338123 -0.73946071
0.63921911 4.7182326 -0.7375297
0.66898817 4.7200851 -0.73849517
0.69764864 4.7139387 -0.73817337
0.7265597 4.7095695 -0.73817337
0.75982213 4.7323084 -0.742679
0.78527278 4.7061396 -0.73913884
0.81059939 4.68081 -0.73575962
0.83756208 4.6660337 -0.73415047
0.86401355 4.6491623 -0.73221952
0.89140677 4.637958 -0.73125404
0.934259 4.7050071 -0.74332261
0.96311074 4.6991863 -0.74332261
0.98907012 4.6796689 -0.74106985
1.0005509 4.5944328 -0.72787482
1.0151246 4.5275331 -0.7177372
1.0304677 4.4673619 -0.70872593
1.0412413 4.3908491 -0.69697917
1.0546182 4.3287592 -0.68764609
1.0770891 4.3059292 -0.68491054
1.0926968 4.2571754 -0.67783028
1.1117656 4.2236652 -0.6733247
1.1332916 4.2005644 -0.67058915
1.1537876 4.1745048 -0.66737086
1.1812609 4.1739945 -0.66849726
1.2016344 4.1486554 -0.66543984
1.2178172 4.1099753 -0.66012967
1.2364321 4.0807004 -0.65642864
1.2591124 4.0654941 -0.65514129
1.2855225 4.062397 -0.6559459
1.3058729 4.0403452 -0.65353215
1.3328038 4.0388174 -0.65465856
1.3607099 4.039917 -0.6562677
1.3912451 4.0482936 -0.65916419
1.4056138 4.0098748 -0.65401489
1.4248776 3.9863043 -0.65144026
1.4506615 3.9811957 -0.65208393
1.4839933 3.9962766 -0.6562677
1.5182627 4.0129437 -0.66077334
1.547115 4.0146041 -0.66270429
1.5742422 4.011467 -0.6638307
1.6021214 4.0099812 -0.66527897
1.6229788 3.9909322 -0.66366982
1.6493227 3.9854589 -0.66447437
1.6764264 3.9816313 -0.66560078
1.6926676 3.9522169 -0.66222155
1.6975781 3.8974164 -0.65433675
1.7298515 3.9058785 -0.65771598
1.7566208 3.9014909 -0.65884233
1.7776524 3.8843565 -0.65771598
1.7893851 3.8474224 -0.65304941
1.8129587 3.8363705 -0.65304941
1.830485 3.8127172 -0.65079659
1.8248652 3.7419753 -0.6400153
1.9034132 3.8430355 -0.66045147
1.934052 3.8453925 -0.66302615
1.9607519 3.839606 -0.66415256
1.9901787 3.8388944 -0.66624445
2.0127771 3.8248637 -0.66592258
2.0464358 3.8315949 -0.66946274
2.0699074 3.8189662 -0.66946274
2.0904481 3.8010044 -0.66849726
2.1180587 3.7958634 -0.66994548
2.1437404 3.7870905 -0.67075002
2.1723425 3.7832811 -0.6725201
2.2019715 3.7809684 -0.67461199
2.2346647 3.7835336 -0.67766941
2.2730496 3.7951536 -0.68249685
2.3111482 3.8056004 -0.68716335
2.3453209 3.8089976 -0.69054258
2.3770092 3.8079319 -0.6931172
2.404551 3.7999477 -0.69440454
2.4336824 3.794261 -0.69617462
2.4617586 3.7867045 -0.69762284
2.4909194 3.7805946 -0.69939291
2.5217416 3.7767313 -0.70164567
2.5542691 3.7750843 -0.70438123
2.5879869 3.7748079 -0.70743865
2.623486 3.7766914 -0.71097875
2.6562655 3.7742448 -0.7137143
2.6879675 3.7699301 -0.71612805
2.720294 3.7661681 -0.71870267
2.7567544 3.7677271 -0.72240371
2.7986243 3.7761166 -0.72755301
2.8229265 3.7604523 -0.72787482
2.8764091 3.7831316 -0.73608148
2.9073951 3.7755775 -0.73817337
2.9474998 3.7794602 -0.742679
2.9418869 3.7248979 -0.735116
2.9240048 3.6559026 -0.72449559
2.9494874 3.6417277 -0.72530019
2.9598868 3.6090605 -0.72224277
2.9838674 3.5931091 -0.72272551
3.0033176 3.5717111 -0.7220819
3.0270958 3.5554705 -0.72256464
3.0488548 3.5368295 -0.72256464
3.0672543 3.5143373 -0.72176003
3.0894136 3.4961905 -0.72192097
3.1318638 3.5007083 -0.72707021
3.1506348 3.4784994 -0.7264266
3.1952636 3.4845641 -0.73205858
3.1924126 3.4388509 -0.72626567
3.2175081 3.4235134 -0.72723114
3.2506986 3.4165783 -0.73012763
3.2407925 3.3645775 -0.72288644
3.268955 3.3524027 -0.72465652
3.3033295 3.3463304 -0.72787482
3.3468208 3.3490386 -0.73318499
3.3722203 3.333297 -0.7343114
3.3897851 3.3097847 -0.73366773
3.4093194 3.2882376 -0.73350686
3.4094248 3.2481928 -0.72900122
3.4494145 3.2461524 -0.73350686
3.4721589 3.2276144 -0.73415047
3.4940786 3.2082515 -0.73463321
3.5151603 3.1880782 -0.73495507
3.5603836 3.1895008 -0.74058706
3.5636265 3.1532047 -0.73704696
3.6118882 3.1566117 -0.74332261
3.5893526 3.0982716 -0.7343114
3.6548588 3.1158926 -0.74428815
3.6489961 3.0724285 -0.73897791
3.6510854 3.0360963 -0.73543781
3.6841366 3.0255389 -0.73849517
3.739424 3.0327206 -0.7462191
3.7240684 2.9825692 -0.73913884
3.7895179 2.9970129 -0.74895465
3.7821677 2.9536555 -0.74364448
3.778337 2.913516 -0.73913884
3.8000689 2.8932674 -0.73994344
3.8145945 2.8675237 -0.73929977
3.8749125 2.8758302 -0.74798918
3.8566611 2.8257473 -0.74074799
3.9123104 2.829798 -0.74847192
3.9207649 2.7994299 -0.74670184
3.962069 2.7923789 -0.75152928
3.9669757 2.7595603 -0.74911559
4.0188184 2.7591915 -0.75603491
4.0291367 2.730051 -0.75474757
4.0154572 2.6849766 -0.74879372
4.0236187 2.6548512 -0.74718457
4.0323892 2.6252658 -0.74573636
4.0276623 2.5871372 -0.74171346
4.0768061 2.5835102 -0.74815011
4.1160131 2.5730975 -0.75265568
4.0922418 2.523443 -0.74509269
4.1051188 2.496747 -0.74460995
4.1677561 2.4999459 -0.75362116
4.1532869 2.4567366 -0.74798918
4.2057929 2.4530888 -0.75506943
4.2019439 2.4164102 -0.75152928
4.2192674 2.3920426 -0.75201201
4.1795893 2.3357708 -0.7418744
4.2223697 2.3257978 -0.74718457
4.1983972 2.2791245 -0.74010432
4.228837 2.2621675 -0.74316174
4.2461305 2.2380183 -0.74380541
4.2492719 2.2064636 -0.7418744
4.2723956 2.1852937 -0.74364448
4.287487 2.1599259 -0.74396628
4.3289509 2.1476161 -0.74911559
4.3411598 2.1205804 -0.74895465
4.3416381 2.0879142 -0.74670184
4.3516912 2.059968 -0.7462191
4.3928766 2.0465677 -0.7513684
4.3757453 2.0059996 -0.74605817
4.4086637 1.9884477 -0.74975926
4.4343138 1.9673642 -0.75217295
4.4517288 1.9424875 -0.75313842
4.4490523 1.9089078 -0.7505638
4.4115767 1.8608553 -0.7418744
4.477613 1.8564358 -0.75152928
4.4898334 1.8292992 -0.75169021
4.5028057 1.8024493 -0.75201201
4.4678564 1.7567253 -0.74396628
4.5181408 1.7445682 -0.75088561
4.5176859 1.7126135 -0.74895465
4.5068345 1.6769432 -0.74525362
4.5402164 1.6577227 -0.74927646
4.5763183 1.639154 -0.75378209
4.5620794 1.6025368 -0.74959832
4.585824 1.579336 -0.75201201
4.576726 1.5448537 -0.74879372
4.6236 1.5291417 -0.75523031
4.5427604 1.4715372 -0.73978251
4.5526447 1.4439341 -0.73994344
4.5708447 1.4188993 -0.74155259
4.602129 1.3977119 -0.74541456
4.6607618 1.3843453 -0.75394303
4.6549511 1.3515921 -0.75152928
4.6603084 1.322196 -0.75104654
4.5874891 1.2711674 -0.73736876
4.6637974 1.261556 -0.74895465
4.677176 1.2344275 -0.74992013
4.6406956 1.1943859 -0.74251807
4.6642108 1.1699722 -0.74525362
4.6425395 1.1343012 -0.74042618
4.6340494 1.1021386 -0.73785156
4.676302 1.0819182 -0.74380541
4.704999 1.0581874 -0.74750644
4.7374372 1.0349879 -0.75185114
4.7543187 1.0081531 -0.75362116
4.7642822 0.97975767 -0.75426483
4.7256799 0.94163048 -0.74686277
4.7100487 0.90850234 -0.74332261
4.7883005 0.89316422 -0.75539124
4.7645516 0.85851395 -0.7505638
4.8115416 0.83653593 -0.75748312
4.7572069 0.79704386 -0.74766731
4.7707772 0.76925391 -0.74911559
0 0 -0
4.7564287 0.7071659 -0.74525362
4.7919455 0.68242306 -0.75040287
4.7999544 0.65354031 -0.75104654
4.8302999 0.6275112 -0.75539124
4.8193665 0.59604293 -0.75297755
4.8415575 0.56864959 -0.75603491
4.7988529 0.53379959 -0.74847192
4.8511157 0.50950295 -0.75651765
4.8502221 0.47933888 -0.75587398
4.8343997 0.44783819 -0.75281662
4.8193569 0.41663489 -0.74992013
4.8769155 0.39148292 -0.7589314
4.8605247 0.36016411 -0.75587398
4.8271942 0.32792267 -0.75008106
4.859653 0.30018622 -0.75506943
4.8584471 0.27019763 -0.7545867
4.8491702 0.23984447 -0.75281662
4.8416762 0.20970093 -0.7513684
4.885282 0.18156868 -0.75828773
4.9070206 0.15223409 -0.76166695
4.8871422 0.12160508 -0.75828773
4.8759551 0.091392934 -0.75635672
4.8596468 0.061260067 -0.75362116
4.8559833 0.031414822 -0.75297755
4.875824 0.0016266572 -0.75619584
4.8796902 -0.028313456 -0.75683945
4.8912673 -0.05839457 -0.75877047
4.8700938 -0.088032804 -0.75539124
4.8951159 -0.11853261 -0.75957501
4.8804851 -0.14814812 -0.75732225
4.8429909 -0.17676243 -0.7513684
4.8704109 -0.20769227 -0.75603491
4.8749599 -0.23786075 -0.75700039
4.8753796 -0.2678766 -0.75732225
4.8174915 -0.29435986 -0.74815011
4.8736949 -0.32781714 -0.75764406
4.8666697 -0.35735443 -0.75683945
4.8643856 -0.38720903 -0.75683945
4.872735 -0.41797602 -0.75860953
4.8533707 -0.44633153 -0.75587398
4.8770614 -0.47870383 -0.76021868
4.8691244 -0.50810814 -0.75941414
4.877687 -0.53927547 -0.76134509
4.8635025 -0.56793588 -0.75957501
4.8540487 -0.59704465 -0.75860953
4.8405056 -0.62555313 -0.75700039
4.82973 -0.65431517 -0.75587398
4.8197608 -0.68310702 -0.7549085
4.8096204 -0.71180117 -0.75394303
4.8178434 -0.74325424 -0.75603491
4.8317075 -0.77577329 -0.75909227
4.8132272 -0.80313241 -0.75683945
4.8227963 -0.83517569 -0.7592532
4.8059235 -0.86266053 -0.75732225
4.8180065 -0.89537746 -0.76021868
4.8240528 -0.92715776 -0.76214969
4.8027835 -0.95366579 -0.75957501
4.8016763 -0.98410755 -0.76037961
4.7955475 -1.0135516 -0.76037961
4.7660928 -1.037919 -0.75651765
4.7403731 -1.0628268 -0.75329936
4.7558823 -1.0969934 -0.75700039
4.7673087 -1.1304797 -0.76005781
4.7430215 -1.1555064 -0.75716132
4.7339272 -1.1841084 -0.75683945
4.7437806 -1.2175481 -0.75973594
4.7352657 -1.2463813 -0.75957501
4.7199059 -1.2733569 -0.75828773
4.7177114 -1.3038708 -0.7592532
4.6839809 -1.3255394 -0.7549085
4.6823955 -1.3561763 -0.75603491
4.6673617 -1.3829192 -0.7549085
4.6587882 -1.4115316 -0.7549085
4.6556964 -1.4418422 -0.75587398
4.6015935 -1.4560932 -0.74815011
4.6461048 -1.5015972 -0.75732225
4.6161833 -1.5232744 -0.75378209
4.60675 -1.5515701 -0.75378209
4.6176782 -1.5868624 -0.75732225
4.5966773 -1.6112492 -0.75539124
4.5913515 -1.6410841 -0.75619584
4.5394645 -1.6540238 -0.74895465
4.5791945 -1.700395 -0.75764406
4.5474424 -1.7204295 -0.75394303
4.4962773 -1.7326875 -0.74686277
4.5048556 -1.7678133 -0.75024199
4.4847584 -1.7917603 -0.74863285
4.5120802 -1.8348566 -0.75539124
4.5326567 -1.8757138 -0.76102328
4.4601145 -1.8778356 -0.75024199
4.4975023 -1.9261451 -0.7589314
4.4711208 -1.9474002 -0.75635672
4.4545755 -1.9727999 -0.75555217
4.4522867 -2.0045519 -0.75732225
4.4309282 -2.0277264 -0.75571311
4.4595709 -2.074018 -0.76311517
4.4306979 -2.0937533 -0.76021868
4.4453506 -2.1341398 -0.76520705
4.411768 -2.1514275 -0.76150602
4.3781409 -2.1683838 -0.75780499
4.3629904 -2.19432 -0.75748312
4.3696618 -2.2313716 -0.76118416
4.2919211 -2.2249866 -0.74943739
4.3279748 -2.2774734 -0.75860953
4.3278489 -2.3114247 -0.76118416
4.2849493 -2.3224189 -0.75587398
4.268024 -2.3472404 -0.75539124
4.3233562 -2.4123325 -0.76842535
4.2758331 -2.4203422 -0.76231056
4.2634697 -2.4480066 -0.7627933
4.2398396 -2.4691546 -0.76118416
4.1914649 -2.4755511 -0.7549085
4.2100663 -2.5215051 -0.76134509
4.1573958 -2.5247517 -0.75426483
4.1914139 -2.5807402 -0.76375884
4.1671271 -2.6011841 -0.76214969
4.1410794 -2.6203721 -0.76021868
4.1523399 -2.6633139 -0.76552886
4.130127 -2.6849768 -0.76440251
4.1218166 -2.7156978 -0.76601166
4.0697789 -2.7173741 -0.75909227
4.0481238 -2.7389765 -0.7581268
4.0450807 -2.7732501 -0.76086235
4.0223141 -2.7940772 -0.75973594
4.013166 -2.8243847 -0.76134509
3.9804904 -2.8380704 -0.75828773
3.9525998 -2.854929 -0.75619584
3.9453633 -2.8867035 -0.75828773
3.9236116 -2.9079194 -0.75748312
3.8788567 -2.9117959 -0.75201201
3.8899887 -2.9576411 -0.75796586
3.8803701 -2.9880772 -0.75973594
3.8246028 -2.9826996 -0.75201201
3.8310161 -3.0256836 -0.75716132
3.8223994 -3.0571465 -0.7592532
3.764451 -3.048866 -0.75104654
3.7952805 -3.1125844 -0.76150602
3.7632017 -3.1250951 -0.75877047
3.7666194 -3.1671805 -0.76359791
3.7591398 -3.2004685 -0.76617253
3.7027986 -3.1919007 -0.75828773
3.7240441 -3.2502515 -0.767138
3.6966343 -3.266506 -0.76552886
3.6691656 -3.2825465 -0.76391971
3.6372499 -3.2943983 -0.76134509
3.61624 -3.3159871 -0.76118416
3.5784643 -3.3219991 -0.75732225
3.5695214 -3.3547072 -0.75989687
3.5109704 -3.3404927 -0.7513684
3.4968054 -3.3681343 -0.75281662
3.4789 -3.392283 -0.75346029
3.4601271 -3.4156451 -0.75394303
3.4453876 -3.4430902 -0.75539124
3.4241965 -3.4641657 -0.75539124
3.4063241 -3.4886417 -0.75619584
3.391021 -3.5158699 -0.75764406
3.3503203 -3.5166037 -0.75313842
3.3476205 -3.5572181 -0.75764406
3.3667247 -3.6217842 -0.76745987
3.3724771 -3.6729052 -0.77421826
3.3319731 -3.6737916 -0.76987356
3.3100269 -3.6949022 -0.77003449
3.2872932 -3.7151427 -0.77003449
3.2559915 -3.7255828 -0.76794261
3.2259758 -3.7372732 -0.76617253
3.193378 -3.7457318 -0.76375884
3.1684272 -3.7629907 -0.7632761
3.2222738 -3.8749371 -0.78290766
3.2053277 -3.9030249 -0.78467774
3.1794536 -3.9203196 -0.78419501
3.1417644 -3.9228077 -0.78065485
3.1206968 -3.9458818 -0.78145945
3.0259523 -3.8747284 -0.7627933
3.0214086 -3.9182315 -0.76794261
2.9656188 -3.8950803 -0.75941414
2.9410701 -3.9124148 -0.7592532
2.9217148 -3.936727 -0.76054054
2.8963377 -3.9529881 -0.76021868
2.8888044 -3.9938753 -0.76488525
2.8665385 -4.0147381 -0.76552886
2.8475368 -4.0403185 -0.767138
2.8187466 -4.0520434 -0.76601166
2.7781873 -4.0464816 -0.76150602
2.7743466 -4.0944986 -0.7676208
2.7453301 -4.1057019 -0.76649439
2.7445495 -4.1595387 -0.77373552
2.7103584 -4.1630673 -0.7711609
2.658623 -4.1389318 -0.7632761
2.6442728 -4.1726727 -0.76665527
2.6494915 -4.2381935 -0.77614927
2.6089296 -4.2308493 -0.77164364
2.5711231 -4.2273841 -0.76794261
2.5725546 -4.2887831 -0.77663201
2.5436778 -4.30024 -0.77582741
2.503319 -4.2918963 -0.77132183
2.4582379 -4.2746649 -0.76520705
2.4387784 -4.3016877 -0.76745987
2.4316001 -4.3510313 -0.77389646
2.390569 -4.3399358 -0.76906902
2.3723717 -4.3701348 -0.7719655
2.323163 -4.3428378 -0.76424158
2.317184 -4.3962994 -0.77148271
2.2778828 -4.3867855 -0.767138
2.2540698 -4.4068303 -0.76826441
2.2358699 -4.4382062 -0.77148271
2.1818347 -4.3979111 -0.76166695
2.1686733 -4.4395928 -0.7668162
2.1405358 -4.4510374 -0.76649439
2.1444387 -4.530098 -0.77840209
0 -0 -0
0 -0 -0
2.0574441 -4.5616055 -0.77711475
2.0017929 -4.5118966 -0.76601166
1.9985478 -4.5801778 -0.77598834
1.9684606 -4.5878196 -0.7751838
1.9345182 -4.5861716 -0.77277005
1.9146593 -4.618012 -0.77631021
0 -0 -0
0 -0 -0
0 -0 -0
1.8003954 -4.6626887 -0.77614927
1.7612538 -4.6459622 -0.77132183
1.717566 -4.6159825 -0.76424158
1.4637166 -4.0090017 -0.65707231
1.4360943 -4.0095453 -0.65562403
0 -0 -0
0 -0 -0
0 -0 -0
1.3186636 -3.9873595 -0.64596915
0 -0 -0
1.2747072 -4.0192342 -0.64870471
1.2552899 -4.0439463 -0.6516012
0 -0 -0
0 -0 -0
0 -0 -0
0 -0 -0
1.3199391 -4.7634439 -0.767138
1.2973889 -4.7962236 -0.77132183
1.2679354 -4.8040943 -0.77132183
1.2431097 -4.8299437 -0.77437919
1.209607 -4.8221636 -0.77180457
1.1846826 -4.84867 -0.77502286
1.1533103 -4.8491268 -0.77389646
1.1197516 -4.8397655 -0.7711609
1.0893843 -4.8436565 -0.77067816
1.0545861 -4.8271084 -0.7668162
1.0276102 -4.8460398 -0.76890808
1.0097892 -4.9102573 -0.77856296
0.96632797 -4.8495741 -0.76745987
0.93561828 -4.8505664 -0.76665527
0.91000247 -4.878531 -0.77035636
0.87427294 -4.8519697 -0.76504612
0.84161001 -4.8407125 -0.76231056
0.82151902 -4.9032154 -0.77180457
0.78748816 -4.8838043 -0.76778167
0.75932145 -4.9002481 -0.76971269
0.73141813 -4.9194584 -0.77212638
0.70219374 -4.9306936 -0.77325279
0.67339194 -4.9456663 -0.77502286
0.64201534 -4.9418755 -0.77373552
0.61204416 -4.9486599 -0.77421826
0.57406443 -4.8876276 -0.76359791
0.54471886 -4.8969436 -0.76456338
0.51218539 -4.8766365 -0.76070142
0.48089322 -4.8659368 -0.75844866
0.45120957 -4.8707614 -0.75877047
0.42505848 -4.9167032 -0.76585072
0.39013904 -4.8601909 -0.75619584
0.36184341 -4.883163 -0.75957501
0.33113739 -4.8744593 -0.75780499
0.30103925 -4.8734441 -0.75732225
0.2707465 -4.8683014 -0.75619584
0.24287236 -4.9102874 -0.7627933
0.21423639 -4.9461966 -0.76842535
0.1823034 -4.9050078 -0.76150602
0.15300119 -4.9316826 -0.76568979
0.1221962 -4.9108224 -0.76214969
0.092340305 -4.9262815 -0.76456338
0.062011309 -4.91886 -0.7632761
0.031725142 -4.903357 -0.76070142
0.0016393398 -4.9064202 -0.76118416
-0.028403804 -4.8954816 -0.75941414
-0.058663726 -4.9139662 -0.7624715
-0.088139355 -4.8760147 -0.75635672
-0.11824686 -4.8832755 -0.75764406
-0.14937264 -4.9209323 -0.76391971
-0.17809142 -4.8794842 -0.75732225
-0.20869954 -4.8940768 -0.75989687
-0.23910926 -4.9005904 -0.76118416
-0.26793066 -4.8763652 -0.75748312
-0.29832736 -4.8825102 -0.75877047
-0.32887566 -4.8894506 -0.76021868
-0.35937595 -4.8942308 -0.76134509
-0.39033848 -4.9037399 -0.7632761
-0.41932437 -4.8884687 -0.76118416
-0.45066613 -4.9005466 -0.76359791
-0.47985983 -4.8888488 -0.76214969
-0.50749397 -4.8632345 -0.75844866
-0.53331465 -4.8237319 -0.75249481
-0.56564796 -4.8438964 -0.75635672
-0.5928303 -4.8197627 -0.75297755
-0.62403607 -4.8287597 -0.75506943
-0.65497726 -4.83462 -0.75667858
-0.68642908 -4.843214 -0.75877047
-0.71555591 -4.8350058 -0.7581268
-0.7394942 -4.793457 -0.75201201
-0.77608603 -4.8336563 -0.75941414
-0.80556786 -4.8278298 -0.7592532
-0.83584899 -4.8266864 -0.75989687
-0.86318344 -4.8088379 -0.75780499
-0.89357489 -4.8083029 -0.75860953
-0.9247371 -4.8114524 -0.76005781
-0.95155215 -4.7921348 -0.75780499
-0.97162837 -4.7407622 -0.75024199
-1.0066152 -4.7627153 -0.7549085
-1.025323 -4.70823 -0.74686277
-1.0647694 -4.7490406 -0.75474757
-1.0781446 -4.6741347 -0.74332261
-1.1168207 -4.7096872 -0.75040287
-1.1417277 -4.6864438 -0.74766731
-1.1683068 -4.670733 -0.7462191
-1.2003779 -4.6768603 -0.74847192
-1.2272941 -4.6627254 -0.74734551
-1.2638479 -4.6846476 -0.75233388
-1.3033451 -4.7158089 -0.7589314
-1.3303756 -4.7010751 -0.75780499
-1.3586468 -4.6909275 -0.75748312
-1.3888056 -4.6872344 -0.75828773
-1.4106733 -4.6559544 -0.75442576
-1.4400908 -4.6500397 -0.7549085
-1.4697865 -4.6448798 -0.75555217
-1.4937075 -4.6216865 -0.75313842
-1.5139983 -4.5880651 -0.74895465
-1.5421215 -4.5786891 -0.74895465
-1.5785246 -4.5934095 -0.75313842
-1.6154925 -4.6087856 -0.75748312
-1.6145149 -4.5169983 -0.74332261
-1.6476053 -4.5218444 -0.74589729
-1.6801288 -4.5246038 -0.74815011
-1.7291586 -4.5705209 -0.75796586
-1.7592993 -4.565351 -0.7589314
-1.782232 -4.5416074 -0.75667858
-1.8206822 -4.5571661 -0.76134509
-1.8478667 -4.5440803 -0.76102328
-1.879487 -4.5417767 -0.76263243
-1.8943006 -4.4992299 -0.75716132
-1.938965 -4.5274434 -0.76424158
-1.9745891 -4.5335588 -0.76745987
-2.0059657 -4.5294795 -0.76890808
-2.0094132 -4.4630866 -0.7592532
-2.0182819 -4.4102859 -0.75201201
-2.0436406 -4.3942389 -0.7513684
-2.0823698 -4.4066038 -0.75587398
-2.1123586 -4.399972 -0.75700039
-2.132396 -4.3727336 -0.75442576
-2.1679459 -4.3772564 -0.75764406
-2.1952066 -4.3647537 -0.75780499
-2.2013028 -4.3107667 -0.75040287
-2.2422452 -4.3252187 -0.75555217
-2.2705803 -4.3148732 -0.75619584
-2.2895749 -4.2869301 -0.75362116
-2.3148954 -4.2710652 -0.75329936
-2.336303 -4.2481322 -0.75169021
-2.3483808 -4.2087216 -0.7470237
-2.3892305 -4.2208605 -0.75201201
-2.4131186 -4.2026968 -0.7513684
-2.4363775 -4.1835465 -0.7505638
-2.4750493 -4.1906147 -0.75474757
-2.4920959 -4.1609545 -0.75201201
-2.5114334 -4.1354613 -0.75008106
-2.5476263 -4.1376233 -0.75346029
-2.5666957 -4.1118665 -0.75152928
-2.5966265 -4.1035466 -0.75297755
-2.6105678 -4.0700898 -0.74959832
-2.6193562 -4.0291691 -0.74477088
-2.6375141 -4.0031309 -0.74283987
-2.6505194 -3.9696338 -0.73946071
-2.6543651 -3.923049 -0.73350686
-2.696243 -3.9327385 -0.7386561
-2.6972399 -3.8828847 -0.73205858
-2.6875038 -3.8186388 -0.72256464
-2.7269256 -3.8245792 -0.72707021
-2.7358956 -3.7877719 -0.72304738
-2.7456825 -3.7525921 -0.71934634
-2.7621927 -3.7269516 -0.71757627
-2.7820466 -3.705986 -0.71677166
-2.7886066 -3.6676316 -0.71242702
-2.8056395 -3.6434138 -0.71097875
-2.8188388 -3.6144552 -0.70856506
-2.8281188 -3.5808249 -0.70518583
-2.8370929 -3.5472174 -0.7018066
-2.8283701 -3.4921584 -0.6939218
-2.8384798 -3.4610004 -0.69102532
-2.8602931 -3.444278 -0.69118625
-2.8813729 -3.4266629 -0.69118625
-2.8716362 -3.3728442 -0.68346232
-2.9103193 -3.3760939 -0.68796796
-2.8991826 -3.3217344 -0.6800831
-2.9371536 -3.3238533 -0.6844278
-2.946965 -3.2939987 -0.68185318
-2.9545336 -3.2619548 -0.67879581
-2.9598193 -3.2277598 -0.67525566
-2.9748688 -3.2044742 -0.67412925
-2.9870408 -3.1782486 -0.67235923
-2.9867582 -3.139123 -0.66769266
-3.0052788 -3.1200266 -0.66753173
-3.0105867 -3.087394 -0.66431344
-3.0100613 -3.0491948 -0.65980786
-3.007786 -3.0097225 -0.65498042
-3.0065444 -2.9717817 -0.65047479
-3.0063632 -2.9353492 -0.64629102
-3.0094004 -2.9024575 -0.64291179
-3.0142915 -2.8716822 -0.6400153
-3.0189185 -2.8409567 -0.63711888
-3.0268967 -2.813643 -0.63502693
-3.044831 -2.7956851 -0.63518786
-3.0480382 -2.7643504 -0.6321305
-3.0612671 -2.7423029 -0.6313259
-3.0728624 -2.7188892 -0.63019949
-3.0746253 -2.6869924 -0.6269812
-3.0880661 -2.6654963 -0.62633759
-3.0900939 -2.634331 -0.62328017
-3.0978954 -2.6083276 -0.62151009
-3.1054945 -2.5823281 -0.61974007
-3.1121287 -2.5557072 -0.61780906
-3.1208532 -2.5309677 -0.61636084
-3.1317022 -2.5080686 -0.61539537
-3.1594179 -2.4986024 -0.61796999
-3.1692448 -2.4749167 -0.61684358
-3.1710846 -2.4451773 -0.61410803
-3.1797466 -2.4208903 -0.61282068
-3.1929634 -2.4001479 -0.61249888
-3.1909878 -2.3681576 -0.60911965
-3.1903327 -2.3374491 -0.60606229
-3.2102127 -2.3218789 -0.6071887
-3.2187767 -2.2981226 -0.60606229
-3.22475 -2.2726431 -0.60445315
-3.2094681 -2.2325211 -0.59866023
-3.2344966 -2.220608 -0.60091299
-3.2243674 -2.1846626 -0.59624648
-3.2262259 -2.1571555 -0.59399366
-3.2509339 -2.1449301 -0.59624648
-3.2483191 -2.1147096 -0.59318912
-3.2429655 -2.0830021 -0.58964896
-3.2648554 -2.0688765 -0.59141904
-3.2699568 -2.0440955 -0.58997083
-3.2773972 -2.0208843 -0.58900529
-3.2796168 -1.9945813 -0.58707434
-3.2833302 -1.9693428 -0.58546519
-3.2953522 -1.9491596 -0.58546519
-3.2987249 -1.9239298 -0.58385605
-3.2959235 -1.8952874 -0.58112049
-3.3092079 -1.876002 -0.5814423
-3.3120413 -1.8508462 -0.57983315
-3.3250644 -1.8314416 -0.58015501
-3.3362393 -1.8110049 -0.58015501
-3.3446779 -1.7891032 -0.57967228
-3.3529735 -1.7671661 -0.57918954
-3.3558705 -1.7424654 -0.57774127
-3.3585911 -1.7177956 -0.57629305
-3.3611355 -1.6931583 -0.57484484
-3.3714612 -1.6725029 -0.57484484
-3.3852072 -1.6535176 -0.57548845
-3.3890631 -1.6297204 -0.57436204
-3.392755 -1.6059384 -0.57323569
-3.3971772 -1.5825894 -0.57227015
-3.4068239 -1.561715 -0.57227015
-3.406446 -1.5363172 -0.57050014
-0.28451478 -0.12582631 -0.01196475
-0.2635718 -0.11460321 -0.0081027951
-0.25882819 -0.1106484 -0.007137306
-0.26223028 -0.11020916 -0.0076200501
-0.25743148 -0.10632963 -0.0066545615
-0.25259513 -0.10251322 -0.0056890724
-0.2532194 -0.10096139 -0.0056890724
-0.26485598 -0.10374051 -0.0076200501
-0 -0 -0
-0 -0 -0
-0 -0 -0
-0 -0 -0
-0 -0 -0
-0 -0 -0
-0 -0 -0
-0 -0 -0
-0 -0 -0
-0 -0 -0
-0 -0 -0
-0 -0 -0
-0 -0 -0
-0 -0 -0
-0 -0 -0
-0 -0 -0
-0 -0 -0
-0 -0 -0
-0 -0 -0
