# .PCD v0.7 - Point Cloud Data file format
VERSION 0.7
FIELDS x y z
SIZE 4 4 4
TYPE F F F
COUNT 1 1 1
WIDTH 1698
HEIGHT 1
VIEWPOINT 0 0 0 1 0 0 0
POINTS 1698
DATA ascii
-0 0 -0
-0 0 -0
-0 0 -0
-0 0 -0
-0 0 -0
-0 0 -0
-0 0 -0
-0 0 -0
-0 0 -0
-0 0 -0
-0 0 -0
-0 0 -0
-0 0 -0
-0 0 -0
-0 0 -0
-0 0 -0
-0 0 -0
-0 0 -0
-0 0 -0
-0 0 -0
-0 0 -0
-0 0 -0
-0 0 -0
-0 0 -0
-0 0 -0
-0 0 -0
-0 0 -0
-0 0 -0
-0 0 -0
-0 0 -0
-0 0 -0
-0 0 -0
-0 0 -0
-0 0 -0
-0 0 -0
-0 0 -0
-0 0 -0
-0 0 -0
-0 0 -0
-0 0 -0
-0 0 -0
-0 0 -0
-0 0 -0
-0 0 -0
-0 0 -0
-0 0 -0
-0 0 -0
-0 0 -0
-0 0 -0
-0 0 -0
-0 0 -0
-0 0 -0
-0 0 -0
-0 0 -0
-0 0 -0
-0 0 -0
-0 0 -0
-0 0 -0
-0 0 -0
-0 0 -0
-0 0 -0
-0 0 -0
-0 0 -0
-0 0 -0
-0 0 -0
-0 0 -0
-0 0 -0
-0 0 -0
-0 0 -0
-0 0 -0
-0 0 -0
-0 0 -0
-0 0 -0
-0 0 -0
-0 0 -0
-0 0 -0
-0 0 -0
-0 0 -0
-0 0 -0
-0 0 -0
-0 0 -0
-0.26105568 0.26462117 0.022133769
-0 0 -0
-0.25432009 0.26420903 0.022330942
-0.26234439 0.27589211 0.021778861
-0.2592769 0.27604142 0.021857731
-0.25485677 0.2746999 0.022015467
-0.25451818 0.27773041 0.021936599
-0.23803972 0.26300475 0.022804152
-0.23175395 0.25925097 0.023080191
-0.26062053 0.29508895 0.021266216
-0.26538107 0.30420583 0.020871876
-0.26350951 0.30582845 0.020871876
-0.22921175 0.26942247 0.022843586
-0.22819795 0.27158812 0.022804152
-0.24697348 0.29756689 0.021542257
-0.245143 0.29907671 0.021542257
-0.24896851 0.30755946 0.021187348
-0.23958032 0.29972285 0.021660559
-0.21913974 0.27767655 0.022843586
-0 0 -0
-0.21754643 0.28271854 0.022725282
-0 0 -0
-0 0 -0
-0 0 -0
-0 0 -0
-6.4374557 8.8991852 -0.39665759
-6.3757615 8.9287596 -0.39618436
-6.3997264 9.0796013 -0.40158686
-6.378706 9.1687326 -0.40399235
-6.3811536 9.2933655 -0.40809351
-6.3834305 9.4200239 -0.41227353
-6.388835 9.5537024 -0.41676903
-6.3812795 9.6702843 -0.42043641
-6.3730769 9.7879677 -0.42414322
-6.3787913 9.929451 -0.42895418
-6.3781924 10.063772 -0.43341026
-6.3767128 10.199305 -0.43790576
-6.3507285 10.297772 -0.44066617
-6.3466239 10.433865 -0.44516167
-6.333375 10.557439 -0.44906566
-6.3040919 10.6563 -0.45182604
-6.3045468 10.807845 -0.45699191
-6.3023801 10.958061 -0.46207893
-6.3005762 11.11213 -0.46732369
-6.299067 11.270074 -0.47272617
-6.2746387 11.389905 -0.47639355
-6.2976079 11.599426 -0.48408324
-6.2932544 11.762957 -0.48968288
-6.2773438 11.908304 -0.49445441
-6.2999516 12.131042 -0.50265676
-6.3196034 12.353611 -0.51081961
-6.3358588 12.575085 -0.51890361
-6.3500748 12.798112 -0.52702707
-6.3499451 12.99754 -0.53408581
-6.3489041 13.200142 -0.54126287
-6.2904525 13.286715 -0.54335284
-6.2911077 13.501677 -0.5510425
-6.2168903 13.559098 -0.55187064
-6.160696 13.657104 -0.55447328
-6.093399 13.732094 -0.55609012
-6.0286107 13.814098 -0.55802238
-5.9807777 13.937143 -0.56172919
-5.9169002 14.025134 -0.56393749
-5.8724542 14.161782 -0.56823581
-5.8035493 14.241964 -0.57012868
-5.7465086 14.353373 -0.57336229
-5.6839299 14.453454 -0.5761227
-5.6174583 14.54585 -0.57856762
-5.5784078 14.712716 -0.58416724
-5.5430961 14.894629 -0.59039789
-5.4862213 15.023157 -0.59438074
-5.4269652 15.148724 -0.59824526
-5.3912168 15.344829 -0.60506737
-5.3252749 15.459811 -0.60849816
-5.2862535 15.657871 -0.61539918
-5.2362123 15.829465 -0.62119597
-5.1978145 16.042854 -0.62872791
-5.1736126 16.308746 -0.63842875
-5.1152272 16.474735 -0.64398897
-5.044251 16.605244 -0.64809012
-5.0506945 17.00082 -0.66311455
-4.9794497 17.145679 -0.66780722
-4.906889 17.29126 -0.67253935
-4.8009663 17.322006 -0.67257875
-4.7809782 17.670399 -0.68563151
-4.6829224 17.739014 -0.68724829
-4.6604395 18.103193 -0.70093197
-4.573349 18.227396 -0.70483595
-4.573637 18.714231 -0.72348833
-4.5116858 18.964552 -0.73251879
-4.4475093 19.217726 -0.74166751
-4.3525376 19.347013 -0.74580812
-4.2582798 19.485617 -0.75034302
-4.1720223 19.668751 -0.75669193
-4.1531439 20.189215 -0.77664566
-4.1370173 20.755245 -0.79841334
-4.0896735 21.195253 -0.81509399
-4.0271845 21.582403 -0.82964522
-3.9235771 21.766998 -0.83607304
-3.7892585 21.786724 -0.83591527
-3.6538544 21.799709 -0.83552092
-3.5163648 21.79903 -0.83461398
-3.3788681 21.796497 -0.83366752
-3.2381535 21.770369 -0.83181411
-3.0985918 21.74828 -0.83015788
-2.96347 21.755001 -0.82968467
-2.8267078 21.748003 -0.82869881
-2.6902659 21.741138 -0.82775241
-2.5529649 21.724487 -0.82645106
-2.4136484 21.686117 -0.82432163
-2.2758391 21.6558 -0.82254708
-2.1408534 21.648474 -0.82171899
-2.004106 21.619415 -0.82006276
-1.869002 21.603432 -0.81895858
-1.73473 21.593576 -0.81813043
-1.6010928 21.588867 -0.81753892
-1.4676466 21.584328 -0.81698686
-1.3345015 21.581955 -0.81655306
-1.2005517 21.562801 -0.81548834
-1.067629 21.557785 -0.81501514
-0.93238705 21.496046 -0.81233364
-0.79827791 21.44245 -0.81000698
-0.66703618 21.45793 -0.81044078
-0.53254247 21.348743 -0.80598474
-0.40041062 21.291666 -0.80361867
-0.26937959 21.263748 -0.80243564
-0.13835935 21.182066 -0.79916257
-0.0083831381 21.175522 -0.79888654
0.11560769 20.136999 -0.75791442
0.22515969 18.954914 -0.71130317
0 0 -0
0.39673117 16.422428 -0.6114952
0.31761026 10.478035 -0.37690103
0.38015079 10.427958 -0.3750082
0.4440009 10.422434 -0.37488988
0.50794339 10.419514 -0.37488988
0.57186675 10.416201 -0.37488988
0.63619459 10.419477 -0.37516594
0.7008521 10.426344 -0.37559971
0.7653985 10.42982 -0.37591517
0.83033079 10.43688 -0.3763884
0.89452529 10.433579 -0.37646726
0.95267648 10.364213 -0.37394348
0.9521758 9.7048178 -0.34803519
0.95502061 9.1551657 -0.32646468
0.80983269 7.3266487 -0.25410289
0.81470031 6.9781413 -0.24045865
0.85652679 6.9650769 -0.24014318
0.90603089 7.0122128 -0.2422332
0.97075862 7.1669316 -0.24862154
0.97071224 6.8501859 -0.23623919
0.98026806 6.6246605 -0.22748481
1.0184615 6.6027203 -0.22685385
1.0584809 6.5933871 -0.22673555
1.0994103 6.589725 -0.22685385
1.1399938 6.5838399 -0.22689329
1.1840757 6.5973749 -0.22772141
1.226724 6.6017742 -0.22819462
1.2675856 6.5960855 -0.22827348
1.3080347 6.5881834 -0.22827348
1.356456 6.6191893 -0.22985086
1.3945665 6.59901 -0.22937764
1.4363062 6.5961871 -0.22961424
1.4787195 6.596025 -0.22996916
1.5211846 6.5955906 -0.23032406
1.5643915 6.5978003 -0.23079728
1.6053182 6.5900187 -0.23087615
1.6479051 6.588769 -0.23123105
1.6925236 6.5949874 -0.23190144
1.7367718 6.5989728 -0.23249295
1.7793112 6.5959101 -0.23280843
1.8237411 6.5993152 -0.23339993
1.8685516 6.6033845 -0.23403089
1.9112573 6.5994735 -0.23434636
1.9562554 6.602951 -0.2349773
1.9984716 6.5965614 -0.23521391
2.0415695 6.5927658 -0.23556882
2.088011 6.5991683 -0.2363575
2.1330717 6.6004949 -0.23694901
2.17854 6.6024652 -0.23757996
2.223475 6.602231 -0.23813204
2.2710865 6.6092539 -0.23899959
2.3162236 6.6083965 -0.23955168
2.3617721 6.6081743 -0.24014318
2.4053526 6.6020079 -0.2404981
2.450685 6.6002393 -0.24105017
2.4999747 6.6084433 -0.24203603
2.5469425 6.6097627 -0.24274585
2.5932903 6.6088934 -0.24337679
2.641947 6.6132717 -0.24424434
2.6907549 6.6173005 -0.2451119
2.7393293 6.6200557 -0.24594001
2.7876508 6.621542 -0.2467287
2.8317671 6.6125798 -0.2470836
2.883857 6.6216478 -0.24822719
2.929287 6.6147919 -0.24870041
2.9780223 6.6149168 -0.2494891
3.0322738 6.6265044 -0.25079042
3.0804594 6.6240835 -0.25150025
3.1287293 6.6213198 -0.25221005
3.1805401 6.6254191 -0.25323534
3.2316425 6.6273346 -0.25418177
3.2811143 6.6252899 -0.25497046
3.3315804 6.6246724 -0.25583801
3.3830705 6.625464 -0.25678441
3.4351552 6.62676 -0.25777027
3.4873827 6.627665 -0.25875613
3.5406916 6.6299405 -0.25982085
3.5932071 6.6300535 -0.26080671
3.6463382 6.6306467 -0.261832
3.6991248 6.6299639 -0.26281786
3.7545004 6.6332297 -0.26400089
3.8080649 6.6325989 -0.26502618
3.863271 6.63415 -0.26616976
3.9130502 6.6258078 -0.26687959
3.9803257 6.6462512 -0.26893017
4.0314035 6.6387858 -0.26971886
4.0872536 6.6386008 -0.27086243
4.1443105 6.6396751 -0.27208489
4.2026024 6.6419868 -0.27338624
4.2616172 6.6446733 -0.27472699
4.3181 6.6426954 -0.27587059
4.3802152 6.6486182 -0.27740851
4.437017 6.6457171 -0.27855211
4.496747 6.6465068 -0.27989286
4.556088 6.645988 -0.28119421
4.615591 6.6449904 -0.28249553
4.6781278 6.6475978 -0.28399402
4.732749 6.6382957 -0.28494045
4.7991323 6.644774 -0.28667554
4.8645921 6.6490736 -0.28833181
4.9296894 6.6520157 -0.28994858
4.995605 6.6552076 -0.29160485
5.0593257 6.6546574 -0.29310334
5.126884 6.6583257 -0.29483843
5.1946769 6.6614137 -0.29657355
5.2626996 6.6639194 -0.29830864
5.3321962 6.6674004 -0.30012262
5.3975306 6.6648426 -0.30166057
5.4662008 6.665596 -0.30339566
5.5357213 6.6665249 -0.30517021
5.6035285 6.664556 -0.30682644
5.676053 6.6673312 -0.30875871
5.7442551 6.6641674 -0.31041494
5.8303695 6.6807442 -0.31313592
5.903008 6.6807876 -0.31502876
5.9732013 6.6772108 -0.31676385
6.0469251 6.6767263 -0.31869614
6.1303201 6.6858983 -0.32118049
6.2031779 6.682579 -0.3230339
6.2816982 6.6844411 -0.32520279
6.3632288 6.6884856 -0.3275294
6.4367261 6.6831431 -0.32938281
6.525044 6.6921735 -0.33206433
6.5933585 6.6797466 -0.33360228
6.6991968 6.7041945 -0.33723021
6.7700515 6.6924682 -0.33888647
6.8574557 6.6961803 -0.34144968
6.9307756 6.6851954 -0.34322423
7.0215793 6.6901054 -0.34594518
7.101788 6.6838779 -0.34807462
7.1887693 6.6830397 -0.350559
7.2855735 6.6901708 -0.35355598
7.3723726 6.6869645 -0.3560009
7.4504743 6.6749425 -0.35797262
7.5601325 6.6900249 -0.36160055
7.6514454 6.6875706 -0.36424264
7.7407417 6.6822867 -0.36676645
7.8469872 6.6904206 -0.37015778
7.9345136 6.6814089 -0.37256327
8.0529528 6.6971316 -0.37654611
8.1487169 6.6926231 -0.37934595
8.2478304 6.6897078 -0.38230354
8.3534517 6.690824 -0.38557658
8.4703665 6.6995726 -0.38940167
8.5617132 6.6868382 -0.39192548
8.6690454 6.6854386 -0.39523795
8.7854252 6.6896305 -0.39898419
8.8830118 6.6782322 -0.40178403
9.004858 6.683754 -0.40576687
9.1271019 6.6880293 -0.40974975
9.2416401 6.6851974 -0.41333824
9.388196 6.7038569 -0.41846469
9.4773397 6.6800919 -0.42079133
9.6198578 6.6925783 -0.42568117
9.7513504 6.6956453 -0.43001893
9.8848934 6.6984701 -0.43443555
10.008037 6.6926842 -0.43833953
10.136482 6.6889396 -0.44248015
10.287026 6.6980448 -0.44764602
10.417043 6.692049 -0.45182604
10.560029 6.6927319 -0.4565976
10.71951 6.7019749 -0.46211839
10.889704 6.7158041 -0.46811238
11.020342 6.7033873 -0.47225296
11.17437 6.7034969 -0.47745827
11.357189 6.7187567 -0.48396492
11.514718 6.716917 -0.48928854
11.690837 6.7238564 -0.49544027
11.837917 6.7121272 -0.50025123
12.03675 6.7276082 -0.50738883
12.213457 6.7283621 -0.51350117
12.385353 6.7243371 -0.51937687
12.581443 6.7311807 -0.5263173
12.775426 6.7344704 -0.53313941
12.984991 6.7434592 -0.54063189
13.127534 6.715539 -0.54512739
13.214003 6.657795 -0.54713851
13.276087 6.5872493 -0.54808497
13.604447 6.6464705 -0.56074333
13.784546 6.6300054 -0.56685567
13.968562 6.6132884 -0.57312566
14.242552 6.6363425 -0.5832997
14.561849 6.6766868 -0.595406
14.848465 6.6981549 -0.60605323
15.165111 6.729322 -0.61796236
15.40118 6.7212787 -0.62636185
15.716684 6.7444782 -0.63815272
15.872851 6.6964684 -0.64308196
16.106548 6.678947 -0.65132374
16.18424 6.5950775 -0.65290111
16.28006 6.5179334 -0.65526718
16.450861 6.4694839 -0.6608274
16.548971 6.3911014 -0.66331172
16.657948 6.316009 -0.6662693
16.744148 6.2314544 -0.66828042
16.777376 6.126883 -0.66808325
18.926462 6.7804284 -0.75661308
19.35894 6.8016348 -0.77297831
19.709238 6.789144 -0.78587329
8.0131388 2.7051122 -0.29696789
8.0144072 2.6508722 -0.29633695
7.9905977 2.5887105 -0.29468071
7.957757 2.5242221 -0.29266956
7.9244275 2.4602346 -0.29065841
7.9049554 2.4011085 -0.28923878
7.8898463 2.3437374 -0.28801632
7.8762512 2.2871997 -0.28687271
7.8026624 2.2140033 -0.28328422
7.7958794 2.1604805 -0.2824561
7.7964501 2.1092122 -0.28194344
7.80055 2.0590389 -0.28158855
7.796587 2.0069015 -0.28091815
7.7990627 1.9565928 -0.28052381
7.789567 1.9034826 -0.27965626
7.7904067 1.8531067 -0.27922249
7.7938428 1.8034682 -0.27890703
7.7979379 1.7540768 -0.27863097
7.8105063 1.7066233 -0.27870986
7.8354931 1.6617771 -0.27930135
7.8416271 1.6128627 -0.27914363
7.8454962 1.563545 -0.27890703
7.8657346 1.5174592 -0.2793408
7.8827553 1.4706337 -0.27965626
7.9024477 1.4241884 -0.28009003
7.9651818 1.3850912 -0.28225893
8.0001383 1.3406519 -0.28332365
8.0348482 1.2958356 -0.28438836
8.0959692 1.254777 -0.28651783
8.1302013 1.2090472 -0.28758255
8.1928635 1.1670321 -0.28979087
8.2622452 1.1252375 -0.29227522
0 0 -0
8.7831602 1.0865983 -0.31246552
8.8382893 1.0384008 -0.31439781
0 0 -0
0 0 -0
11.492974 1.1363732 -0.41897735
11.537539 1.0693377 -0.42047584
25.113571 2.1727431 -0.95800358
25.124437 2.0184481 -0.95792472
25.165249 1.8663931 -0.95906836
25.221088 1.7149981 -0.96084285
25.094503 1.5517612 -0.9554404
25.099562 1.3975327 -0.95528263
0 0 -0
25.099848 1.0887674 -0.95469111
25.977772 0.96720624 -0.98911721
0 0 -0
25.181564 0.6282227 -0.95729381
25.040083 0.47097272 -0.95157582
25.084465 0.31785321 -0.95323205
25.542578 0.16692303 -0.97125351
25.154425 0.010032455 -0.9559136
25.236946 -0.14478688 -0.95918661
0 -0 -0
0 -0 -0
25.259974 -0.61001527 -0.96036965
0 -0 -0
25.444307 -0.92700279 -0.9680199
0 -0 -0
0 -0 -0
26.230089 -1.4394759 -0.99992216
26.209793 -1.5997242 -0.99948841
25.051966 -1.6834223 -0.9540996
26.362583 -1.9340296 -1.0063894
0 -0 -0
0 -0 -0
0 -0 -0
0 -0 -0
0 -0 -0
0 -0 -0
0 -0 -0
0 -0 -0
26.566458 -3.431478 -1.0203491
25.418068 -3.4418557 -0.97547299
25.285664 -3.5820575 -0.97105634
0 -0 -0
27.360077 -4.2190032 -1.0557216
27.455027 -4.4062762 -1.060572
27.394949 -4.5692296 -1.0592706
27.404795 -4.7438827 -1.0608087
27.414513 -4.919004 -1.0623859
27.373007 -5.0851164 -1.0619522
27.337364 -5.2522244 -1.0617944
18.168102 -3.6064341 -0.69418871
17.772675 -3.6414368 -0.67916429
17.629745 -3.7250142 -0.6743139
17.562622 -3.823554 -0.67253935
17.480328 -3.9181325 -0.67017329
17.420906 -4.0172338 -0.66875362
17.413429 -4.1281996 -0.66946346
17.423693 -4.2437167 -0.67092252
17.418652 -4.3558793 -0.67179006
11.226254 -2.8807962 -0.42059416
11.17841 -2.9417427 -0.41937169
10.857218 -2.9285765 -0.40698934
10.632933 -2.9381933 -0.39855042
10.536823 -2.9813476 -0.39535624
10.47706 -3.0339944 -0.39366058
10.432379 -3.0905609 -0.39259586
10.394093 -3.1487215 -0.39180717
10.355487 -3.2065287 -0.39101848
10.325137 -3.2666931 -0.39058471
10.303948 -3.3296783 -0.39054528
10.276681 -3.3906481 -0.39026925
10.268941 -3.4581048 -0.39082131
10.232409 -3.5158541 -0.39019036
10.229504 -3.585182 -0.39097905
10.245892 -3.6616673 -0.39259586
10.230742 -3.7272019 -0.39291131
10.281683 -3.8173795 -0.39602664
10.235636 -3.8719108 -0.39508021
10.188375 -3.925662 -0.39409435
10.155725 -3.9848182 -0.39373943
10.145002 -4.0526171 -0.39433095
10.201402 -4.1479068 -0.39780116
10.191455 -4.216917 -0.39847156
10.193017 -4.2910013 -0.39965457
10.184868 -4.3613296 -0.40044326
10.179902 -4.4333153 -0.40138969
10.177177 -4.5066171 -0.40245441
10.173935 -4.5800524 -0.40351912
10.166539 -4.6519542 -0.40442613
10.163174 -4.7260432 -0.40553027
10.152957 -4.7972784 -0.40635839
10.14495 -4.8698626 -0.40730482
10.152601 -4.9504113 -0.40896106
10.135467 -5.0192642 -0.40955257
10.15447 -5.1064978 -0.4117609
10.137185 -5.1759782 -0.41239184
10.116768 -5.2440586 -0.41290447
8.2335567 -4.3322721 -0.33036867
8.1839027 -4.3704734 -0.32934338
10.112531 -5.4803257 -0.41712394
10.113737 -5.5615296 -0.41870129
10.102983 -5.6366258 -0.41976604
10.091686 -5.7117982 -0.42083076
10.07898 -5.7865467 -0.42185605
10.061419 -5.85884 -0.42268416
8.8318939 -5.2157617 -0.36798891
8.6848497 -5.201066 -0.36270472
8.4836597 -5.1515751 -0.35489675
8.3387194 -5.1338634 -0.34965199
8.2350092 -5.1399641 -0.3463001
8.1222515 -5.1391101 -0.3425144
8.0367336 -5.1543288 -0.33999062
7.8843131 -5.1251287 -0.33431208
8.0579901 -5.3086314 -0.34401292
7.7618213 -5.1821051 -0.33151224
0 -0 -0
7.7536888 -5.3153806 -0.3341938
7.937593 -5.5133357 -0.3446044
7.92241 -5.5751615 -0.34551141
7.4088159 -5.282033 -0.32228464
7.3487244 -5.3075027 -0.32094389
7.3055358 -5.3448243 -0.32043123
7.3360267 -5.4365468 -0.32354656
7.3496809 -5.5168467 -0.32587317
7.3236465 -5.5678868 -0.32626751
7.3067632 -5.6261301 -0.32713506
7.2910161 -5.6856036 -0.32808149
7.3108869 -5.773581 -0.33084187
7.3720913 -5.8957133 -0.33573171
7.3846993 -5.9804525 -0.33821607
7.3841805 -6.0554299 -0.34006947
0 -0 -0
0 -0 -0
0 -0 -0
0 -0 -0
0 -0 -0
0 -0 -0
0 -0 -0
0 -0 -0
0 -0 -0
0 -0 -0
0 -0 -0
0 -0 -0
0 -0 -0
0 -0 -0
0 -0 -0
0 -0 -0
0 -0 -0
0 -0 -0
0 -0 -0
0 -0 -0
0 -0 -0
7.523303 -8.0925455 -0.39926022
7.5100036 -8.178297 -0.40138969
7.405302 -8.1642761 -0.39819551
7.3343973 -8.1864901 -0.39697304
7.2966099 -8.2455559 -0.3977223
7.2965145 -8.3481016 -0.40075874
7.279109 -8.432045 -0.40280932
7.3199444 -8.5852785 -0.4084484
7.2832193 -8.6491394 -0.40943426
3.106895 -3.7362106 -0.15496528
2.9095011 -3.5428636 -0.14412087
2.8681941 -3.5365925 -0.14289841
2.825825 -3.528389 -0.14159709
2.7929637 -3.5315552 -0.14088728
2.7601705 -3.5344515 -0.14017746
2.703038 -3.5054293 -0.13789026
2.6639223 -3.4988947 -0.13674667
2.6255901 -3.4928117 -0.13564251
2.5886242 -3.4879954 -0.13461722
2.5577235 -3.4909177 -0.13398628
2.5052145 -3.4636378 -0.13189627
2.4769466 -3.4691865 -0.13142306
2.4642489 -3.4965701 -0.13201457
2.3839681 -3.4271412 -0.12795284
2.338007 -3.4054611 -0.12621774
2.2985687 -3.392446 -0.12491641
2.2710438 -3.3965189 -0.1244432
2.2540131 -3.4162278 -0.12471924
2.2346449 -3.4325058 -0.12483755
2.222723 -3.4604442 -0.12550792
2.187005 -3.45123 -0.1244432
2.1594307 -3.4544175 -0.12396999
2.1318998 -3.4573967 -0.12349678
2.1075296 -3.4652908 -0.12326018
2.0780025 -3.4644475 -0.12262923
2.0490739 -3.4642329 -0.12203772
2.0222406 -3.4672465 -0.12160394
2.0039172 -3.4847865 -0.12184054
1.9686967 -3.4726789 -0.12073638
1.9434514 -3.4777155 -0.12042091
1.9090574 -3.4659448 -0.11935619
1.8801261 -3.4635432 -0.11872524
1.8522393 -3.4626796 -0.11817316
0 -0 -0
0 -0 -0
1.7781767 -3.4766161 -0.11730561
1.7518651 -3.4776456 -0.11687183
1.7291613 -3.4856441 -0.11675353
1.7042321 -3.489006 -0.11643805
0 -0 -0
1.6591502 -3.5051415 -0.11624089
0 -0 -0
0 -0 -0
0 -0 -0
1.5819521 -3.56581 -0.11714787
1.5636401 -3.5836916 -0.11750278
1.5459564 -3.6033192 -0.11793656
1.5308093 -3.6293085 -0.11864638
1.509277 -3.6404791 -0.11872524
0 -0 -0
0 -0 -0
1.459932 -3.713208 -0.12065752
1.4356807 -3.7183676 -0.12049978
1.4131925 -3.7280409 -0.12053922
1.3871542 -3.7282138 -0.12018431
1.3697368 -3.7516723 -0.12081525
1.3514094 -3.7731757 -0.12136734
1.3312134 -3.7898812 -0.12172224
1.3196502 -3.8319886 -0.12314187
1.3085788 -3.8769357 -0.1246798
1.2910424 -3.9038651 -0.12546849
0 -0 -0
1.3040763 -4.1118069 -0.13343421
1.2752664 -4.1082802 -0.13296099
1.2500345 -4.1160274 -0.13296099
0 -0 -0
0 -0 -0
1.2951868 -4.5651388 -0.15046978
1.2548735 -4.5287056 -0.1486558
1.2620351 -4.6655679 -0.15393999
1.2532793 -4.7485809 -0.15701586
1.2507764 -4.8597221 -0.16123532
1.2311482 -4.9080105 -0.16289157
0 -0 -0
2.5203533 -10.594879 -0.3929902
2.4539452 -10.604303 -0.3927536
2.387516 -10.613312 -0.39251697
1.2470691 -5.7078147 -0.19376855
0 -0 -0
2.1816876 -10.606524 -0.39054528
0 -0 -0
2.0443599 -10.596196 -0.38908622
1.1984262 -6.4240918 -0.22109646
1.1854001 -6.577847 -0.22697216
1.1616268 -6.6804872 -0.23079728
1.1652164 -6.9535666 -0.24144451
1.144331 -7.0957313 -0.246847
1.6327504 -10.533923 -0.38388088
1.5874921 -10.674205 -0.38908622
1.5195704 -10.666927 -0.38841581
1.4561139 -10.690902 -0.38900733
1.3889427 -10.687744 -0.38853413
1.3216196 -10.682182 -0.38798204
1.2531341 -10.665281 -0.38699621
1.1817 -10.619143 -0.38486674
1.1164155 -10.625199 -0.38482732
1.0511011 -10.630856 -0.38478789
0.91611063 -9.8849192 -0.35497561
0.91858369 -10.620057 -0.38388088
0.85268265 -10.616529 -0.383526
0.78530717 -10.591667 -0.38234296
0.71908265 -10.578341 -0.38163313
0.65366817 -10.574576 -0.38131768
0.5907163 -10.613306 -0.38269788
0.52523702 -10.609745 -0.38242182
0.45705137 -10.54189 -0.37962201
0.18482476 -4.9727001 -0.15957908
0.15319103 -4.9377861 -0.15815945
0.12239174 -4.9186549 -0.15737078
0.091569714 -4.8853455 -0.15603001
0.061338548 -4.8658328 -0.15524133
0.031337209 -4.8441353 -0.15437376
0.0016048655 -4.8232527 -0.15354565
-0.027921483 -4.8111811 -0.15307245
-0.057299636 -4.7989292 -0.15259923
-0.086636364 -4.7924933 -0.15236263
-0.11567929 -4.7768874 -0.15177111
-0.14453399 -4.761106 -0.1511796
-0.17363578 -4.757134 -0.1510613
-0.20282173 -4.7559791 -0.1510613
-0.23229176 -4.7606335 -0.1512979
-0.26149806 -4.7591181 -0.1512979
-0.29045111 -4.7534347 -0.15114017
-0.31967914 -4.7525601 -0.1511796
-0.34912667 -4.7544951 -0.15133734
-0.37773868 -4.7452912 -0.1510613
-0.40684813 -4.7428837 -0.1510613
-0.4364908 -4.7462683 -0.1512979
-0.46599525 -4.7474785 -0.15145564
-0.49594551 -4.7524805 -0.15177111
-0.52597463 -4.7572937 -0.15208659
-0.55527073 -4.7549691 -0.15212601
-0.5840705 -4.7484975 -0.15200771
-0.61345172 -4.7468061 -0.15208659
-0.64444298 -4.7568154 -0.15263866
-0.67487937 -4.7616758 -0.15299357
-0.70613062 -4.7712836 -0.15354565
-0.73645926 -4.7737737 -0.15382169
-0.76890326 -4.788897 -0.15461038
-0.80172479 -4.8047872 -0.1554385
-0.83596313 -4.8273454 -0.15654266
-0.86874366 -4.8398285 -0.15725246
-0.90262121 -4.8570027 -0.15815945
-0.94315159 -4.9073057 -0.1604072
-0.97791326 -4.9249487 -0.16135363
-2.2552874 -11.006578 -0.40659499
-2.3186491 -10.97298 -0.4058063
-2.3850842 -10.954641 -0.40564859
-2.4522557 -10.939801 -0.40564859
-2.5175388 -10.916759 -0.4053331
-2.5690336 -10.835963 -0.40269101
-2.6288533 -10.792812 -0.40158686
-2.5415947 -10.162863 -0.376625
-2.6053951 -10.152884 -0.3768616
-2.6348424 -10.01205 -0.37177458
-2.6977868 -10.001483 -0.37201118
-2.7585719 -9.9828148 -0.37193233
-2.8121569 -9.9387789 -0.37082818
-2.8733652 -9.9222965 -0.37086761
-2.9333417 -9.9016056 -0.37074929
-2.9917243 -9.8757696 -0.37043384
-3.0448763 -9.8333635 -0.36944798
-3.0988266 -9.7944889 -0.36861986
-3.1370537 -9.7077827 -0.36582002
-3.1762128 -9.6266708 -0.36325681
-3.2272496 -9.5833263 -0.36227095
-3.2775497 -9.5387745 -0.36124566
-3.3333731 -9.5109396 -0.36093017
-3.3923409 -9.4921894 -0.36100906
-3.4539399 -9.4805841 -0.36140341
-3.5005708 -9.4282999 -0.36010206
-3.5555277 -9.3991671 -0.3597866
-3.6102593 -9.3697138 -0.35947111
-3.6614788 -9.3315725 -0.35880074
-3.7142196 -9.2977953 -0.35832751
-3.7727051 -9.278533 -0.35848525
-3.824218 -9.2422829 -0.35793319
-3.8731024 -9.2002249 -0.3571445
-3.9267278 -9.1698561 -0.35686845
-3.9805255 -9.1400928 -0.35663185
-4.0304651 -9.1017923 -0.35604033
-4.0862365 -9.07689 -0.35604033
-4.1297984 -9.0252962 -0.35489675
-4.1863627 -9.0025043 -0.35501504
-4.2462177 -8.9865866 -0.35544881
-4.2982516 -8.9540567 -0.35517278
-4.3496084 -8.9203291 -0.35485733
-4.4086947 -8.9024277 -0.35525164
-4.4282227 -8.8055763 -0.35217577
-4.4630861 -8.7408619 -0.35051954
-4.5005412 -8.6822624 -0.34913936
-4.5248847 -8.599658 -0.34669444
-4.5535622 -8.5267792 -0.34468329
-4.5900855 -8.4696865 -0.34338194
-4.6280065 -8.4159708 -0.34223837
-4.6595993 -8.3516388 -0.34062156
-4.6556354 -8.2254934 -0.33620492
-4.6701994 -8.1343784 -0.33336568
-4.6888504 -8.0520325 -0.33092076
-4.7224178 -7.996438 -0.32969829
-4.7503471 -7.9321628 -0.32808149
-4.7750731 -7.8635769 -0.32626751
-4.8043752 -7.8034968 -0.32484788
-4.8389401 -7.7526789 -0.32386202
-4.8655834 -7.6899095 -0.3223241
-4.8873243 -7.6203771 -0.32047069
-4.9067626 -7.5483556 -0.31849897
-4.9375949 -7.4947419 -0.31739482
-4.9590778 -7.4277382 -0.3156597
-4.9827247 -7.364892 -0.31412178
-5.0023985 -7.297092 -0.31234723
-5.0276985 -7.2383566 -0.31100646
-5.0248656 -7.1403618 -0.30777287
-5.0361023 -7.0638313 -0.30556455
-5.0594602 -7.0052547 -0.30422378
-5.0757999 -6.937788 -0.30244926
-5.0944777 -6.8743997 -0.30087188
-5.1119695 -6.8102455 -0.29925507
-5.1361237 -6.755682 -0.29811147
-5.1555343 -6.6955376 -0.29669183
-5.1707144 -6.630682 -0.2950356
-5.198298 -6.5823622 -0.29420748
-5.2167468 -6.5230284 -0.29282731
-5.2258606 -6.4528456 -0.29089502
-5.2634554 -6.4183407 -0.2907767
-5.2759295 -6.3536358 -0.28912047
-5.294239 -6.296669 -0.28785858
-5.3146396 -6.2427607 -0.28675443
-5.3437114 -6.1994367 -0.28620234
-5.3586555 -6.1401811 -0.28482214
-5.3737359 -6.0817251 -0.28348139
-5.3823061 -6.016614 -0.28178573
-5.3889394 -5.9501457 -0.28001118
-5.4017129 -5.8911896 -0.27863097
-5.4105682 -5.82864 -0.27705359
-5.4298081 -5.7778554 -0.27610719
-5.4534502 -5.7321224 -0.27543682
-5.4601011 -5.6690435 -0.27382001
-5.4989681 -5.6397271 -0.27405661
-5.5074983 -5.5795665 -0.27259755
-5.5345678 -5.5386 -0.27220321
-5.5584993 -5.4947009 -0.27165112
-5.5742373 -5.443038 -0.27066526
-5.5773258 -5.3795962 -0.26900902
-5.5827403 -5.3190794 -0.26751053
-5.573071 -5.2450027 -0.26522335
-5.5897808 -5.1964207 -0.26439524
-5.6002173 -5.1424241 -0.26325163
-5.605762 -5.0844679 -0.26187143
-5.6175051 -5.0326395 -0.26084614
-5.6370544 -4.988143 -0.26025462
-5.6630411 -4.9495153 -0.26001802
-5.6789336 -4.9022679 -0.25926879
-5.6914186 -4.8524189 -0.25836179
-5.7149711 -4.8122563 -0.25804633
-5.7228799 -4.7592087 -0.25694215
-5.7334428 -4.7087831 -0.25599575
-5.7513628 -4.6647019 -0.25544366
-5.7627196 -4.615581 -0.25457612
-5.7462616 -4.5448008 -0.25232837
-5.7488403 -4.4897742 -0.25106648
-5.747005 -4.4318366 -0.2496074
-5.7653456 -4.3898311 -0.24917363
-5.7466488 -4.3201456 -0.24692588
-5.8115606 -4.3133907 -0.24881871
-5.8177681 -4.2628846 -0.24783285
-5.8162894 -4.2071943 -0.24649209
-5.8395553 -4.1696849 -0.24637379
-5.8650298 -4.1337757 -0.24637379
-5.8779807 -4.0891504 -0.24578227
-5.9070792 -4.0558352 -0.24597944
-5.9186192 -4.0105443 -0.2453485
-5.923182 -3.9608214 -0.24440208
-5.9206858 -3.906791 -0.24314019
-5.9311485 -3.8616648 -0.24250923
-5.9648199 -3.8316805 -0.24298245
-5.9595232 -3.7768211 -0.24164169
-5.958015 -3.7248206 -0.2404981
-5.977356 -3.6860948 -0.24034035
-6.0041294 -3.6519454 -0.24053752
-6.0255675 -3.614522 -0.2404981
-6.0441923 -3.5754466 -0.24034035
-6.0625648 -3.5362787 -0.24018262
-6.0806842 -3.4970202 -0.24002488
-6.0915966 -3.4537296 -0.23955168
-6.1048236 -3.4118993 -0.23919676
-6.1387715 -3.3816092 -0.23978828
-6.1602831 -3.3443556 -0.23982771
-6.1692343 -3.3003657 -0.23931506
-6.1752262 -3.2549942 -0.23868412
-6.2074966 -3.22349 -0.23923619
-6.233386 -3.1885266 -0.23951223
-6.2430172 -3.1452732 -0.23907846
-6.2514577 -3.1015778 -0.23860525
-6.2569041 -3.0565815 -0.23801373
-6.2494273 -3.0055716 -0.23687014
-6.2542052 -2.9607553 -0.23627864
-6.269537 -2.9210584 -0.23616032
-6.2555523 -2.8679574 -0.23478013
-6.2821403 -2.8336289 -0.23517448
-6.2811422 -2.7869232 -0.23438579
-6.2889662 -2.7443333 -0.23399144
-6.3029318 -2.7045112 -0.23387314
-6.2973127 -2.6564639 -0.23292673
-6.1667366 -2.5569141 -0.22665669
-0 -0 -0
-0 -0 -0
-0 -0 -0
-0 -0 -0
-0 -0 -0
-0 -0 -0
-0 -0 -0
-0 -0 -0
-0 -0 -0
-0 -0 -0
-0 -0 -0
-0 -0 -0
-0 -0 -0
-0 -0 -0
-0 -0 -0
-0 -0 -0
-0 -0 -0
-0 -0 -0
-0 -0 -0
-0 -0 -0
-0 -0 -0
-0 -0 -0
-0 -0 -0
-0 -0 -0
-0 -0 -0
-0 -0 -0
-0 -0 -0
-0 -0 -0
-0 -0 -0
-0 -0 -0
-0 -0 -0
-0 -0 -0
-0 -0 -0
-0 -0 -0
-0 -0 -0
-0 -0 -0
-0 -0 -0
-0 -0 -0
-0 -0 -0
-0 -0 -0
-0 -0 -0
-0 -0 -0
-0 -0 -0
-0 -0 -0
-0 -0 -0
-0 -0 -0
-0 -0 -0
-0 -0 -0
-0 -0 -0
-0 -0 -0
-0 -0 -0
-0 -0 -0
-0 -0 -0
-0 -0 -0
-0 -0 -0
-0 -0 -0
-0 -0 -0
-0 -0 -0
-0 -0 -0
-0 0 -0
-0 0 -0
-0 0 -0
-0 0 -0
-0 0 -0
-0 0 -0
-0 0 -0
-0 0 -0
-0 0 -0
-0 0 -0
-0.27324387 0.036034785 0.022698551
-0 0 -0
-0 0 -0
-0 0 -0
-0 0 -0
-0 0 -0
-0 0 -0
-0 0 -0
-0.2711466 0.049398821 0.022698551
-0 0 -0
-0 0 -0
-0 0 -0
-0 0 -0
-0.28121135 0.060251176 0.022076793
-0 0 -0
-0 0 -0
-0 0 -0
-0 0 -0
-0.2792308 0.068848923 0.022076793
-0 0 -0
-0 0 -0
-0 0 -0
-0 0 -0
-0 0 -0
-0 0 -0
-0 0 -0
-0 0 -0
-0 0 -0
-0.27448347 0.085841998 0.022076793
-0.27395159 0.087524578 0.022076793
-0 0 -0
-0 0 -0
-0 0 -0
-0 0 -0
-0 0 -0
-0 0 -0
-0.26432508 0.097117074 0.022387672
-0.26372421 0.098737113 0.022387672
-0.26031858 0.099274166 0.022543112
-0.25970453 0.10086958 0.022543112
-0 0 -0
-0.26122165 0.1051795 0.022387672
-0 0 -0
-0.26543206 0.11070615 0.022076793
-0.26474777 0.11233273 0.022076793
-0.26679942 0.11515336 0.021921355
-0 0 -0
-0.26445588 0.1180081 0.021973168
-0.26191124 0.11879613 0.022076793
-0.26117739 0.12040096 0.022076793
-0.2604337 0.12200125 0.022076793
-0.26148018 0.12446263 0.021973168
-0.25981426 0.12562634 0.02202498
-0 0 -0
-0.2600368 0.12970388 0.021921355
-0.26012513 0.13175179 0.021869542
-0.26108438 0.13426591 0.021765916
-0.2620225 0.13679671 0.021662289
-0.26205876 0.13887298 0.021610476
-0.26207936 0.14095481 0.021558663
-0.26120955 0.14256024 0.021558663
-0.25945815 0.14367309 0.021610476
-0.25683424 0.14427727 0.021714102
-0.25248134 0.14385895 0.021921355
-0.24986865 0.14439908 0.02202498
-0.24725887 0.14491259 0.022128606
-0.24550867 0.14591329 0.022180419
-0.24375552 0.14689797 0.022232233
-0.24454962 0.14943926 0.022128606
-0.24955557 0.15464282 0.021765916
-0.25197607 0.15830952 0.021558663
-0.2518402 0.16039239 0.02150685
-0.25252509 0.16302444 0.021403223
-0.2506865 0.16402081 0.021455036
-0.24884523 0.16500078 0.02150685
-0.24534795 0.16484392 0.021662289
-0.24433187 0.16634624 0.021662289
-0.241667 0.16670166 0.021765916
-0.2406396 0.16818136 0.021765916
-0.2420413 0.17139573 0.021610476
-0.24098508 0.17287765 0.021610476
-0.24233642 0.17612384 0.021455036
-0.24285501 0.17879787 0.02135141
-0.24095511 0.17968453 0.021403223
-0.23984805 0.18115962 0.021403223
-0.24031359 0.18384761 0.021299597
-0.24154218 0.18716277 0.021144159
-0.24117249 0.18926084 0.021092346
-0.24156559 0.1919857 0.02098872
-0.24193427 0.19472246 0.020885093
-0.24150665 0.19683711 0.02083328
-0.24183001 0.19959237 0.020729654
-0.24289247 0.2030022 0.020574214
-0.24088237 0.20384081 0.020626027
-0.24265088 0.2079253 0.020418776
-0.24362631 0.21138187 0.020263337
-0 0 -0
-0.24324541 0.21635476 0.020107897
-0 0 -0
-0 0 -0
-0 0 -0
-0 0 -0
-0 0 -0
-0 0 -0
-0 0 -0
-0 0 -0
-0 0 -0
-0 0 -0
-0 0 -0
-0 0 -0
-0 0 -0
-0 0 -0
-0 0 -0
-0 0 -0
-0 0 -0
-0 0 -0
-0 0 -0
-0 0 -0
-0 0 -0
-0 0 -0
-0 0 -0
-0 0 -0
-0 0 -0
-0 0 -0
-0 0 -0
-0 0 -0
-0 0 -0
-0 0 -0
-0 0 -0
-0 0 -0
-0 0 -0
-0 0 -0
-0 0 -0
-5.8591332 8.2162647 -0.48657209
-5.8356214 8.2904463 -0.48900729
-5.8159761 8.3712082 -0.49185702
-5.8362145 8.5113459 -0.49843729
-5.8336849 8.6206112 -0.50304866
-5.8316951 8.7326555 -0.50781548
-5.8175602 8.8283176 -0.51154602
-5.8084569 8.9333429 -0.51584649
-5.8036728 9.0469933 -0.52066511
-5.815866 9.1896114 -0.52724534
-5.8138342 9.3123827 -0.5325821
-5.794282 9.4091101 -0.53631264
-5.7763524 9.5102129 -0.54030222
-5.7635555 9.6217289 -0.54491359
-5.8146076 9.8435106 -0.55615705
-5.7827444 9.928194 -0.5591104
-5.7719383 10.050962 -0.56434351
-5.7775502 10.205256 -0.57144189
-5.7634807 10.327724 -0.5766232
-5.7322435 10.421524 -0.5800947
-5.7895279 10.680392 -0.59330702
-5.7619905 10.787068 -0.5975039
-5.7724223 10.968044 -0.60605305
-5.7560296 11.101671 -0.61180431
-5.7472954 11.253295 -0.61859179
-5.7198653 11.371322 -0.6234104
-5.7182364 11.544023 -0.63138962
-5.6888771 11.664166 -0.63631189
-5.6863484 11.842901 -0.64460194
-5.6651988 11.986824 -0.65087134
-5.6955533 12.245027 -0.66366917
-5.6942773 12.441385 -0.67289191
-5.6949024 12.647289 -0.68263274
-5.7021079 12.873753 -0.69351351
-5.6764412 13.031187 -0.70045644
-5.6451235 13.179607 -0.70688128
-5.577323 13.245291 -0.7086429
-5.5226746 13.343858 -0.71226984
-5.4952369 13.511634 -0.71978271
-5.4385314 13.610943 -0.72346145
-5.3830018 13.71564 -0.72745103
-5.328186 13.824824 -0.73169971
-5.2732925 13.936652 -0.73610383
-5.2207017 14.057687 -0.74102604
-5.1463122 14.122296 -0.74283952
-5.0733418 14.192164 -0.74496388
-5.0043321 14.274861 -0.74781358
-4.9289808 14.341188 -0.7497825
-4.8494978 14.396715 -0.75118142
-4.7726474 14.46129 -0.75309849
-4.72436 14.615738 -0.75993782
-4.6502552 14.693962 -0.76263213
-4.587184 14.809984 -0.76739889
-4.5176516 14.908578 -0.77123308
-4.4765825 15.106456 -0.78045583
-4.419086 15.255464 -0.78703606
-4.3506837 15.371657 -0.79185468
-4.2876706 15.511648 -0.79796863
-4.243649 15.727611 -0.8081758
-4.14605 15.749491 -0.80796856
-4.0994782 15.970031 -0.81843477
-4.0944519 16.366911 -0.83833098
-4.0988865 16.822533 -0.86133599
-4.0759935 17.186497 -0.87941879
-4.0651679 17.621836 -0.90128386
-4.0166016 17.912479 -0.91542888
-3.9306252 18.047052 -0.92128372
-3.855123 18.237911 -0.93014377
-3.7433453 18.262201 -0.93019557
-3.6310256 18.283846 -0.93014377
-3.5185812 18.3048 -0.93009198
-3.4056516 18.323101 -0.92993653
-3.2924533 18.33972 -0.92972928
-3.1773055 18.344816 -0.92895204
-3.0630407 18.354116 -0.92843395
-2.9400761 18.308474 -0.92506611
-2.8010426 18.153446 -0.91599882
-2.6824403 18.121883 -0.91345996
-2.5702152 18.131081 -0.91309726
-2.4573083 18.134634 -0.91247553
-2.3449664 18.141447 -0.91206104
-2.2286112 18.114855 -0.90993667
-2.1034076 18.008165 -0.90366727
-1.9873866 17.971104 -0.90107661
-1.8759409 17.972033 -0.90050668
-1.7661188 17.988174 -0.90076578
-1.6557122 17.998672 -0.90076578
-1.5450727 18.006504 -0.90066212
-1.4329736 17.995735 -0.8996259
-1.3189452 17.955385 -0.89708704
-1.2049971 17.907341 -0.89418548
-1.0838971 17.730988 -0.8846519
-0.97207016 17.682461 -0.8818022
-0.8608309 17.632233 -0.87890065
-0.75028729 17.582308 -0.87605095
-0.63936996 17.503746 -0.87175041
-0.53101879 17.476397 -0.87014425
-0.42312396 17.45237 -0.86874527
-0.31460732 17.375755 -0.86465204
-0.20724893 17.315447 -0.86143965
-0.10071158 17.26646 -0.85884899
0.0051201391 16.956171 -0.84273511
0.10882325 16.903891 -0.84004086
0.20802164 16.545414 -0.82149178
0.3025251 16.170395 -0.80211365
0.40081859 16.131296 -0.80019659
0.32316211 10.441927 -0.50501752
0.38626117 10.413801 -0.50367039
0.44997877 10.407244 -0.50346315
0.51402545 10.408277 -0.50367039
0.57782423 10.40393 -0.5036186
0.64251322 10.414143 -0.50434399
0.70714605 10.420964 -0.50491393
0.77100074 10.415433 -0.50486213
0.83657295 10.431411 -0.50595015
0.89944446 10.413147 -0.50527662
0.95170999 10.282139 -0.49874815
0.95474881 9.6688862 -0.46709037
0.95948291 9.1434078 -0.43999216
0.8125748 7.313076 -0.34475973
0.81781143 6.9707289 -0.32714328
0.86032242 6.9635973 -0.32703966
0.90882522 7.0027523 -0.32937124
0.97482133 7.1662521 -0.33823127
0.97272092 6.8368387 -0.32128841
0.980425 6.6005859 -0.30921596
1.0225896 6.6053014 -0.3097859
1.0630996 6.5989027 -0.3097859
1.1047251 6.5991497 -0.3101486
1.1450249 6.5912633 -0.31009677
1.1859779 6.5870619 -0.31025222
1.2285709 6.5914416 -0.31087399
1.2708839 6.5935845 -0.3113921
1.3113174 6.5856624 -0.3113921
1.3537136 6.5872741 -0.31191024
1.3959717 6.5876365 -0.31237656
1.4397774 6.5945573 -0.31320557
1.4808712 6.5885215 -0.31336102
1.5241965 6.5919595 -0.31403458
1.5685443 6.5989995 -0.31491539
1.6118501 6.6008921 -0.31553715
1.6549953 6.6015325 -0.31610709
1.697711 6.5999575 -0.31657341
1.7384304 6.5903821 -0.31662524
1.7796179 6.5824833 -0.31678066
1.8247746 6.5887628 -0.31771332
1.8681668 6.5880098 -0.31828326
1.9118969 6.5879316 -0.318905
1.957687 6.5942655 -0.31988946
2.0042071 6.6021953 -0.32097754
2.0482328 6.6012187 -0.32159927
2.0923221 6.5999494 -0.32222104
2.1355493 6.5955377 -0.32268736
2.1813099 6.5984282 -0.3235682
2.2275057 6.6019511 -0.32450083
2.2731762 6.6032667 -0.32532984
2.3206015 6.6089807 -0.32641789
2.3634672 6.6011982 -0.32678059
2.4097502 6.6025195 -0.32766142
2.4543967 6.5988407 -0.32828316
2.502629 6.6041999 -0.32942307
2.5502996 6.6073518 -0.33045933
2.5966411 6.6064491 -0.33128834
2.6441808 6.6080074 -0.33227277
2.6933444 6.6129298 -0.33346447
2.7411375 6.6138067 -0.33444893
2.7890427 6.6143456 -0.33543336
2.8346944 6.6090384 -0.33610696
2.8819838 6.6070805 -0.33698776
2.9289503 6.603878 -0.33781677
2.9788601 6.6067195 -0.33900848
3.0284986 6.6082888 -0.34014836
3.0799553 6.6131172 -0.34149551
3.1320124 6.6184654 -0.34289446
3.1777577 6.6099229 -0.3435162
3.2274611 6.6091433 -0.34460428
3.2790496 6.6115804 -0.34589961
3.3303399 6.612741 -0.34714311
3.3881347 6.625967 -0.34911203
3.4393129 6.6254373 -0.35030374
3.4910774 6.625412 -0.35154724
3.5434418 6.6258802 -0.35284257
3.5926073 6.6198115 -0.3537752
3.6471322 6.6230097 -0.35527778
3.6984203 6.6196847 -0.35641766
3.7542374 6.6237979 -0.35802388
3.8132312 6.6326685 -0.35994095
3.8699586 6.6367502 -0.36159897
3.9207773 6.6300702 -0.36263523
3.972687 6.6247282 -0.36377513
4.0355768 6.6369162 -0.3660031
4.0877566 6.6307297 -0.36714298
4.1431885 6.6292329 -0.36859375
4.1971512 6.624774 -0.36988905
4.2576923 6.6299844 -0.37180614
4.3189993 6.6355367 -0.37377504
4.3755836 6.6330833 -0.37527764
4.4389615 6.6401467 -0.37740195
4.4964275 6.6375866 -0.37895635
4.5591159 6.6419797 -0.38097706
4.6186051 6.6409335 -0.38268688
4.6794033 6.6410384 -0.38450035
4.7415361 6.642272 -0.38641742
4.8038597 6.6429925 -0.38833451
4.8699112 6.6480298 -0.39056247
4.9332285 6.6484957 -0.39253137
4.9961338 6.6476359 -0.39444846
5.0610285 6.6486368 -0.39652097
5.1285625 6.6522536 -0.39880076
5.1920271 6.6497812 -0.40071785
5.2587514 6.6506958 -0.40289399
5.3256812 6.651041 -0.40507013
5.3959575 6.6546917 -0.40750536
5.471549 6.6639028 -0.41035506
5.5334072 6.6555433 -0.41206491
5.6069465 6.6604247 -0.41470736
5.6742735 6.657053 -0.4168317
5.7548203 6.6682239 -0.4199923
5.8212585 6.6621132 -0.42201301
5.8858519 6.653193 -0.42387828
5.9725447 6.6682754 -0.42745337
6.0468946 6.6684885 -0.43004403
6.1289005 6.6761303 -0.43320462
6.2003474 6.6713119 -0.43553624
6.2801776 6.6745939 -0.43848956
6.3657913 6.68293 -0.44185743
6.4496622 6.6883087 -0.44506982
6.5303483 6.6893358 -0.44802317
6.6042681 6.6825204 -0.45045838
6.6769357 6.6736369 -0.45278996
6.7710638 6.6851583 -0.45667595
6.8591475 6.6894994 -0.46009561
6.9288363 6.6749978 -0.46216813
7.017416 6.6777883 -0.46558779
7.1077442 6.6811094 -0.46911108
7.2005715 6.6856098 -0.47278982
7.2863588 6.6824718 -0.47595042
7.3738575 6.6798716 -0.47921464
7.4705281 6.6844378 -0.48310062
7.5690274 6.6893897 -0.48709023
7.6656094 6.6914129 -0.49092439
7.7488828 6.6807647 -0.49382591
7.8718548 6.7030072 -0.49942175
7.9541121 6.6892853 -0.50221962
8.0526295 6.6882024 -0.5061056
8.1537485 6.6880603 -0.51014704
8.2512856 6.683785 -0.51392937
8.3592148 6.6866713 -0.51838529
8.4588661 6.681674 -0.52227128
8.5729437 6.686758 -0.52708989
8.6597052 6.6693673 -0.5300951
8.8149433 6.7031407 -0.53755617
8.9150095 6.6932912 -0.5413903
9.0233088 6.6884103 -0.54574263
9.1318808 6.6824503 -0.5500949
9.248003 6.6806707 -0.55491352
9.4099808 6.7101803 -0.56263369
9.4918118 6.6810517 -0.56522435
9.6302328 6.6904812 -0.57139009
9.7468824 6.6832142 -0.57615691
9.8803463 6.6859584 -0.58195996
10.016699 6.6889772 -0.58791846
10.159294 6.694418 -0.59423965
10.303167 6.6989021 -0.60061264
10.439908 6.6970181 -0.60651934
10.62005 6.7209387 -0.6150685
10.729711 6.6984797 -0.61926538
10.882012 6.7011051 -0.62605286
10.998896 6.6803403 -0.63066423
11.087658 6.6414599 -0.63356578
11.133359 6.5763493 -0.63387662
11.04664 6.4340386 -0.6262601
11.082447 6.3641477 -0.62605286
11.124764 6.2979951 -0.6262601
11.17192 6.2344818 -0.62677824
11.181961 6.1504164 -0.62512022
11.177344 6.0588493 -0.62263322
11.188765 5.9765096 -0.62113065
11.229644 5.9100695 -0.62138969
11.270129 5.8433523 -0.62164879
11.310218 5.7763605 -0.62190783
11.352586 5.710443 -0.62232232
11.422313 5.6579618 -0.62434304
11.47746 5.5978365 -0.62553471
11.667343 5.6020737 -0.63449842
11.823393 5.587976 -0.64149314
12.005965 5.584384 -0.6499905
12.232522 5.5987043 -0.66097486
12.277573 5.528461 -0.66159666
12.338657 5.4651542 -0.66315103
12.55874 5.4706874 -0.6737209
12.632464 5.4108224 -0.67600065
12.699482 5.3475461 -0.67791778
12.732055 5.2695231 -0.67791778
12.779875 5.1976962 -0.67879856
12.842131 5.1314082 -0.68050843
13.869033 5.4431901 -0.73600018
13.939445 5.3723512 -0.73807275
14.09264 5.3323007 -0.74475664
14.284249 5.304822 -0.75356483
14.407547 5.2502351 -0.7585907
14.509081 5.186604 -0.76242489
14.632992 5.1298509 -0.76750255
14.697248 5.0513263 -0.76931602
8.062252 2.7162921 -0.40439656
8.2390423 2.7196536 -0.41315296
8.0569677 2.6048682 -0.40232405
7.9623513 2.5204377 -0.39631373
7.9213824 2.4541056 -0.39325675
7.8942375 2.392715 -0.390977
7.9250484 2.3490543 -0.3918578
7.9105353 2.2920492 -0.3903034
7.8523808 2.2230754 -0.38641742
7.7975302 2.1559665 -0.38273871
7.7971134 2.10444 -0.38201332
7.8021531 2.0545249 -0.38159883
7.7923641 2.0009036 -0.38040712
7.802557 1.9525683 -0.3803035
7.8075991 1.9030015 -0.37994081
7.8074679 1.8522946 -0.37931904
7.806036 1.8014365 -0.37864548
7.8071976 1.7513212 -0.37812734
7.810966 1.7018969 -0.37776464
7.8290782 1.6555895 -0.37817916
7.8889842 1.617744 -0.38082162
7.8968029 1.5689187 -0.38071799
7.906281 1.5204353 -0.38071799
7.8752055 1.4644151 -0.37859365
7.894855 1.4180065 -0.37916359
7.9260397 1.3734564 -0.3803553
7.9727345 1.331206 -0.38237602
8.0339985 1.2908082 -0.38517392
8.2223864 1.2693456 -0.3946557
8.2092743 1.2158005 -0.39356765
8.1216564 1.1519567 -0.38859358
8.2008142 1.1118859 -0.39237595
8.4471655 1.0925115 -0.40491471
8.7649441 1.07893 -0.421184
9.0788946 1.0610254 -0.43724605
0 0 -0
0 0 -0
11.372881 1.1170465 -0.55589795
17.544203 1.6139348 -0.87708718
17.617456 1.5117152 -0.88040322
17.590561 1.4007367 -0.87853795
17.545042 1.2888294 -0.87574005
17.654253 1.1879832 -0.88102496
17.57748 1.0745233 -0.87667269
17.579754 0.96643078 -0.87646544
17.601311 0.85932332 -0.87729442
17.438631 0.74416578 -0.86858982
17.361032 0.63416654 -0.8643412
17.333652 0.52669114 -0.86273497
17.296623 0.4193584 -0.86066246
17.32583 0.31370676 -0.86206138
17.367373 0.20786692 -0.86413389
17.334368 0.10110307 -0.86237228
17.361626 -0.0052705151 -0.8637712
17.322319 -0.11154593 -0.86175054
17.322308 -0.2178442 -0.86180234
17.328632 -0.32427782 -0.86221683
17.317331 -0.43037429 -0.86175054
17.351297 -0.53777045 -0.86366761
17.36264 -0.64478284 -0.86444479
17.318449 -0.74957585 -0.86237228
17.349432 -0.85760313 -0.86423755
17.281025 -0.96054512 -0.8609733
17.265835 -1.066007 -0.86050701
17.262955 -1.172199 -0.86071426
17.241493 -1.2770667 -0.85998887
17.300028 -1.3881907 -0.86346036
17.190695 -1.4856244 -0.85822725
17.161369 -1.5892335 -0.85719097
17.108561 -1.6902789 -0.854963
17.080982 -1.7934493 -0.85408217
17.040873 -1.8950195 -0.85257959
17.025949 -1.9991951 -0.85242414
16.9757 -2.0989676 -0.85045528
16.939724 -2.200129 -0.84926355
16.925905 -2.3040278 -0.84926355
16.863993 -2.4010797 -0.84677655
16.96254 -2.5214033 -0.85273504
16.925037 -2.622071 -0.85159516
17.01018 -2.7422497 -0.85693192
17.08857 -2.8625813 -0.86195779
16.898504 -2.9374387 -0.85289049
17.012842 -3.0649836 -0.85988528
16.87002 -3.1462367 -0.85335678
16.842552 -3.2481766 -0.85294229
17.302208 -3.4471033 -0.87833071
17.226933 -3.5421369 -0.87548101
17.049543 -3.6148286 -0.86724269
17.011431 -3.7159636 -0.86641371
17.122765 -3.8505189 -0.87356389
17.165949 -3.9710445 -0.87713897
17.274363 -4.1079597 -0.88423741
17.074211 -4.1712046 -0.87491101
17.087042 -4.2856116 -0.87698358
11.199623 -2.8817265 -0.56299639
11.16435 -2.9458039 -0.56206375
10.906028 -2.949312 -0.54916227
10.677927 -2.9580317 -0.53786701
10.632675 -3.0158613 -0.53641629
10.516149 -3.0526383 -0.53113133
10.448397 -3.1026032 -0.52848887
10.40623 -3.1596889 -0.52724534
10.369479 -3.2181511 -0.52631271
10.34573 -3.2805085 -0.52610546
10.278854 -3.3288455 -0.5235666
10.260132 -3.3924799 -0.52367026
10.22493 -3.4505796 -0.52289307
10.220561 -3.5191076 -0.52382571
10.253423 -3.6009521 -0.52683085
10.212332 -3.6570625 -0.52579457
10.224409 -3.7323296 -0.52771169
10.219098 -3.8016129 -0.52869612
10.258144 -3.8879647 -0.53216761
10.165156 -3.9242125 -0.52833343
10.213378 -4.015017 -0.53237486
10.208019 -4.0854039 -0.53346294
10.214204 -4.1607752 -0.53522456
10.193094 -4.2252827 -0.53548366
10.186299 -4.295898 -0.53657168
10.183609 -4.3685579 -0.53791887
10.169427 -4.436553 -0.53864425
10.184916 -4.5179048 -0.54107946
10.17612 -4.5889363 -0.54216754
10.177729 -4.6650243 -0.54387736
10.172449 -4.7383518 -0.54522449
10.17297 -4.8147812 -0.54693431
10.154935 -4.8827376 -0.5476079
10.150805 -4.9576678 -0.54911047
10.146138 -5.0327306 -0.55061305
10.140931 -5.1079221 -0.55211562
10.120068 -5.1755071 -0.55273736
10.114709 -5.2513127 -0.55429178
8.1988115 -4.3204503 -0.44382632
8.1659832 -4.3673782 -0.44346362
10.100591 -5.4823442 -0.55926585
10.11662 -5.5716829 -0.5622192
10.097934 -5.6424227 -0.56315184
10.089185 -5.7190528 -0.56470621
10.07468 -5.7928004 -0.56594974
10.113995 -5.8982854 -0.57045746
8.8940516 -5.2600756 -0.49911085
8.8256407 -5.2929726 -0.49693471
8.8731995 -5.3958097 -0.50180513
8.7617226 -5.4019265 -0.49703833
8.2745361 -5.1718245 -0.46926653
0 -0 -0
7.9903078 -5.1315598 -0.45569152
7.940259 -5.1685028 -0.45455161
7.7575254 -5.1175709 -0.44517344
7.7209978 -5.1617432 -0.44486257
7.8462586 -5.3154621 -0.45470706
7.8299613 -5.3748112 -0.45574331
7.907506 -5.4997468 -0.4627381
7.3936424 -5.2098641 -0.43227199
7.3517838 -5.2481689 -0.43165025
7.3121605 -5.2879119 -0.43118393
7.28441 -5.3362203 -0.4314948
7.2948337 -5.4129567 -0.4342927
7.3085794 -5.4930215 -0.43734968
7.3041353 -5.5601473 -0.43926677
7.3038864 -5.631084 -0.44149473
7.3298011 -5.7231255 -0.44548434
7.3141284 -5.7834802 -0.44677967
7.3151383 -5.8575926 -0.44921488
7.3349032 -5.9476609 -0.45294541
0 -0 -0
0 -0 -0
0 -0 -0
7.3645568 -6.2774916 -0.46506968
0 -0 -0
0 -0 -0
0 -0 -0
0 -0 -0
0 -0 -0
0 -0 -0
0 -0 -0
0 -0 -0
0 -0 -0
0 -0 -0
0 -0 -0
0 -0 -0
0 -0 -0
0 -0 -0
0 -0 -0
0 -0 -0
0 -0 -0
0 -0 -0
7.3969574 -7.9668941 -0.5270381
7.4107013 -8.0805864 -0.53185672
7.3770695 -8.1436701 -0.53310025
7.3336201 -8.1962242 -0.53361833
7.3056736 -8.2665129 -0.53538001
7.2672896 -8.3254805 -0.53636444
7.2362814 -8.393364 -0.53797066
7.3018165 -8.575243 -0.5473488
3.1172516 -3.7056994 -0.21424261
3.0899894 -3.7193787 -0.21387991
2.9113288 -3.5483055 -0.20113391
2.8781888 -3.5521331 -0.20020127
2.8282714 -3.5346301 -0.19786967
2.7823915 -3.5213518 -0.19584897
2.7386246 -3.5100074 -0.1939837
2.7054598 -3.5117111 -0.19299924
2.6699603 -3.5099607 -0.19180755
2.6219947 -3.4911349 -0.18952778
2.585659 -3.4870987 -0.18823245
2.544755 -3.476301 -0.18652262
2.5122674 -3.4764676 -0.18553817
2.4723375 -3.4657962 -0.18388015
2.4372315 -3.4613001 -0.18263663
2.4045534 -3.4597852 -0.18160038
2.336412 -3.4061079 -0.17729989
2.2981207 -3.3947384 -0.17569369
2.2739208 -3.4037921 -0.17538281
2.2524433 -3.4168465 -0.175331
2.2281697 -3.4255791 -0.17502011
2.2173524 -3.4551585 -0.17600456
2.1838291 -3.4492886 -0.17481287
2.1583931 -3.4558461 -0.17439836
2.1198702 -3.4409611 -0.17268853
2.098717 -3.4539037 -0.17268853
2.0708144 -3.4555783 -0.17201495
2.0409393 -3.4536011 -0.17113413
2.0166948 -3.4608812 -0.17082326
1.9909461 -3.4653957 -0.17035694
1.9578394 -3.4566882 -0.16911343
1.9268613 -3.451194 -0.16807717
1.8998743 -3.4524512 -0.1674554
1.8757997 -3.4587758 -0.16714454
1.8470148 -3.4561257 -0.16631553
1.8299588 -3.4753478 -0.16678184
1.7975699 -3.4652319 -0.16553833
1.7767279 -3.4770858 -0.16559014
1.7481806 -3.4736471 -0.16476113
1.7272769 -3.4852033 -0.16481294
1.7014828 -3.4867597 -0.16429481
1.6774633 -3.4917324 -0.16398393
1.6624066 -3.5155034 -0.16476113
1.6391201 -3.5220153 -0.16455388
1.6195562 -3.5365469 -0.16481294
1.6011056 -3.5537028 -0.16522744
1.5792702 -3.5634601 -0.16522744
1.5609643 -3.5813236 -0.16569376
1.5456434 -3.6064405 -0.16657458
1.5250355 -3.6195383 -0.16678184
1.5077615 -3.6408238 -0.1674554
0 -0 -0
0 -0 -0
1.4565406 -3.7088645 -0.16973518
1.4312426 -3.7112088 -0.1693725
1.405264 -3.7115142 -0.16890617
1.3803785 -3.7144496 -0.1685953
0 -0 -0
1.3451113 -3.760262 -0.1702015
0 -0 -0
0 -0 -0
1.302442 -3.8638842 -0.1745538
1.2846543 -3.889822 -0.17553824
1.2718177 -3.9318411 -0.17740352
1.2952654 -4.0900087 -0.18558998
1.2769394 -4.1198206 -0.18678169
1.2675613 -4.1801448 -0.1896314
1.2546538 -4.2309322 -0.19196299
1.2378367 -4.270206 -0.19367282
1.2254788 -4.3267283 -0.19631529
1.2651408 -4.5738487 -0.20921674
1.2591597 -4.6634822 -0.21362086
1.2523795 -4.7541766 -0.21807678
1.250739 -4.8691435 -0.22382803
1.222535 -4.8835077 -0.22419071
2.328896 -9.556056 -0.47330794
2.2692957 -9.5662785 -0.47310069
2.2085357 -9.5712652 -0.47263438
2.1449602 -9.5631971 -0.4714945
1.24914 -5.7315478 -0.267351
2.0412769 -9.6542635 -0.47496596
1.98581 -9.685195 -0.47595042
1.9220672 -9.6756477 -0.47481054
1.8815074 -9.7853308 -0.47999182
