# .PCD v0.7 - Point Cloud Data file format
VERSION 0.7
FIELDS x y z
SIZE 4 4 4
TYPE F F F
COUNT 1 1 1
WIDTH 1630
HEIGHT 1
VIEWPOINT 0 0 0 1 0 0 0
POINTS 1630
DATA ascii
-2.8710163 -1.6502266 -0.66373962
-2.871727 -1.6272734 -0.6614545
-2.8782418 -1.6077137 -0.66062349
-2.8854818 -1.5886073 -0.66000026
-2.8865778 -1.5662063 -0.65792286
-2.8987212 -1.5498492 -0.65854609
-2.9081764 -1.5320337 -0.65854609
-2.9105768 -1.510555 -0.65688419
-2.9189196 -1.4922223 -0.65667641
-2.9236526 -1.472084 -0.65563774
-2.9291248 -1.4523785 -0.65480679
-2.9353445 -1.4330906 -0.65418357
-2.9387929 -1.4125096 -0.65293711
-2.9438679 -1.3927771 -0.65210611
-2.9479249 -1.3726226 -0.65106744
-2.9562917 -1.3545086 -0.65106744
-2.9645472 -1.3363438 -0.65106744
-2.9709027 -1.3173352 -0.65065193
-2.9735501 -1.2967346 -0.64940548
-0.27105677 -0.11584339 -0.023066478
-0.27626908 -0.11607847 -0.024105182
-0.27155429 -0.11213382 -0.022858737
-0.2831082 -0.11489349 -0.025351629
-0.28653234 -0.11424451 -0.025974851
-0.26811007 -0.10496927 -0.02161229
-0.28061229 -0.10790162 -0.024312923
-0.28584257 -0.10791107 -0.025351629
-0 -0 -0
-0 -0 -0
-0 -0 -0
-0 -0 -0
-0 -0 -0
-0 -0 -0
-0 -0 -0
-0 -0 -0
-0 -0 -0
-0 -0 -0
-0 -0 -0
-0 -0 -0
-0 -0 -0
-0 -0 -0
-0 -0 -0
-0 -0 -0
-0 -0 -0
-0 -0 -0
-0 -0 -0
-0 -0 -0
-0 -0 -0
-0 -0 -0
-0 -0 -0
-0 -0 -0
-0 -0 -0
-0 -0 -0
-0 -0 -0
-0 -0 -0
-0 -0 -0
-0 -0 -0
-0 -0 -0
-0 -0 -0
-0 -0 -0
-0 -0 -0
-0 -0 -0
-0 -0 -0
-0 -0 -0
-0 -0 -0
-0 -0 -0
-0 -0 -0
-0 -0 -0
-0 -0 -0
-0 -0 -0
-0 -0 -0
-0 -0 -0
-0 -0 -0
-0 -0 -0
-0 -0 -0
-0 -0 -0
-0 -0 -0
-0 -0 -0
-0 -0 -0
-0 -0 -0
-0 -0 -0
-0.28938398 0.020234335 -0.025591556
-0.28633702 0.021775799 -0.024932528
-0 0 -0
-0.28119111 0.024838682 -0.023834148
-0.27520826 0.025988689 -0.022516092
-0 0 -0
-0 0 -0
-0.26983863 0.030481633 -0.021417713
-0 0 -0
-0.27331409 0.034292869 -0.022296418
-0.27309853 0.035969246 -0.022296418
-0.27287269 0.037644271 -0.022296418
-0 0 -0
-0.27624655 0.041587021 -0.02317512
-0.27791247 0.043591589 -0.023614472
-0.27667758 0.045134932 -0.023394797
-0.27735662 0.046998721 -0.023614472
-0.27610287 0.048526794 -0.023394797
-0.27388182 0.049862504 -0.022955444
-0.27357072 0.05154207 -0.022955444
-0 0 -0
-0.27100641 0.054502562 -0.022516092
-0 0 -0
-0.26650468 0.056991756 -0.021637389
-0.26614997 0.058625925 -0.021637389
-0.26578525 0.060257889 -0.021637389
-0 0 -0
-0.27355531 0.065597728 -0.023614472
-0.27693281 0.068223916 -0.024493176
-0.28028825 0.070893988 -0.025371879
-0.27796137 0.072114818 -0.024932528
-0.27751365 0.073819004 -0.024932528
-0.27423492 0.074739255 -0.0242735
-0.27001691 0.07535594 -0.023394797
-0.26767561 0.076467514 -0.022955444
-0.26626614 0.077830859 -0.022735769
-0.26391655 0.078896418 -0.022296418
-0.2634275 0.080514289 -0.022296418
-0.2657184 0.083013572 -0.022955444
-0.26520401 0.084642425 -0.022955444
-0.2674585 0.087186694 -0.023614472
-0.26784289 0.089138031 -0.023834148
-0.26636845 0.09046226 -0.023614472
-0.2685698 0.093064561 -0.0242735
-0.26799372 0.094710723 -0.0242735
-0 0 -0
-0.26681128 0.097992286 -0.0242735
-0.26711726 0.099973254 -0.024493176
-0.26740897 0.10196166 -0.024712851
-0.26677829 0.10360052 -0.024712851
-0.26704335 0.10559792 -0.024932528
-0.26819742 0.10797043 -0.025371879
-0.27023357 0.11073457 -0.026030907
-0.27044797 0.11276964 -0.026250584
-0.2715441 0.11519604 -0.026689935
-0.26993796 0.11647 -0.026470259
-0.26921824 0.11812411 -0.026470259
-0.26493093 0.11816985 -0.025591556
-0.26242712 0.11898036 -0.025152205
-0.26169214 0.12058833 -0.025152205
-0.26271093 0.12302635 -0.025591556
-0.26283038 0.12505868 -0.025811231
-0.26381135 0.12752518 -0.026250584
-0.26477188 0.13000838 -0.026689935
-0.26658314 0.13294694 -0.027348964
-0.26489377 0.13413602 -0.027129287
-0.26146814 0.13441049 -0.026470259
-0.2597754 0.13555752 -0.026250584
-0.25979903 0.13760898 -0.026470259
-0.25894979 0.13920048 -0.026470259
-0.25809079 0.14078675 -0.026470259
-0.26062879 0.14427094 -0.027348964
-0.26058736 0.14634845 -0.027568638
-0.26475912 0.15086196 -0.028886694
-0.26382846 0.15248366 -0.028886694
-0.26036865 0.1526099 -0.028227666
-0.26277408 0.15621147 -0.029106371
-0.26097706 0.15731403 -0.028886694
-0.25834596 0.15788852 -0.028447343
-0.2598542 0.1610218 -0.029106371
-0.2588613 0.16261321 -0.029106371
-0.25867957 0.16472563 -0.029326046
-0.25848159 0.16684192 -0.029545723
-0.25500992 0.16681328 -0.028886694
-0.25398156 0.16837485 -0.028886694
-0.25455907 0.17102434 -0.029326046
-0.25028753 0.17037478 -0.028447343
-0.25003836 0.1724643 -0.02866702
-0.25057045 0.17511906 -0.029106371
-0.25107929 0.1777868 -0.029545723
-0.25235534 0.18103898 -0.030204751
-0.25360084 0.18431345 -0.030863779
-0.25089818 0.18470344 -0.030424427
-0.25365961 0.18916993 -0.031522807
-0.2524941 0.19072279 -0.031522807
-0.25440967 0.19465098 -0.03240151
-0.25782433 0.19981048 -0.033719566
-0.25965458 0.20380893 -0.034598269
-0.26144531 0.20783728 -0.035476971
-0.26319629 0.2118952 -0.036355678
-0.26339918 0.21474424 -0.036795028
-0.259826 0.21448541 -0.036136001
-0.25701234 0.21481913 -0.035696648
-0.25717437 0.21765773 -0.036136001
-0.25435683 0.2179569 -0.035696648
-0.254484 0.22079726 -0.036136001
-0 0 -0
-0 0 -0
-0 0 -0
-0 0 -0
-0 0 -0
-0 0 -0
-0 0 -0
-0 0 -0
-0 0 -0
-0 0 -0
-0 0 -0
-0 0 -0
-0 0 -0
-0 0 -0
-0 0 -0
-0 0 -0
-0 0 -0
-0 0 -0
-0 0 -0
-0 0 -0
-0 0 -0
-0 0 -0
-0 0 -0
-0 0 -0
-0 0 -0
-0 0 -0
-0 0 -0
-0 0 -0
-0 0 -0
-0 0 -0
-0 0 -0
-2.2228715 2.8839283 -0.78017843
-2.2074966 2.9006195 -0.78105712
-0 0 -0
-0 0 -0
-0 0 -0
-2.1385036 2.9578743 -0.78215551
-2.1220136 2.9733231 -0.7828145
-0 0 -0
-0 0 -0
-0 0 -0
-2.0642629 3.0479343 -0.78918511
-2.0379364 3.0491853 -0.78610963
-2.0132833 3.0526721 -0.78369319
-1.9939828 3.0641501 -0.78347355
-1.9704026 3.0689373 -0.78149647
-1.9515349 3.0809696 -0.78149647
-1.9289768 3.0870936 -0.77995872
-1.9140913 3.1055167 -0.78171611
-1.8914546 3.1113663 -0.78017843
-1.8708239 3.1204028 -0.77951938
-1.851146 3.1309834 -0.77929968
-1.8294444 3.138068 -0.77820134
-1.8048104 3.1399286 -0.77578491
-1.7850295 3.1500947 -0.77556521
-1.7699465 3.1686549 -0.77754229
-1.7509409 3.1803102 -0.777762
-1.730929 3.1901362 -0.77754229
-1.7159193 3.2093017 -0.77973902
-1.6971039 3.2214966 -0.78017843
-1.6719158 3.2214565 -0.77754229
-1.6530054 3.2333922 -0.77798164
-1.6322576 3.2417309 -0.77754229
-1.6179663 3.2630494 -0.78039807
-1.607752 3.2930822 -0.78545064
-1.5913168 3.3107998 -0.78742772
-1.5780602 3.3354955 -0.79116219
-1.5559181 3.3415775 -0.7902835
-1.5333549 3.3466263 -0.78918511
-1.5127915 3.3559718 -0.78918511
-1.4878243 3.3553793 -0.78676867
-1.4672081 3.3644454 -0.78676867
-1.4323215 3.3402052 -0.77864069
-1.42316 3.3759034 -0.78523093
-1.395329 3.3674457 -0.78105712
-1.3713318 3.3678112 -0.77908003
-1.3481071 3.3698208 -0.77754229
-1.3224138 3.3653157 -0.77446681
-1.3010379 3.371546 -0.77402747
-1.2806712 3.380378 -0.77424717
-1.2595658 3.3872578 -0.77402747
-1.2400948 3.3985889 -0.77490616
-1.2221744 3.4144015 -0.77688324
-1.201201 3.4218364 -0.77688324
-1.1827198 3.436523 -0.77864069
-1.1591194 3.4363194 -0.77688324
-1.137401 3.441514 -0.7764439
-1.1141618 3.4419305 -0.77490616
-1.0894881 3.437541 -0.77227008
-1.0666429 3.4385703 -0.77095199
-1.0446751 3.4422493 -0.770293
-1.0193751 3.4345646 -0.76699787
-0.99991101 3.4463768 -0.76831591
-0.97954291 3.4552631 -0.76897496
-0.95988351 3.4668503 -0.770293
-0.93477964 3.4585469 -0.76699787
-0.91701919 3.4774251 -0.77007329
-0.89251024 3.4707024 -0.76721752
-0.87119758 3.4761136 -0.76721752
-0.8510074 3.4861326 -0.76831591
-0.82779902 3.483695 -0.76655847
-0.80750489 3.4934616 -0.76765686
-0.78712207 3.5031102 -0.76875526
-0.76644343 3.5116868 -0.76963395
-0.74548727 3.5191867 -0.770293
-0.72505593 3.529429 -0.77161103
-0.7022453 3.5280702 -0.770293
-0.68113703 3.5351865 -0.77095199
-0.65800565 3.5316265 -0.7691946
-0.63580614 3.5327168 -0.76853555
-0.61428446 3.5375128 -0.76875526
-0.59192431 3.5373664 -0.76787657
-0.5703631 3.5418949 -0.76809621
-0.54742873 3.5376148 -0.76633883
-0.52499723 3.536082 -0.76524043
-0.50466067 3.5488958 -0.76743722
-0.48182672 3.5441916 -0.76567978
-0.46069676 3.551919 -0.76677817
-0.44056314 3.5682344 -0.76985365
-0.41752771 3.5611808 -0.76765686
-0.39738628 3.57919 -0.77117169
-0.37470758 3.574769 -0.76963395
-0.35162097 3.5653501 -0.76699787
-0.32848516 3.5538402 -0.76392239
-0.30617195 3.5499568 -0.76260436
-0.28314334 3.5362089 -0.75908953
-0.26215601 3.5476091 -0.76128626
-0.24044897 3.5501242 -0.76150596
-0.21919797 3.5602963 -0.76348305
-0.19788484 3.5713153 -0.76567978
-0.17558651 3.564667 -0.76392239
-0.15371081 3.5656774 -0.76392239
-0.13150789 3.5577791 -0.76194531
-0.10946716 3.5516932 -0.76040757
-0.087601066 3.5493722 -0.75974852
-0.065714285 3.5439904 -0.75843048
-0.04396753 3.5443268 -0.75843048
-0.022207532 3.5425789 -0.75799114
-0.00047045073 3.5416727 -0.75777143
0.021199079 3.5318534 -0.7555747
0.042808909 3.5267794 -0.75447631
0.064121336 3.508893 -0.75052214
0 0 -0
0.10687486 3.498091 -0.74832541
0.12851723 3.5022438 -0.74942374
0.15046705 3.5121107 -0.75184023
0.17162965 3.5033262 -0.75008279
0.19296031 3.499285 -0.74942374
0.2144879 3.4990089 -0.74964345
0.23555745 3.491787 -0.74832541
0.25740996 3.4961133 -0.74964345
0.27846724 3.4896057 -0.74854505
0.29953825 3.4839435 -0.74766636
0.32090968 3.4820399 -0.74766636
0.34150252 3.4722385 -0.74590898
0.36249605 3.4671671 -0.74524993
0.38279387 3.456151 -0.74327284
0.40376589 3.4517994 -0.7428335
0.42374203 3.4395747 -0.74063671
0 0 -0
0.46447268 3.4234824 -0.73822027
0.48656932 3.4282949 -0.73997772
0.50544572 3.4107699 -0.73668259
0.52711058 3.4124248 -0.73778093
0.54928023 3.4168315 -0.73953837
0.57055736 3.4153214 -0.73997772
0.59434116 3.4280961 -0.74371219
0.61761171 3.4368665 -0.74656796
0.63564944 3.4167082 -0.7428335
0.65844834 3.4223232 -0.74503022
0.67619622 3.401953 -0.74129575
0.69332629 3.3795836 -0.73712194
0.71485889 3.3790832 -0.73800063
0.73453867 3.3698678 -0.73690224
0.75199294 3.3510199 -0.73360711
0.77583683 3.3606 -0.73690224
0.79373527 3.3443868 -0.7342661
0.81400967 3.338506 -0.73404646
0.83471626 3.3343947 -0.7342661
0.85564607 3.3310997 -0.73470551
0.87706453 3.3295603 -0.7355842
0.89824164 3.3269413 -0.73624319
0.9212423 3.3307688 -0.73843998
0.94272673 3.3288078 -0.73931867
0.96530938 3.330456 -0.74107611
0.98156184 3.310442 -0.73778093
1.0027059 3.3071573 -0.73843998
1.0224012 3.2990792 -0.73800063
1.0396767 3.2834439 -0.73580384
1.0619075 3.2834997 -0.73734158
1.0783602 3.2658069 -0.73470551
1.0927647 3.2424901 -0.73075134
1.1129572 3.2366464 -0.73097098
1.1253624 3.2085853 -0.72591847
1.1453576 3.2025383 -0.72613811
1.1626451 3.1890352 -0.72460037
1.1825309 3.1827557 -0.72482008
1.2089515 3.1936853 -0.7292136
1.2320377 3.1953084 -0.73141032
1.2523342 3.1895046 -0.73184967
0 0 -0
1.291748 3.1747999 -0.73206937
1.3093363 3.162308 -0.73097098
1.3271991 3.1506188 -0.73009229
1.342276 3.1325536 -0.72767586
1.364592 3.131412 -0.72943324
1.3794296 3.1131704 -0.72701681
1.4009116 3.1099839 -0.7283349
1.4207805 3.1031034 -0.72877425
1.4381466 3.0907896 -0.72789556
1.4608399 3.0898435 -0.72987258
1.4810394 3.0834596 -0.73053163
1.5016435 3.0778208 -0.73141032
1.5270021 3.0816588 -0.73470551
1.5450045 3.0704887 -0.7342661
1.5629272 3.0592136 -0.73382676
1.5834666 3.0530295 -0.73470551
1.5994413 3.0380776 -0.73338741
1.6166723 3.0256255 -0.73272842
1.6310189 3.0079317 -0.73075134
1.6494445 2.9978673 -0.73075134
1.6682838 2.9885418 -0.73097098
1.6841847 2.9740055 -0.72987258
1.7067771 2.9712274 -0.73184967
1.7215363 2.9547997 -0.73031199
1.7450964 2.953418 -0.73272842
1.7737212 2.9602249 -0.73734158
1.7847558 2.9376156 -0.7342661
1.8063307 2.9324224 -0.73580384
1.8222215 2.9179747 -0.73492515
0 0 -0
1.8573653 2.8945725 -0.73470551
1.8734945 2.8806686 -0.73404646
1.8895233 2.8666756 -0.73338741
1.9087037 2.857461 -0.73404646
1.9229181 2.8408494 -0.73272842
1.9419693 2.8314102 -0.73338741
1.9565209 2.8154364 -0.73228908
1.9765687 2.8073659 -0.73338741
1.9977247 2.8007433 -0.73492515
2.0125856 2.7852707 -0.73404646
2.035979 2.7815266 -0.73646289
2.0501013 2.7650642 -0.7353645
2.061754 2.745414 -0.73338741
2.077379 2.731159 -0.73294806
2.0881417 2.7106347 -0.73075134
2.1065357 2.700078 -0.73141032
2.1212482 2.6848059 -0.73075134
2.1401207 2.6747859 -0.73163003
2.1571071 2.6623616 -0.73184967
2.1764977 2.6528459 -0.73294806
2.1952291 2.642442 -0.73382676
2.2126579 2.6304152 -0.7342661
2.2363498 2.6256988 -0.73690224
2.2460451 2.6045415 -0.73470551
2.2741799 2.6046698 -0.73887932
2.2946436 2.5957816 -0.74041706
2.3137822 2.5852866 -0.74151546
2.3348439 2.5768228 -0.74327284
2.3446736 2.5559797 -0.74129575
2.3636332 2.5451181 -0.74239415
2.3778684 2.529146 -0.7419548
2.3893051 2.5102696 -0.74063671
2.4033086 2.4941573 -0.74019736
2.421293 2.4821563 -0.74107611
2.4364777 2.4672527 -0.74107611
2.4550204 2.4557049 -0.74217445
2.4721246 2.4426513 -0.7428335
2.4856691 2.4260743 -0.74239415
2.4991033 2.4094231 -0.7419548
2.5096002 2.3900082 -0.74063671
2.5185313 2.3692188 -0.73887932
2.534451 2.3550487 -0.73931867
2.543102 2.3341777 -0.73756129
2.571836 2.3316298 -0.7419548
2.587548 2.3171065 -0.74239415
2.6046407 2.3037703 -0.74327284
2.6165226 2.2858205 -0.74261379
2.6290212 2.2684486 -0.74217445
2.642148 2.251642 -0.7419548
2.6581538 2.2372715 -0.74261379
2.6665783 2.2165558 -0.74107611
2.6816373 2.2013898 -0.74151546
2.6958523 2.1855083 -0.7417351
2.7107351 2.1701446 -0.74217445
2.7194068 2.1498423 -0.74085641
2.7371619 2.1367161 -0.74217445
2.7494483 2.1192858 -0.7419548
2.7647297 2.1041472 -0.74261379
2.7822692 2.0906584 -0.74393189
2.7981796 2.0758712 -0.74481058
2.810077 2.0580866 -0.74459088
2.8226523 2.0408056 -0.74459088
2.8359156 2.0240142 -0.74481058
2.8474836 2.0060136 -0.74459088
2.8597386 1.9885041 -0.74459088
2.871886 1.9709196 -0.74459088
2.8815014 1.9516206 -0.74393189
2.8950448 1.9349869 -0.74437124
2.9101214 1.9193343 -0.74524993
2.9112113 1.894528 -0.74239415
2.9359188 1.8850585 -0.74590898
2.9391868 1.8617909 -0.74371219
2.9571753 1.847855 -0.74546963
2.9643044 1.8271172 -0.74437124
2.9779611 1.8104137 -0.74503022
2.9873397 1.7911044 -0.74459088
3.0007932 1.7742294 -0.74524993
3.0082514 1.7538192 -0.74437124
3.0164182 1.7338703 -0.74371219
3.0278492 1.7158099 -0.74393189
3.0391719 1.6976745 -0.74415153
3.0426934 1.6752326 -0.74239415
3.0563457 1.6583915 -0.74327284
3.0819523 1.6478817 -0.74722701
3.0842361 1.6248504 -0.74524993
3.0976121 1.6076918 -0.74612862
3.1065495 1.5882111 -0.74590898
3.1171076 1.5695581 -0.74612862
3.1240571 1.5491031 -0.74546963
3.1343803 1.5303328 -0.74568927
3.1428318 1.5106494 -0.74546963
3.1538057 1.4921709 -0.74590898
3.1673248 1.474849 -0.74700731
3.182524 1.4582294 -0.74854505
3.1958592 1.4406776 -0.74964345
3.2153423 1.425783 -0.75227958
3.2249246 1.4064169 -0.75249922
3.235287 1.3873711 -0.75293857
3.2500324 1.3701444 -0.75447631
3.2556741 1.3490573 -0.75381732
3.254854 1.3253793 -0.75162053
3.2719839 1.3090036 -0.75381732
3.2681489 1.2842679 -0.75096148
3.2823393 1.2666472 -0.75249922
3.2891371 1.246138 -0.75227958
3.3003795 1.2272917 -0.75315827
3.3023484 1.2050132 -0.75184023
3.3115172 1.1853846 -0.75227958
3.3150458 1.1637518 -0.75140083
3.3221242 1.1433892 -0.75140083
3.3318508 1.1239181 -0.75205988
3.3405371 1.1040647 -0.75249922
3.3472486 1.0835468 -0.75249922
3.3584845 1.0644603 -0.75359762
3.3770671 1.0475864 -0.75645339
3.3890331 1.0285436 -0.75777143
3.3980863 1.0085613 -0.75843048
3.4117069 0.98986429 -0.76018786
3.4177163 0.96891183 -0.76018786
3.409493 0.94402266 -0.75689274
3.4218142 0.92486435 -0.75843048
3.4113867 0.89962733 -0.75469601
3.4196773 0.87940651 -0.755355
3.4287944 0.85935462 -0.75623375
3.4340026 0.83829975 -0.75623375
3.461863 0.82261884 -0.76150596
3.4649441 0.80092293 -0.76106662
3.4783604 0.78156942 -0.7630437
3.4745119 0.75834244 -0.76106662
3.4666915 0.73438472 -0.75821084
3.4663539 0.71211964 -0.75711244
3.4563053 0.68798506 -0.75381732
3.4518394 0.66510624 -0.75184023
3.4616103 0.64498389 -0.75315827
3.4616618 0.62304175 -0.75227958
3.4740708 0.60328907 -0.75425667
3.485405 0.58324677 -0.75601405
3.4850652 0.5612306 -0.75513536
3.5086904 0.54296243 -0.75974852
3.5177462 0.52228105 -0.76106662
3.517987 0.50027561 -0.76040757
3.5180902 0.47828695 -0.75974852
3.5190237 0.45644102 -0.75930917
3.5120754 0.43364778 -0.75711244
3.5107942 0.41163677 -0.75623375
3.5200415 0.39083859 -0.75777143
3.5078189 0.36771184 -0.75447631
3.5100093 0.34618133 -0.75447631
3.5159531 0.3249957 -0.755355
3.520797 0.30366665 -0.75601405
3.5303738 0.28267807 -0.75777143
3.5271771 0.2606529 -0.7566731
3.5277367 0.23894005 -0.75645339
3.5330315 0.21752828 -0.75733209
3.5294292 0.19557764 -0.75623375
3.5227675 0.17353636 -0.75447631
3.5315635 0.15225139 -0.75623375
3.5207322 0.13015066 -0.75359762
3.5312157 0.10884274 -0.75579435
3.5249901 0.087007307 -0.75425667
3.5166788 0.065216847 -0.75227958
3.5209148 0.043684803 -0.75315827
3.5240433 0.022097439 -0.75381732
3.5124056 0.00047619734 -0.75118119
3.5211225 -0.021131126 -0.75315827
3.5238531 -0.04277242 -0.75381732
3.5147455 -0.064230233 -0.75184023
3.5142853 -0.085795097 -0.75184023
3.5136926 -0.10735673 -0.75184023
3.5197921 -0.12916702 -0.75337791
3.5257559 -0.15105619 -0.75491565
3.5267115 -0.17278311 -0.755355
3.5187664 -0.19404107 -0.75381732
3.5194571 -0.21574819 -0.75425667
3.5287738 -0.23806497 -0.7566731
3.5107069 -0.25848934 -0.75293857
3.515862 -0.28057125 -0.75447631
3.518934 -0.30255836 -0.7555747
3.4995258 -0.32252705 -0.75162053
3.5052476 -0.34476018 -0.75337791
3.5020959 -0.36615974 -0.75315827
3.4813609 -0.38559461 -0.7489844
3.4857118 -0.40774426 -0.75052214
3.4812078 -0.42888528 -0.75008279
3.4678688 -0.44885644 -0.74766636
3.4805162 -0.47223017 -0.75118119
3.4775531 -0.49357733 -0.75118119
3.4734941 -0.51476258 -0.75096148
3.480875 -0.53770763 -0.75337791
3.4707682 -0.55796957 -0.75184023
3.4701657 -0.57973856 -0.75249922
0 -0 -0
3.469511 -0.62348926 -0.75403696
3.4819241 -0.64780492 -0.75777143
3.4836314 -0.6702652 -0.75908953
3.4737124 -0.6904847 -0.75777143
3.4713213 -0.71217877 -0.75821084
3.4554336 -0.73103809 -0.7555747
3.43468 -0.74868894 -0.75184023
3.4195514 -0.76739633 -0.74942374
3.4071743 -0.78660566 -0.74766636
3.4070294 -0.80862486 -0.74876475
3.4020035 -0.8295148 -0.74876475
3.3987424 -0.85084796 -0.7492041
3.3934577 -0.87168622 -0.7492041
3.3880453 -0.8924917 -0.7492041
3.3777964 -0.91199046 -0.7481057
3.3740172 -0.93321985 -0.74854505
3.3644733 -0.95284027 -0.74766636
3.3576267 -0.97319448 -0.74744672
3.3609443 -0.99655461 -0.74964345
3.3613009 -1.0191418 -0.75118119
3.3661654 -1.0432165 -0.75381732
3.3652806 -1.0656201 -0.75513536
3.3558943 -1.0853474 -0.75447631
3.3491716 -1.1059184 -0.75447631
3.3404741 -1.125824 -0.75403696
3.3298135 -1.1450293 -0.75315827
3.3190432 -1.1641463 -0.75227958
3.307245 -1.1828455 -0.75118119
3.3026743 -1.2041194 -0.75184023
3.2842515 -1.2202806 -0.7492041
3.279439 -1.2414465 -0.74986315
3.2635686 -1.2583839 -0.74788606
3.2503381 -1.2762438 -0.74656796
3.2487862 -1.2987005 -0.7481057
3.2479844 -1.3215541 -0.74986315
3.2452219 -1.3436995 -0.75118119
3.236017 -1.3632075 -0.75096148
3.2365575 -1.386883 -0.75315827
3.2279868 -1.4067161 -0.75315827
3.2085931 -1.4217499 -0.75052214
3.1971409 -1.4402078 -0.74986315
3.1882439 -1.459798 -0.74986315
3.1801109 -1.479745 -0.75008279
3.1718533 -1.4996473 -0.75030249
3.1687467 -1.52204 -0.75184023
3.161978 -1.5427387 -0.75249922
3.1428385 -1.5573432 -0.75008279
3.1410654 -1.5805472 -0.75205988
3.1130674 -1.5904638 -0.74744672
3.0989206 -1.607288 -0.74634832
3.0941787 -1.6290009 -0.74766636
3.0669193 -1.6387547 -0.74327284
3.0670958 -1.663126 -0.74590898
3.0568333 -1.6819141 -0.74590898
3.0600824 -1.7082517 -0.74942374
3.053787 -1.729401 -0.75052214
3.0498843 -1.7519959 -0.75227958
3.0432906 -1.7731336 -0.75337791
3.0298343 -1.7902839 -0.75271893
3.0254858 -1.8128545 -0.75447631
3.0101376 -1.8288503 -0.75337791
2.9938765 -1.8442141 -0.75205988
2.9825041 -1.8625494 -0.75205988
2.9644268 -1.8766379 -0.75030249
2.9512143 -1.8937378 -0.74986315
2.941992 -1.913407 -0.75052214
2.9261243 -1.9287368 -0.74942374
2.9231563 -1.9526186 -0.75184023
2.9111202 -1.970518 -0.75184023
2.9046049 -1.9922076 -0.75337791
2.9075441 -2.0205753 -0.75755179
2.8974838 -2.0400634 -0.75821084
2.8809414 -2.0549698 -0.75711244
2.8643255 -2.0697498 -0.75601405
2.8484237 -2.0849802 -0.75513536
2.8300924 -2.0983493 -0.75359762
2.8202837 -2.1180193 -0.75447631
2.8033531 -2.1323302 -0.75337791
2.7925346 -2.151278 -0.75403696
2.780051 -2.1689725 -0.75425667
2.7651596 -2.1847796 -0.75381732
2.7532251 -2.2029247 -0.75425667
2.7388985 -2.2191622 -0.75403696
2.7267385 -2.237164 -0.75447631
2.7084589 -2.2501111 -0.75315827
2.6931088 -2.2654309 -0.75271893
2.6784153 -2.28128 -0.75249922
2.6710145 -2.3034079 -0.75447631
2.6590347 -2.3216791 -0.75513536
2.6535077 -2.3457074 -0.75777143
2.6383381 -2.361294 -0.75755179
2.6194634 -2.3735065 -0.75623375
2.6012571 -2.386236 -0.75513536
2.5865664 -2.4021521 -0.75513536
2.563252 -2.4099557 -0.75249922
2.5505357 -2.4276567 -0.75315827
2.5419123 -2.4493554 -0.75513536
2.5310242 -2.4689949 -0.75645339
2.5206847 -2.4892783 -0.75799114
2.508122 -2.507458 -0.75886983
2.4913185 -2.5214121 -0.75843048
2.4758005 -2.5366509 -0.75843048
2.4581585 -2.5496869 -0.75777143
2.4424677 -2.5647218 -0.75777143
2.4260168 -2.5789495 -0.75755179
2.4068277 -2.5902121 -0.75645339
2.3862731 -2.5998988 -0.75491565
2.3748605 -2.6195526 -0.75645339
2.3528876 -2.6275322 -0.75447631
2.3347828 -2.6397271 -0.75381732
2.3185418 -2.6540034 -0.75381732
2.3053987 -2.6718738 -0.75491565
2.2857985 -2.6822555 -0.75381732
2.2642736 -2.6902575 -0.75205988
2.2508409 -2.7078526 -0.75315827
2.2360396 -2.7238753 -0.75381732
2.2211266 -2.7398181 -0.75447631
2.2079301 -2.7579658 -0.75579435
2.1885469 -2.7683995 -0.75491565
2.1721191 -2.7825451 -0.75513536
2.155005 -2.7958207 -0.75513536
2.1324944 -2.8020022 -0.75315827
2.1158473 -2.8158145 -0.75337791
2.102016 -2.8334463 -0.75469601
2.0828621 -2.8439288 -0.75403696
2.0699437 -2.8629818 -0.75579435
2.050072 -2.8724518 -0.75491565
2.0307236 -2.8825834 -0.75425667
2.0202348 -2.9054046 -0.75711244
1.9963003 -2.9088955 -0.75469601
1.9784141 -2.9210899 -0.75469601
1.9620789 -2.9356081 -0.755355
1.9434925 -2.9467773 -0.75513536
1.921652 -2.9529219 -0.75359762
1.9061311 -2.9687629 -0.75469601
1.8863139 -2.9779298 -0.75403696
1.8711064 -2.9944129 -0.755355
1.8480933 -2.9983616 -0.75337791
1.8306739 -3.0113125 -0.75381732
1.8161734 -3.0291834 -0.7555747
1.7915977 -3.0301912 -0.75293857
1.7714978 -3.0385981 -0.75227958
1.7562213 -3.0553324 -0.75381732
1.7326341 -3.0575616 -0.75162053
1.7357124 -3.1073208 -0.7617256
1.7109708 -3.1076553 -0.75908953
1.6974502 -3.1283867 -0.7617256
1.6864976 -3.1542318 -0.76567978
1.6580234 -3.1472549 -0.76128626
1.6323932 -3.1452446 -0.75821084
1.6148388 -3.1586766 -0.75908953
1.5875349 -3.1528387 -0.75513536
1.5664272 -3.1590238 -0.75425667
1.5487252 -3.1720829 -0.75513536
1.5338783 -3.1911995 -0.75755179
1.5201057 -3.212899 -0.76062727
1.4991286 -3.2195122 -0.75996822
1.480158 -3.2304242 -0.76040757
1.4591067 -3.2367768 -0.75974852
1.4435656 -3.2554803 -0.76216495
1.4235631 -3.2642765 -0.76216495
1.3981285 -3.2603955 -0.75908953
1.3792328 -3.2716103 -0.75974852
0 -0 -0
0 -0 -0
0 -0 -0
1.29425 -3.2935758 -0.75711244
1.2754203 -3.3050961 -0.75799114
1.2526993 -3.306473 -0.75645339
1.238163 -3.3296437 -0.76018786
1.2170411 -3.3353453 -0.75974852
0 -0 -0
0 -0 -0
0 -0 -0
0 -0 -0
1.1089581 -3.3553593 -0.75601405
1.0856478 -3.3537464 -0.75403696
1.062988 -3.3538342 -0.75249922
1.0389245 -3.3491111 -0.74986315
1.0194873 -3.3591571 -0.75074184
0 -0 -0
0 -0 -0
0 -0 -0
0.94298261 -3.4057317 -0.75601405
0.92486435 -3.4218142 -0.75843048
0.90260881 -3.4227076 -0.75733209
0.88086247 -3.4253466 -0.7566731
0.8584072 -3.4250088 -0.755355
0.83668244 -3.4273679 -0.75469601
0.81766379 -3.4409802 -0.7566731
0.79434097 -3.4364266 -0.75447631
0.77324051 -3.441236 -0.75447631
0.75169545 -3.4440093 -0.75403696
0.72913623 -3.4418757 -0.75249922
0.70682752 -3.4405506 -0.75118119
0.68513298 -3.4419522 -0.75052214
0.664922 -3.4508815 -0.75162053
0.64177305 -3.444346 -0.7492041
0.62321424 -3.4626219 -0.75249922
0.60345566 -3.4750321 -0.75447631
0.58212191 -3.4786694 -0.75447631
0.56324285 -3.497587 -0.75799114
0.54296243 -3.5086904 -0.75974852
0.52013671 -3.5032706 -0.75777143
0.49767202 -3.4996347 -0.75623375
0.47671369 -3.5064895 -0.75711244
0.45368728 -3.4977384 -0.75447631
0.43114394 -3.4917419 -0.75249922
0.41016406 -3.4981976 -0.75337791
0.38826242 -3.4967699 -0.75249922
0.36700213 -3.5010269 -0.75293857
0.34541789 -3.5022421 -0.75271893
0.32392204 -3.5042956 -0.75271893
0.30324909 -3.5159371 -0.75491565
0.28252298 -3.5284288 -0.75733209
0.26129711 -3.5359337 -0.75865018
0.23946489 -3.5355237 -0.75821084
0.21782644 -3.5379002 -0.75843048
0.19595324 -3.536248 -0.75777143
0.17339334 -3.5198443 -0.75381732
0.15220968 -3.5305889 -0.75601405
0.1302578 -3.5236568 -0.75425667
0.10890221 -3.5331659 -0.75623375
0.087292314 -3.5366936 -0.75689274
0.065660983 -3.541064 -0.75777143
0.043920409 -3.5404248 -0.75755179
0.022236504 -3.5474565 -0.75908953
0.00046968454 -3.5455751 -0.75865018
-0.021254677 -3.5406334 -0.75755179
-0.042991359 -3.5414119 -0.75777143
-0.064520612 -3.5303521 -0.755355
-0.085795097 -3.5142853 -0.75184023
-0.1074772 -3.5175931 -0.75271893
-0.12844503 -3.500294 -0.7489844
-0.1499621 -3.5004146 -0.7492041
-0.17235056 -3.517942 -0.75337791
-0.19360878 -3.5109739 -0.75205988
-0.2161683 -3.526273 -0.75579435
-0.23780103 -3.5248804 -0.75579435
-0.25863326 -3.5126529 -0.75337791
-0.28150639 -3.5275314 -0.75711244
-0.30289394 -3.5228219 -0.75645339
-0.32369518 -3.5121543 -0.75447631
-0.34590995 -3.5168979 -0.75601405
-0.3675845 -3.5156796 -0.75623375
-0.38871849 -3.5094795 -0.755355
-0.40990394 -3.5041215 -0.75469601
-0.43055981 -3.4947629 -0.75315827
-0.45124188 -3.4862504 -0.75184023
-0.47183573 -3.4776161 -0.75052214
-0.49302769 -3.4736896 -0.75030249
-0.51404589 -3.4686692 -0.74986315
-0.53472257 -3.4615934 -0.7489844
-0.55905575 -3.4775102 -0.75337791
-0.58134925 -3.4797876 -0.75469601
-0.60402572 -3.4838445 -0.75645339
-0.62590939 -3.4829531 -0.75711244
-0.6456598 -3.4704154 -0.75513536
-0.66915739 -3.4778838 -0.75777143
-0.6904847 -3.4737124 -0.75777143
-0.71001858 -3.4608097 -0.75579435
-0.732656 -3.4630687 -0.75733209
-0.75222647 -3.4508832 -0.7555747
-0.77167505 -3.4385879 -0.75381732
-0.79341859 -3.4366398 -0.75447631
-0.81426489 -3.4307575 -0.75425667
-0.83692026 -3.4323308 -0.75579435
-0.86057442 -3.4375403 -0.75821084
-0.88237965 -3.4350295 -0.75886983
-0.90095174 -3.4201176 -0.7566731
-0.92115641 -3.4116998 -0.75601405
-0.94181246 -3.4050434 -0.75579435
-0.95683247 -3.378552 -0.75096148
-0.97672915 -3.3698065 -0.75030249
-0.99849808 -3.367491 -0.75118119
-1.0180084 -3.3575668 -0.75030249
-1.0400363 -3.355916 -0.75140083
-1.0617875 -3.3531911 -0.75227958
-1.0829433 -3.3484693 -0.75271893
-1.1040812 -3.3436139 -0.75315827
-1.1236408 -3.3340034 -0.75249922
-1.1437591 -3.3261237 -0.75227958
-1.1612375 -3.3107588 -0.75030249
-1.1779128 -3.293468 -0.74788606
-1.19743 -3.2843454 -0.74744672
-1.21824 -3.2787652 -0.74788606
-1.2390267 -3.2730529 -0.74832541
-1.2583839 -3.2635686 -0.74788606
-1.2830242 -3.2675893 -0.75074184
-1.3081236 -3.2723358 -0.75381732
-1.3292816 -3.2669582 -0.75447631
-1.3530374 -3.2677529 -0.7566731
-1.3749576 -3.2638838 -0.75777143
-1.3930358 -3.2509029 -0.7566731
-1.4141269 -3.244977 -0.75733209
-1.4320334 -3.2317798 -0.75623375
-1.4494305 -3.2175961 -0.75491565
-1.4728038 -3.216624 -0.75689274
-1.4921011 -3.2066422 -0.7566731
-1.5192597 -3.2132993 -0.76062727
-1.5326072 -3.1907279 -0.75733209
-1.5517282 -3.1803873 -0.75711244
-1.5699131 -3.1681843 -0.75645339
-1.5888844 -3.1576204 -0.75623375
-1.6073411 -3.1460745 -0.75579435
-1.6266147 -3.136153 -0.75579435
-1.6476462 -3.1295655 -0.7566731
-1.6704983 -3.1262791 -0.75843048
-1.6938372 -3.1236875 -0.76040757
-1.7153248 -3.1175084 -0.76150596
-1.7363244 -3.1103313 -0.76238465
-1.7553763 -3.0996189 -0.76238465
-1.7758209 -3.091327 -0.7630437
-1.7977039 -3.0854292 -0.76436174
-1.8225607 -3.0844176 -0.76699787
-1.8419536 -3.0740132 -0.76721752
-1.8623013 -3.0651541 -0.76787657
-1.8820976 -3.0553303 -0.76831591
-1.9018433 -3.0453792 -0.76875526
-1.9178832 -3.0295317 -0.76765686
-1.9353817 -3.0160649 -0.76721752
-1.9549158 -3.0057683 -0.76765686
-1.9727849 -2.992902 -0.76743722
-1.9894854 -2.978308 -0.76677817
-2.0099108 -2.9692755 -0.76765686
-2.0258839 -2.9536695 -0.76677817
-2.0434122 -2.9403825 -0.76655847
-2.0625393 -2.929384 -0.76699787
-2.0810416 -2.9174674 -0.76721752
-2.0971887 -2.9022717 -0.76655847
-2.1178398 -2.8932841 -0.76765686
-2.1372967 -2.8825853 -0.76831591
-2.1537714 -2.867857 -0.76787657
-2.1731005 -2.8569167 -0.76853555
-2.184633 -2.8358026 -0.76633883
-2.1965888 -2.8154237 -0.76436174
-2.2101922 -2.7973011 -0.7630437
-2.2218268 -2.7768331 -0.76106662
-2.2345223 -2.7578433 -0.75952888
-2.2520213 -2.7448347 -0.75974852
-2.2650788 -2.7264636 -0.75843048
-2.2823937 -2.7132604 -0.75865018
-2.2964678 -2.6962349 -0.75777143
-2.3085067 -2.6769233 -0.75623375
-2.322963 -2.6605041 -0.7555747
-2.3340728 -2.6403549 -0.75381732
-2.3463247 -2.6216233 -0.75249922
-2.3623664 -2.607177 -0.75249922
-2.374361 -2.5883207 -0.75118119
-2.3862133 -2.5694153 -0.74986315
-2.4012654 -2.5540149 -0.74964345
-2.406126 -2.5279303 -0.74612862
-2.418206 -2.5096076 -0.74503022
-2.4281075 -2.4891374 -0.74327284
-2.437849 -2.4686406 -0.74151546
-2.441221 -2.441911 -0.73778093
-2.458241 -2.4289422 -0.73843998
-2.4654162 -2.4063201 -0.73602355
-2.4745142 -2.3857322 -0.7342661
-2.4820395 -2.3637784 -0.73206937
-2.4957857 -2.3478363 -0.73184967
-2.502281 -2.325176 -0.72943324
-2.5121872 -2.3058219 -0.7281152
-2.5197814 -2.2844689 -0.72613811
-2.5272083 -2.2631097 -0.72416103
-2.5388539 -2.2456222 -0.72350204
-2.5481756 -2.2261522 -0.72218394
-2.557354 -2.2066526 -0.72086591
-2.5730739 -2.192817 -0.72152495
-2.5842404 -2.1751037 -0.72086591
-2.5952866 -2.157336 -0.72020686
-2.605458 -2.138896 -0.71932817
-2.6086786 -2.1148856 -0.71647239
-2.6155119 -2.0939636 -0.71471494
-2.6198902 -2.0712235 -0.71229851
-2.6279345 -2.0515087 -0.71098047
-2.6350627 -2.0311782 -0.70944273
-2.6412642 -2.010247 -0.70768535
-2.6480882 -1.9899021 -0.70614761
-2.6516275 -1.9672253 -0.70373118
-2.6573503 -1.9463089 -0.7019738
-2.6621256 -1.924825 -0.69999671
-2.6778572 -1.9112866 -0.70109504
-2.6903319 -1.8953812 -0.70131475
-2.6947007 -1.8738278 -0.69933766
-2.6989067 -1.8522924 -0.69736058
-2.7045658 -1.8318697 -0.69582283
-2.7100761 -1.8114474 -0.69428509
-2.7097359 -1.7872686 -0.69120967
-2.7108371 -1.7642263 -0.68857354
-2.7207901 -1.7470329 -0.68835384
-2.7298098 -1.729262 -0.68791449
-2.7378864 -1.7109295 -0.6872555
-2.7433491 -1.6910282 -0.6859374
-2.7520058 -1.6731505 -0.68549806
-2.7613835 -1.6557317 -0.68527842
-2.7664511 -1.6357796 -0.68396032
-2.7671635 -1.6133723 -0.68154389
-2.7727811 -1.5939336 -0.68044555
-2.7757175 -1.5730445 -0.67868811
-2.7819099 -1.5540816 -0.67780942
-2.7862647 -1.5341614 -0.67649138
-2.7913375 -1.5147114 -0.67539299
-2.7979977 -1.4961765 -0.67473394
-2.8010824 -1.4757991 -0.6731962
-2.8057547 -1.4563386 -0.67209786
-2.821588 -1.4426458 -0.67385525
-2.8277724 -1.4239902 -0.6731962
-2.8390791 -1.4079119 -0.67385525
-2.8485413 -1.3908929 -0.67407495
-2.8526249 -1.3712766 -0.67297655
-2.8565753 -1.3516628 -0.67187816
-2.8559699 -1.3299946 -0.66968143
-2.8525453 -1.3071666 -0.66682559
-2.8551753 -1.2872353 -0.66550756
-2.8639116 -1.2700871 -0.66572726
-2.8680735 -1.2509319 -0.66484851
-2.8747983 -1.2329259 -0.66462886
-2.8787129 -1.2137486 -0.66375017
-2.8797965 -1.1934502 -0.66221243
-2.8843541 -1.1746547 -0.66155338
-2.8842602 -1.154038 -0.659796
-2.8985517 -1.1391708 -0.66155338
-2.9036665 -1.1206623 -0.66111404
-0.27363038 -0.10481176 -0.026250584
-0.30170363 -0.11332267 -0.032840863
-0.28314519 -0.104453 -0.028227666
-0.28929242 -0.10468456 -0.029545723
-0.28440565 -0.1009705 -0.028227666
-0.27948442 -0.097320423 -0.026909612
-0.27545381 -0.094046131 -0.025811231
-0.27139372 -0.090825021 -0.024712851
-0.27287415 -0.089458212 -0.024932528
-0.26969761 -0.086604424 -0.024053825
-0.27022392 -0.084947959 -0.024053825
-0.27447453 -0.084420338 -0.024932528
-0.27592272 -0.083011881 -0.025152205
-0.27923793 -0.082131885 -0.025811231
-0.27973664 -0.08041697 -0.025811231
-0.27834421 -0.078178994 -0.025371879
-0.28164428 -0.077232353 -0.026030907
-0.28022605 -0.075005852 -0.025591556
-0.27123189 -0.070858389 -0.023394797
-0.2754471 -0.070140243 -0.0242735
-0.27302882 -0.067755669 -0.023614472
-0 -0 -0
-0 -0 -0
-0 -0 -0
-0 -0 -0
-0.27593321 -0.059550546 -0.023834148
-0 -0 -0
-0.2737726 -0.055589527 -0.02317512
-0 -0 -0
-0 -0 -0
-0 -0 -0
-0 -0 -0
-0 -0 -0
-0 -0 -0
-0 -0 -0
-0 -0 -0
-0 -0 -0
-0 -0 -0
-0 -0 -0
-0 -0 -0
-0 -0 -0
-0 -0 -0
-0 -0 -0
-0.27693215 -0.028392008 -0.022955444
-0 -0 -0
-0.28017569 -0.025242019 -0.023614472
-0.28129777 -0.023599964 -0.023834148
-0.28338316 -0.022016661 -0.0242735
-0 -0 -0
-0.28363201 -0.018537456 -0.0242735
-0.28081813 -0.016635807 -0.023614472
-0.2809149 -0.014912426 -0.023614472
-0.28100112 -0.013188484 -0.023614472
-0.28107676 -0.011464045 -0.023614472
-0.28309205 -0.0097986432 -0.024053825
-0 -0 -0
-0 -0 -0
-0.27834696 -0.0045272824 -0.022955444
-0.27641836 -0.0028077036 -0.022516092
-0.27350366 -0.0011121542 -0.021857064
-0.27252981 0.00055987609 -0.021637389
-0.27057025 0.0022077505 -0.021198036
-0.27055159 0.0038678965 -0.021198036
-0.26954749 0.0055037639 -0.020978361
-0.2734091 0.0072780405 -0.021857064
-0 0 -0
-0 0 -0
-0.27907512 0.012597737 -0.02317512
-0.28094074 0.014417949 -0.023614472
-0.28084698 0.016141498 -0.023614472
-0.27782261 0.017666476 -0.022955444
-0 -0 -0
-0 -0 -0
-0 -0 -0
-0 -0 -0
-0 -0 -0
-0 0 -0
-0 0 -0
-0 0 -0
-0 0 -0
-0 0 -0
-0 0 -0
-0 0 -0
-0 0 -0
-0 0 -0
-0 0 -0
-0 0 -0
-0 0 -0
-0 0 -0
-0 0 -0
-0 0 -0
-0 0 -0
-0 0 -0
-0 0 -0
-0 0 -0
-0 0 -0
-0 0 -0
-0 0 -0
-0 0 -0
-0 0 -0
-0 0 -0
-0 0 -0
-0 0 -0
-0 0 -0
-0 0 -0
-0 0 -0
-0 0 -0
-0 0 -0
-0 0 -0
-0 0 -0
-0 0 -0
-0 0 -0
-0 0 -0
-0 0 -0
-0 0 -0
-0 0 -0
-0 0 -0
-0 0 -0
-0 0 -0
-0 0 -0
-0 0 -0
-0 0 -0
-0 0 -0
-0 0 -0
-0 0 -0
-0 0 -0
-0 0 -0
-0 0 -0
-0 0 -0
-0 0 -0
-0 0 -0
-0 0 -0
-0 0 -0
-0 0 -0
-0 0 -0
-0 0 -0
-0 0 -0
-0 0 -0
-0 0 -0
-0 0 -0
-0 0 -0
-0 0 -0
-0 0 -0
-0 0 -0
-0 0 -0
-0 0 -0
-0 0 -0
-0 0 -0
-0 0 -0
-0 0 -0
-0 0 -0
-0 0 -0
-0 0 -0
-0 0 -0
-0 0 -0
-0 0 -0
-0 0 -0
-0 0 -0
-0 0 -0
-0 0 -0
-0 0 -0
-0 0 -0
-0 0 -0
-0 0 -0
-0 0 -0
-0 0 -0
-0 0 -0
-0 0 -0
-0 0 -0
-0 0 -0
-0 0 -0
-0 0 -0
-0 0 -0
-0.26975691 0.18545377 -0.037698071
-0.24304333 0.16933946 -0.030314738
-0.23881707 0.16858724 -0.029391823
-0.23777814 0.17004941 -0.029391823
-0.26512441 0.19201809 -0.037698071
-0.263156 0.19306661 -0.037467342
-0.25336799 0.18830384 -0.03492932
-0.2841101 0.21380812 -0.044389214
-0.2603322 0.19846673 -0.037698071
-0.28377756 0.21905968 -0.045081399
-0.28549698 0.22319056 -0.046004318
-0.25663498 0.20322497 -0.037698071
-0.26222152 0.21026619 -0.03977463
-0.26243857 0.21309613 -0.040236089
-0.24908927 0.20482887 -0.036544424
-0.28749833 0.2393035 -0.048773065
-0.26219505 0.22102205 -0.041389734
-0.26676047 0.22767341 -0.043235566
-0.25283065 0.21850461 -0.039313175
-0.25734934 0.2251709 -0.041159008
-0.28877136 0.25574225 -0.051541816
-0.28719673 0.25750932 -0.051541816
-0.2683045 0.24358828 -0.046004318
-0.28473216 0.26167193 -0.051772542
-0.26529509 0.24686246 -0.046004318
-0.249596 0.23515706 -0.041389734
-0.27070412 0.25814864 -0.048773065
-0.28172833 0.27195621 -0.05292619
-0.26751587 0.26145115 -0.048773065
-0.2659066 0.26308769 -0.048773065
-0.27873936 0.27915943 -0.053618375
-0.27907312 0.28294069 -0.054310564
-0.27665207 0.28395146 -0.054079834
-0.26072085 0.27093494 -0.049234524
-0.24965805 0.26266599 -0.046004318
-0.26804474 0.28545237 -0.05292619
-0.24376631 0.26285899 -0.045081399
-0.2526772 0.2758182 -0.048773065
-0 0 -0
-0.24148335 0.27020058 -0.046004318
-0 0 -0
-0.23430797 0.26874733 -0.044619944
-0 0 -0
-0 0 -0
-0 0 -0
-0.24070527 0.29012886 -0.049465254
-0 0 -0
-0 0 -0
-0 0 -0
-2.1074114 2.665818 -0.76587909
-0 0 -0
-0 0 -0
-2.0809703 2.7343514 -0.77487749
-2.0699995 2.7548468 -0.77718478
-2.0588551 2.7753103 -0.77949208
-2.0440874 2.7910306 -0.780415
-2.0178006 2.7909052 -0.77672333
-0 0 -0
-1.9856418 2.8186381 -0.77764624
-1.9688652 2.8315675 -0.77787697
-1.9520047 2.8443971 -0.7781077
-1.9328778 2.853904 -0.77741551
-1.9185748 2.8705637 -0.77879989
-1.9062833 2.890404 -0.78110719
-1.889043 2.9028618 -0.78133792
-1.8701442 2.9127605 -0.78087646
-1.8480706 2.9176054 -0.77903062
-1.8337437 2.9346657 -0.78064573
-1.816213 2.9466903 -0.78087646
-1.7986038 2.9586103 -0.78110719
-1.7809167 2.9704251 -0.78133792
-1.7577039 2.9729216 -0.77903062
-1.7428604 2.9895344 -0.78064573
-1.7196343 2.9917369 -0.77833843
-1.7026844 3.0047715 -0.77903062
-1.6818424 3.0109153 -0.77787697
-1.6661524 3.0262921 -0.77926135
-1.6512651 3.0432999 -0.78110719
-1.6293485 3.0473685 -0.77949208
-1.6137948 3.0633342 -0.78110719
-1.5985547 3.0800874 -0.78295302
-1.5791826 3.0889716 -0.78272229
-1.5615124 3.1012101 -0.78341448
-1.5463455 3.1185782 -0.78549105
-1.5288891 3.131505 -0.78641397
-1.5125971 3.1469657 -0.78802907
-1.4932592 3.1561875 -0.78802907
-1.4746867 3.1670547 -0.78849053
-1.4544154 3.1742744 -0.78802907
-1.4301114 3.1724946 -0.78526032
-1.4054897 3.1696472 -0.78226084
-1.3840693 3.1737521 -0.78110719
-1.3557473 3.1616178 -0.77580041
-1.3378347 3.1734633 -0.77672333
-1.3164747 3.1771181 -0.77556968
-1.2903485 3.1689155 -0.77141654
-1.2676265 3.168643 -0.76933998
-1.2485162 3.1772671 -0.76957071
-1.2289973 3.1848679 -0.76957071
-1.2146046 3.205997 -0.77303165
-1.1969455 3.2188611 -0.77441603
-1.1805089 3.235285 -0.77672333
-1.1616193 3.2452159 -0.77741551
-1.1410404 3.2504463 -0.77695405
-1.1210746 3.2573862 -0.77695405
-1.0985777 3.2568283 -0.77510822
-1.0788789 3.2644315 -0.77533895
-1.0591282 3.2719157 -0.77556968
-1.0396203 3.2802076 -0.77603114
-1.0194738 3.286525 -0.77603114
-0.99702746 3.28527 -0.7741853
-0.9740811 3.2819982 -0.771878
-0.95175493 3.2804377 -0.77003217
-0 0 -0
-0.9080506 3.27968 -0.76703274
-0.88816375 3.2861292 -0.76726347
-0.86848015 3.2933986 -0.76772493
-0.85165006 3.3118582 -0.77095509
-0.83249605 3.3217404 -0.77210873
-0.81325287 3.3315122 -0.77326238
-0.79437113 3.343066 -0.77487749
-0.77274734 3.3431373 -0.77372384
-0.7515794 3.3449678 -0.77303165
-0.73228645 3.3552201 -0.77441603
-0.71087843 3.3558426 -0.77349311
-0.68890262 3.3534696 -0.771878
-0.050443005 0.25528175 -0.021777762
-0.64880371 3.3674037 -0.77326238
-0.62973446 3.37993 -0.77533895
-0.04728768 0.2647855 -0.023854325
-0.5850451 3.369189 -0.77095509
-0.56420046 3.3717556 -0.77072436
-0.54350114 3.375154 -0.77072436
-0.52054775 3.364002 -0.76726347
-0.49803779 3.3546209 -0.76426399
-0.47840452 3.3643568 -0.76587909
-0.45840812 3.3720496 -0.76703274
-0 0 -0
-0.41365185 3.3503821 -0.76057231
-0.39354014 3.3567228 -0.76149523
-0 0 -0
-0.35140446 3.3525901 -0.75941867
-0.32881904 3.3343487 -0.75457335
-0.30844334 3.3372724 -0.75480407
-0.28745812 3.3332856 -0.7534197
-0.26777771 3.3446858 -0.75572699
-0.24753731 3.3501472 -0.75664991
-0.22664724 3.3467491 -0.75549626
-0.20604782 3.3471057 -0.75526553
-0.18507497 3.3405347 -0.7534197
-0.16428649 3.3357763 -0.75203532
-0.14469773 3.357136 -0.75688064
-0.12330297 3.3365691 -0.75180459
-0.10294817 3.3411529 -0.75272751
-0.082348846 3.3378308 -0.75180459
-0.061939325 3.3421648 -0.75272751
-0.041504066 3.3483195 -0.75411189
-0.020877732 3.3358622 -0.7511124
-0.00040864095 3.3349545 -0.75088167
0.020031314 3.3310022 -0.74995875
0.040469583 3.3308165 -0.74995875
0.060888652 3.3295326 -0.74972802
0.081411712 3.3329873 -0.75065094
0 0 -0
0.12230647 3.3317373 -0.75065094
0.14274731 3.330924 -0.75065094
0.16270769 3.320267 -0.74834365
0.18254268 3.3094907 -0.74603635
0 0 -0
0.22268373 3.3002057 -0.74442124
0.24264383 3.2948954 -0.74349833
0.26185146 3.2807355 -0.7404989
0.2822265 3.2819753 -0.74119103
0.30253741 3.2821198 -0.74165249
0.32400239 3.2937584 -0.7448827
0.34410533 3.2907407 -0.74465197
0.36418343 3.2876003 -0.74442124
0.38434893 3.2853038 -0.74442124
0 0 -0
0.42351252 3.2716551 -0.74234468
0.44148755 3.2535677 -0.73865306
0.46075958 3.2459805 -0.73749942
0.48095295 3.2450173 -0.73796088
0.50085497 3.2420051 -0.73796088
0.52274454 3.2513602 -0.74096036
0.54588932 3.2672861 -0.74557489
0.56858462 3.2792149 -0.74926656
0.5902428 3.2842834 -0.75134313
0.60753775 3.2652941 -0.74765146
0.6262756 3.2548163 -0.74603635
0.64604539 3.2499578 -0.74580562
0.66304284 3.2316349 -0.74234468
0.68326193 3.2294095 -0.74280614
0.70140725 3.2175505 -0.74096036
0.71815515 3.1998944 -0.73773015
0.73821336 3.1973238 -0.7381916
0.75579649 3.1842134 -0.73611504
0.77393782 3.1738439 -0.73473066
0.79339761 3.1690352 -0.73473066
0.81282747 3.1641073 -0.73473066
0.83272231 3.1609423 -0.73519212
0.85336947 3.1604705 -0.73634577
0.87430143 3.1608016 -0.73773015
0.89341426 3.1544414 -0.73749942
0.91248196 3.1479654 -0.73726869
0.93260986 3.1451061 -0.73796088
0.95132583 3.1374621 -0.73749942
0.9711349 3.1334248 -0.73796088
0.9879939 3.1199858 -0.73611504
1.0035273 3.1027548 -0.73334628
1.0228516 3.0974629 -0.73357701
1.0396633 3.0846736 -0.73196191
1.0569894 3.0736356 -0.73080826
1.0751851 3.0652556 -0.7303468
1.092335 3.0540197 -0.72919315
1.1147187 3.0573158 -0.73173118
1.1337959 3.0513306 -0.73196191
1.1555966 3.0525067 -0.73403847
1.1743047 3.0453587 -0.73403847
1.1929686 3.038096 -0.73403847
1.2119486 3.0316224 -0.7342692
1.2301608 3.0232275 -0.73403847
1.2486879 3.0156226 -0.73403847
1.2683009 3.0105941 -0.73473066
1.2829182 2.9938114 -0.73242337
1.3016523 2.9867752 -0.73265409
1.3191662 2.9769528 -0.73219264
1.3362089 2.966141 -0.73150045
1.3564086 2.9623098 -0.73265409
1.3745594 2.9539313 -0.73265409
1.393906 2.9480808 -0.73334628
1.4149172 2.9456124 -0.73496139
1.4321114 2.9351261 -0.73449993
1.4526856 2.931515 -0.73588431
1.463212 2.9077694 -0.73196191
1.4832392 2.903069 -0.73311555
1.4996805 2.8913221 -0.73242337
1.519659 2.8863709 -0.73357701
1.5405501 2.8829999 -0.73519212
1.5540373 2.8657942 -0.73311555
1.5678406 2.8493845 -0.73126972
1.5777074 2.8261163 -0.72757804
1.6007712 2.8265433 -0.7303468
1.6214765 2.8225744 -0.73196191
1.638765 2.812572 -0.73196191
1.6559918 2.8024638 -0.73196191
1.6791565 2.8022666 -0.73473066
1.6993502 2.7969003 -0.73611504
1.7164797 2.7864208 -0.73611504
1.7325139 2.7741854 -0.73565358
1.7495034 2.7635026 -0.73565358
1.7632746 2.747802 -0.7342692
1.7795712 2.7361155 -0.73403847
1.7963262 2.7251446 -0.73403847
1.8108519 2.7108345 -0.73311555
1.8339953 2.7093425 -0.73588431
1.8560877 2.706063 -0.7381916
1.8704361 2.691427 -0.73726869
1.8941963 2.690243 -0.74026817
1.9106677 2.6785698 -0.74026817
1.9247879 2.663641 -0.73934525
1.9416701 2.6525657 -0.73957598
1.9532738 2.6343484 -0.73773015
1.9612219 2.6114204 -0.73449993
1.9830983 2.6070824 -0.73680723
1.9972765 2.5925527 -0.73611504
2.0155404 2.5833178 -0.73703796
2.0331628 2.5731926 -0.73773015
2.0470898 2.5583894 -0.73703796
2.0602994 2.5427563 -0.73611504
2.07216 2.5255527 -0.73473066
2.0932128 2.5195272 -0.73680723
2.1055017 2.5029128 -0.73565358
2.1208196 2.4899464 -0.73565358
2.1430469 2.4849927 -0.7381916
2.1659327 2.4805927 -0.74096036
2.1849787 2.4716306 -0.74234468
2.2059426 2.4647033 -0.74442124
2.2190645 2.4489582 -0.74372905
2.2340493 2.4352961 -0.74372905
2.2549086 2.4279597 -0.74580562
2.2657652 2.4098244 -0.74442124
2.2771549 2.3923521 -0.7432676
2.2924664 2.3790355 -0.74349833
2.3117764 2.3698006 -0.74511343
2.3194373 2.3486471 -0.74280614
2.3351805 2.3357475 -0.7432676
2.3439319 2.3159034 -0.74142176
2.3504391 2.2940011 -0.73888379
2.3630695 2.2781849 -0.73842233
2.3812311 2.2676692 -0.73980671
2.3922658 2.2503486 -0.73888379
2.4181449 2.2468884 -0.74280614
2.4447882 2.2438531 -0.74695927
2.4592309 2.2294636 -0.74719
2.4859109 2.2260172 -0.75134313
2.4900486 2.2023406 -0.74834365
2.4998515 2.1838193 -0.74719
2.5183604 2.1728895 -0.74880511
2.5146139 2.1428788 -0.74349833
2.5329256 2.1317956 -0.74511343
2.5332389 2.1056387 -0.74119103
2.541599 2.0863507 -0.73980671
2.5588875 2.0743935 -0.74119103
2.5708082 2.0580451 -0.74096036
2.5856774 2.0440428 -0.74165249
2.5966368 2.0269413 -0.74119103
2.6121075 2.0133467 -0.74211395
2.6329284 2.0037642 -0.74465197
2.6373954 1.9817252 -0.74234468
2.6495054 1.9655051 -0.74234468
2.658376 1.9469111 -0.74142176
2.6679065 1.9288523 -0.74072963
2.685235 1.9164034 -0.74234468
2.6937618 1.8976492 -0.74142176
2.70855 1.8833071 -0.74234468
2.7256703 1.870507 -0.74395978
2.7403185 1.8559302 -0.7448827
2.7524636 1.8396218 -0.74511343
2.7701972 1.8269848 -0.74695927
2.7789087 1.8083603 -0.74626708
2.7924085 1.7928526 -0.74695927
2.7967813 1.7715189 -0.74511343
2.8075984 1.7543248 -0.74511343
2.8191381 1.7375754 -0.74534416
2.8314095 1.7212558 -0.74580562
2.8460898 1.7063524 -0.74695927
2.8581812 1.6898476 -0.74742073
2.8701773 1.6732587 -0.74788219
2.8803902 1.655616 -0.74788219
2.8854156 1.6350323 -0.74649781
2.8953936 1.6172969 -0.74649781
2.9086721 1.6013782 -0.74742073
2.9192984 1.5839649 -0.74765146
2.9366846 1.5701526 -0.74972802
2.9488459 1.5534648 -0.75042021
2.9583223 1.5353417 -0.75042021
2.9624894 1.5145028 -0.74903584
2.9821546 1.501549 -0.75180459
2.9869535 1.4810609 -0.75065094
2.9933619 1.4614245 -0.74995875
2.9996419 1.4417652 -0.74926656
3.0084319 1.4233326 -0.74926656
3.0215189 1.4069005 -0.75042021
3.0247872 1.3859019 -0.74903584
3.034121 1.367716 -0.74926656
3.0406773 1.3482842 -0.74880511
3.0435419 1.3272673 -0.74742073
3.053417 1.3093346 -0.74788219
3.0640831 1.2917088 -0.74857438
3.0773442 1.2751191 -0.74995875
3.0959239 1.2606174 -0.75272751
3.1135378 1.2455741 -0.75526553
3.1211216 1.2264464 -0.75526553
3.1313117 1.2083236 -0.75595772
3.1322978 1.1866738 -0.75434262
3.1322243 1.1647182 -0.75249678
3.1374838 1.14481 -0.75203532
3.1389527 1.123569 -0.75065094
3.1512961 1.106222 -0.75203532
3.1672246 1.0900327 -0.75434262
3.1729314 1.0702673 -0.75411189
3.1822102 1.0516948 -0.75480407
3.1858263 1.03125 -0.75411189
3.1920938 1.0116827 -0.75411189
3.2047465 0.99409604 -0.75572699
3.2042685 0.97243464 -0.75411189
3.2073767 0.95192444 -0.7534197
3.2150261 0.93276894 -0.75388116
3.2263055 0.91461724 -0.75526553
3.2384207 0.896622 -0.75688064
3.2466791 0.87749648 -0.75757283
3.2557657 0.85855156 -0.75849575
3.2694533 0.84074038 -0.76057231
3.2802131 0.82208347 -0.76195669
3.2946479 0.80424953 -0.76426399
3.2900543 0.78176826 -0.76195669
3.2862573 0.75959301 -0.75988013
3.2927549 0.73984146 -0.76034158
3.2867758 0.71734011 -0.75780356
3.2787411 0.69453657 -0.75480407
3.2705507 0.67185873 -0.75180459
3.2698402 0.65082806 -0.75065094
3.273772 0.63075244 -0.75065094
3.2900157 0.61297137 -0.75365043
3.308079 0.59535956 -0.75711137
3.3231735 0.57704931 -0.75988013
3.3324096 0.557612 -0.7612645
3.3405716 0.53792822 -0.76241815
3.3534248 0.51890981 -0.76472545
3.3469212 0.49689379 -0.76241815
3.3354573 0.47429168 -0.75895721
3.3267353 0.45224261 -0.75618845
3.3111141 0.42944163 -0.75180459
3.3030643 0.40780422 -0.74926656
3.2958405 0.38639519 -0.74695927
3.295248 0.36584258 -0.74626708
3.300334 0.34592107 -0.74695927
3.3004577 0.32547286 -0.74649781
3.3159571 0.30647078 -0.74972802
3.3274691 0.28695583 -0.75203532
3.3417759 0.26754442 -0.7550348
3.3385029 0.24667557 -0.75388116
3.3525739 0.22704239 -0.75688064
3.3509903 0.20628741 -0.75618845
3.3415062 0.18512891 -0.75365043
3.3396637 0.16447839 -0.75295824
3.3376937 0.14385746 -0.75226605
3.3297625 0.12305063 -0.75018948
3.3392079 0.102888 -0.75226605
3.3388035 0.082372956 -0.75203532
3.3480017 0.062048186 -0.75411189
3.3541572 0.041577108 -0.75549626
3.3504572 0.02097079 -0.75457335
3.3456576 0.00041120953 -0.7534197
3.344624 -0.02011163 -0.75318897
3.3463836 -0.040656894 -0.75365043
3.348017 -0.061224505 -0.75411189
3.3417418 -0.081624523 -0.75272751
3.3518763 -0.10245328 -0.75526553
3.3482676 -0.12291134 -0.75457335
3.3532832 -0.14370288 -0.75595772
3.3503945 -0.16418052 -0.75549626
