# .PCD v0.7 - Point Cloud Data file format
VERSION 0.7
FIELDS x y z
SIZE 4 4 4
TYPE F F F
COUNT 1 1 1
WIDTH 1558
HEIGHT 1
VIEWPOINT 0 0 0 1 0 0 0
POINTS 1558
DATA ascii
-0 0 -0
-0 0 -0
-0 0 -0
-0 0 -0
-0 0 -0
-0 0 -0
-0 0 -0
-0 0 -0
-0 0 -0
-0 0 -0
-0 0 -0
-0 0 -0
-0 0 -0
-0 0 -0
-0 0 -0
-0 0 -0
-0 0 -0
-0 0 -0
-0 0 -0
-0 0 -0
-0 0 -0
-0 0 -0
-0 0 -0
-0 0 -0
-0 0 -0
-0 0 -0
-0.24369216 0.16758054 -0.023274219
-0.25310251 0.17632842 -0.025974851
-0.25281569 0.17844115 -0.026182592
-0.26286584 0.18794037 -0.029090965
-0.26012188 0.1884041 -0.028675484
-0.25343528 0.18595284 -0.027221298
-0.25700447 0.19099949 -0.028467743
-0.25504544 0.19198552 -0.028260002
-0.2476337 0.18880992 -0.026598074
-0.26661971 0.20584472 -0.031999338
-0.27306458 0.21349303 -0.03407675
-0.24641913 0.1951551 -0.027221298
-0.26736873 0.21438371 -0.033245787
-0.27364913 0.2221774 -0.035323195
-0.24732299 0.20338003 -0.028467743
-0.27541691 0.22926877 -0.03656964
-0.27699947 0.23347281 -0.037400603
-0.26215622 0.22375268 -0.033661269
-0.27855861 0.24068691 -0.038647052
-0.26307526 0.23016928 -0.034699973
-0.2601921 0.23048358 -0.034284491
-0.26387572 0.23664166 -0.035738677
-0.26386863 0.23956978 -0.036154158
-0.28113711 0.25837475 -0.041555423
-0.26162571 0.2434554 -0.036361899
-0.27937075 0.26314521 -0.041970905
-0.25294957 0.24125299 -0.034699973
-0.25991797 0.25094447 -0.037192862
-0.24366744 0.23819216 -0.032830302
-0.26099539 0.2582387 -0.038439311
-0.27255103 0.27297407 -0.042386387
-0.25986952 0.26350933 -0.039062534
-0.25824776 0.2650989 -0.039062534
-0.2708753 0.28146523 -0.043425094
-0.24552982 0.25833204 -0.036154158
-0.24326979 0.2591213 -0.035946418
-0.27963299 0.30145022 -0.047787651
-0.2380871 0.25992534 -0.035323195
-0.2640852 0.29181573 -0.044048317
-0 0 -0
-0 0 -0
-0 0 -0
-0 0 -0
-0 0 -0
-0 0 -0
-0 0 -0
-0 0 -0
-0 0 -0
-2.3128736 2.8890495 -0.7464205
-0 0 -0
-0 0 -0
-0 0 -0
-2.2851202 3.0025368 -0.76179338
-2.2695925 3.0204113 -0.76283205
-2.2533484 3.0374227 -0.76366305
-2.2375591 3.0551372 -0.76470172
-2.2176247 3.0672238 -0.76428628
-2.2055826 3.0903268 -0.76677912
-0 0 -0
-2.179781 3.1348274 -0.77134943
-2.1654873 3.1554015 -0.77321911
-2.1510229 3.1759179 -0.77508879
-2.1374755 3.1980016 -0.77737391
-2.1205058 3.2151394 -0.77841264
-2.1044736 3.2338285 -0.77986681
-2.0904062 3.2557344 -0.782152
-2.0756252 3.2767625 -0.7842294
-2.0565171 3.2910957 -0.78464484
-2.0373113 3.3053176 -0.78506035
-2.0169919 3.3177559 -0.78506035
-1.9955904 3.3283918 -0.78464484
-1.9746323 3.3397319 -0.78443712
-1.9526247 3.3492501 -0.78381389
-1.906684 3.3170714 -0.77301139
-1.8998008 3.352536 -0.77882814
-1.8787171 3.3632758 -0.77862036
-1.8632356 3.3841653 -0.78090554
-1.8391695 3.3895161 -0.77945137
-1.826641 3.4162636 -0.78319067
-1.8029087 3.422215 -0.78194422
-1.7818764 3.433213 -0.78194422
-1.7638946 3.4501781 -0.78339845
-1.7422515 3.4600627 -0.78319067
-1.7179457 3.4645536 -0.78173649
-1.6970844 3.4759085 -0.78194422
-1.6723338 3.4792035 -0.78028232
-1.6492807 3.4858625 -0.77945137
-1.6303388 3.5012372 -0.78069776
-1.6084174 3.5102854 -0.78049004
-1.5916735 3.5307891 -0.78298295
-1.5739452 3.5494306 -0.78506035
-1.5470521 3.5473657 -0.78235972
-1.5237143 3.5531957 -0.78152877
-1.499223 3.5561688 -0.7800746
-1.4698834 3.5472283 -0.77591974
-1.4491974 3.5588982 -0.77654296
-1.4273331 3.5677235 -0.77654296
-1.4039837 3.5727727 -0.77571201
-1.3837965 3.5858829 -0.77675068
-1.3621145 3.5952208 -0.77695847
-1.3345724 3.5888422 -0.77363461
-1.3148744 3.6033955 -0.77508879
-1.2976861 3.6252093 -0.77820492
-1.272825 3.6257203 -0.77654296
-1.2499171 3.6316121 -0.77612752
-1.226985 3.6373594 -0.77571201
-1.1994233 3.6290309 -0.77218044
-1.1774348 3.6372528 -0.77238816
-1.1553905 3.6453414 -0.77259588
-1.1327115 3.6514277 -0.77238816
-1.112843 3.6667333 -0.77425784
-1.0908803 3.6753678 -0.77467328
-1.0713074 3.6923258 -0.77695847
-1.0462295 3.6903601 -0.77508879
-1.023044 3.6948247 -0.77467328
-0.99933237 3.6972554 -0.77384233
-0.97537994 3.6985886 -0.7728036
-0.95169258 3.7007143 -0.77197266
-0.93229818 3.7197676 -0.77488106
-0.90945655 3.7254181 -0.77488106
-0.88884318 3.7404447 -0.77695847
-0.86455309 3.7401099 -0.77571201
-0.8400861 3.7386639 -0.77425784
-0.81483465 3.7332358 -0.77197266
-0.78968155 3.7276392 -0.76968753
-0.76541573 3.7257073 -0.76823336
-0.74005693 3.7178621 -0.76553267
-0.71648997 3.7184911 -0.76470172
-0.69276386 3.7180092 -0.76366305
-0.67063105 3.7260408 -0.764494
-0.64993286 3.7426143 -0.76719463
-0.62727946 3.7484612 -0.76761013
-0.60582376 3.7618968 -0.76968753
-0.58287948 3.76651 -0.76989526
-0.55932641 3.767113 -0.76927203
-0.53578782 3.7675686 -0.7686488
-0.51239663 3.7688468 -0.76823336
-0.48888397 3.7690096 -0.76761013
-0.46550861 3.7699969 -0.76719463
-0.44430584 3.7892981 -0.7707262
-0 0 -0
-0.3950156 3.7681983 -0.76511723
-0.37207916 3.7724979 -0.76553267
-0.3481133 3.7659438 -0.76366305
-0.32474688 3.7650852 -0.76303983
-0.30218589 3.7738323 -0.764494
-0.27924097 3.778542 -0.76511723
-0.25624964 3.783112 -0.76574045
-0.23339339 3.7904711 -0.76698691
-0.20931771 3.7771816 -0.76387078
-0.18570334 3.7696021 -0.7620011
-0.16218987 3.7618749 -0.76013142
-0.13837962 3.7432492 -0.75597662
-0.11546934 3.7459831 -0.75639212
-0.092506491 3.7475991 -0.75659984
-0.069309272 3.7373381 -0.75431466
-0.04648624 3.7464957 -0.75618434
-0.023478588 3.7437761 -0.75556111
-0.00050489075 3.7360241 -0.75389922
0.0224247 3.7369351 -0.75410694
0.045377217 3.7386835 -0.75452244
0.068209872 3.7324665 -0.75327599
0.091181882 3.7349114 -0.75389922
0.11400784 3.7313483 -0.75327599
0.13607812 3.7080953 -0.74849796
0.15924567 3.7169635 -0.75057536
0.18166743 3.7081003 -0.74891341
0.20457776 3.709846 -0.74953663
0.22781508 3.7163317 -0.75119859
0.25041655 3.711936 -0.75057536
0.27282923 3.7054517 -0.74953663
0.29571575 3.7056582 -0.74995214
0.31886613 3.708647 -0.75099081
0.34134695 3.7036984 -0.75036758
0.36425728 3.7034812 -0.75078309
0.38677132 3.6992307 -0.75036758
0.40870899 3.6899822 -0.74891341
0.43236452 3.6961491 -0.75078309
0.45384046 3.683718 -0.74870569
0.47756395 3.6895947 -0.75057536
0.50032532 3.6875644 -0.75078309
0.52527744 3.7008893 -0.75431466
0.54553974 3.6811469 -0.75078309
0.56528115 3.6593623 -0.74683601
0.58772391 3.6558249 -0.74683601
0.60547316 3.6241698 -0.74081153
0.62886822 3.6271334 -0.7422657
0.65024751 3.6183925 -0.74122703
0.67011273 3.6018324 -0.73852634
0.69349355 3.604377 -0.73998058
0.71483409 3.5962162 -0.73914957
0.73413575 3.578347 -0.73624122
0.75506645 3.5689898 -0.73520249
0.77445239 3.5528204 -0.73270965
0.79452473 3.5403659 -0.73104769
0.8212918 3.5573463 -0.73582572
0.84355539 3.5541434 -0.73624122
0.86835843 3.5612555 -0.73894185
0.88805652 3.5473199 -0.73707217
0.91199511 3.5503311 -0.73894185
0.93525684 3.550344 -0.7401883
0.956514 3.5426497 -0.7397728
0.97719061 3.5329428 -0.73894185
0.99964929 3.5297039 -0.73956507
1.0147551 3.5009549 -0.73457932
1.0320477 3.4805946 -0.73146319
1.0599107 3.4957275 -0.73624122
1.0816295 3.4900928 -0.73644894
1.1021384 3.4805925 -0.73582572
1.1207659 3.4653876 -0.7339561
1.1410882 3.4556589 -0.73333287
1.1622703 3.4485922 -0.73333287
1.1811826 3.4349203 -0.73187864
1.2015893 3.4257619 -0.73146319
1.2235748 3.4210877 -0.73208642
1.2435383 3.4107585 -0.73146319
1.2651241 3.4048982 -0.73187864
1.2863384 3.3979862 -0.73208642
1.3061085 3.3872912 -0.73146319
1.3268679 3.3792133 -0.73146319
1.3522964 3.3828166 -0.73416382
1.372659 3.3735492 -0.7339561
1.3955774 3.3704863 -0.73520249
1.4185101 3.3672688 -0.73644894
1.4387593 3.3576024 -0.73624122
1.4585527 3.3469176 -0.73582572
1.4790616 3.3379049 -0.73582572
1.4967031 3.3225234 -0.73437154
1.5178758 3.3150561 -0.73478705
1.5373628 3.3039064 -0.73437154
1.5542622 3.2873361 -0.73270965
1.5739802 3.2768557 -0.73250186
1.5901974 3.2592237 -0.73063225
1.6106 3.2502816 -0.73083997
1.6278754 3.235095 -0.72959352
1.655259 3.2398548 -0.73312509
1.671505 3.2226903 -0.73146319
1.688514 3.2071798 -0.73021674
1.7173792 3.2140148 -0.73437154
1.7244805 3.180198 -0.72876257
1.7515048 3.18327 -0.73208642
1.7605164 3.1536715 -0.72751611
1.7856171 3.1530244 -0.73000902
1.8068787 3.1454017 -0.73083997
1.8236828 3.1300297 -0.72980124
1.8408638 3.115412 -0.72897029
1.8579342 3.1007013 -0.72813934
1.8764169 3.088407 -0.72793156
1.8948188 3.0760024 -0.72772384
1.9141752 3.0651479 -0.72793156
1.9355621 3.0574777 -0.72897029
1.9527014 3.0430739 -0.72834706
1.9745361 3.0359554 -0.72959352
1.9898976 3.018882 -0.72834706
2.0056674 3.0025482 -0.72730833
2.0218601 2.9869447 -0.72647738
2.0390432 2.9728689 -0.72606194
2.057246 2.9603016 -0.72606194
2.0815649 2.9564216 -0.72834706
2.1025057 2.9475758 -0.72938579
2.1090956 2.9187613 -0.72523093
2.1281204 2.9073441 -0.72564644
2.1371818 2.8824439 -0.72253031
2.1536531 2.8677118 -0.72211486
2.1706164 2.8536646 -0.72190708
2.1880853 2.8402922 -0.72190708
2.2120898 2.8352971 -0.72419226
2.239753 2.8347197 -0.72772384
2.2613816 2.8262703 -0.72917801
2.2866852 2.8222227 -0.73187864
2.3045793 2.8088951 -0.73208642
2.3148959 2.7864244 -0.72980124
2.33132 2.7714193 -0.72959352
2.3470128 2.7555728 -0.72917801
2.3645153 2.7418609 -0.72938579
2.3877273 2.7346699 -0.73146319
2.4070532 2.7228994 -0.73229414
2.4269767 2.7117236 -0.73333287
2.4422562 2.6953311 -0.73291737
2.4587486 2.680295 -0.73291737
2.4718204 2.6615736 -0.73187864
2.4901147 2.648495 -0.73250186
2.511039 2.6381264 -0.7339561
2.5339656 2.6297138 -0.7360335
2.5527854 2.6169174 -0.73686445
2.5667326 2.5991161 -0.73624122
2.5833237 2.5840099 -0.73644894
2.6074793 2.5763614 -0.73894185
2.6176388 2.5548472 -0.73727995
2.6346741 2.5400956 -0.7376954
2.6530433 2.5265803 -0.73852634
2.6677837 2.5095837 -0.73831862
2.6845651 2.4944992 -0.73873413
2.6983795 2.4766569 -0.73831862
2.7164235 2.4626818 -0.73914957
2.7263827 2.4413993 -0.7376954
2.7501032 2.4324024 -0.7401883
2.7642398 2.4148386 -0.73998058
2.7686374 2.3888848 -0.73707217
2.7854764 2.3737552 -0.7376954
2.7999892 2.3566194 -0.7376954
2.8121397 2.3375185 -0.73707217
2.8339896 2.3264267 -0.73914957
2.8527696 2.3126905 -0.74039602
2.8707242 2.2981997 -0.74143475
2.8847716 2.2805419 -0.74143475
2.9025655 2.2658083 -0.74247342
2.9117656 2.2443724 -0.74122703
2.9215903 2.2235014 -0.7401883
2.9343965 2.2049453 -0.73998058
2.9533694 2.190979 -0.74143475
2.9628117 2.1699259 -0.74039602
2.9784484 2.1534252 -0.74101925
3.0019553 2.1424975 -0.74371988
3.0222414 2.1291087 -0.74558955
3.0384607 2.1127584 -0.7464205
3.0553994 2.096843 -0.74745923
3.0601094 2.0725696 -0.74538183
3.0735822 2.0542979 -0.74558955
3.0779641 2.0300136 -0.74351215
3.0797045 2.0041523 -0.74081153
3.1018205 1.9915608 -0.74330443
3.1073718 1.9683026 -0.74164248
3.118561 1.9486806 -0.74143475
3.1329572 1.9310489 -0.74205798
3.1572838 1.9194125 -0.74517411
3.1656461 1.8979913 -0.7443431
3.1780744 1.8790294 -0.74455088
3.1920791 1.860972 -0.74517411
3.2025895 1.8408632 -0.74496633
3.2299933 1.8303425 -0.74891341
3.2411635 1.8104892 -0.74891341
3.2539251 1.7915114 -0.74932891
3.2674356 1.7729118 -0.74995214
3.274802 1.7509845 -0.74912119
3.2828882 1.7294897 -0.74849796
3.2986472 1.7120179 -0.74974442
3.307348 1.6908548 -0.74932891
3.3272705 1.6753696 -0.75161403
3.3260958 1.649272 -0.74891341
3.3256054 1.6236813 -0.7464205
3.3372686 1.604093 -0.74683601
3.3426275 1.5814934 -0.74579734
3.3522685 1.5609537 -0.74579734
3.3546693 1.5370947 -0.74413538
3.3667126 1.5176882 -0.74475861
3.3759615 1.4970019 -0.74475861
3.3940494 1.4801704 -0.74683601
3.4120574 1.4631732 -0.74891341
3.4290829 1.4456304 -0.75078309
3.4487321 1.4290574 -0.75327599
3.4583416 1.4082384 -0.75348371
3.4605603 1.3844479 -0.75202954
3.4680796 1.3628304 -0.75182182
3.4745512 1.3408204 -0.75140631
3.4845424 1.3201691 -0.75182182
3.4962444 1.3001276 -0.75265276
3.5069127 1.2796569 -0.75327599
3.5202241 1.2600933 -0.75452244
3.5168145 1.2345806 -0.75202954
3.5307977 1.2152077 -0.75348371
3.5224314 1.1882035 -0.74995214
3.5277984 1.1659536 -0.74953663
3.5386086 1.145491 -0.75036758
3.5418408 1.1225743 -0.74953663
3.5580044 1.1037201 -0.75161403
3.5703256 1.0835729 -0.75286049
3.584409 1.0638728 -0.75452244
3.5946269 1.0429499 -0.75535339
3.605664 1.0222086 -0.75639212
3.5958426 0.99562633 -0.75286049
3.6018839 0.97354388 -0.75286049
3.6040063 0.9504267 -0.75202954
3.6097703 0.92829502 -0.75202954
3.6182446 0.90684217 -0.75265276
3.6218402 0.8841598 -0.75223726
3.6319556 0.86305118 -0.75327599
3.6371827 0.84074968 -0.75327599
3.6422729 0.81841648 -0.75327599
3.6481819 0.79626119 -0.75348371
3.6482143 0.77284729 -0.75244504
3.6509714 0.75005382 -0.75202954
3.6574237 0.72801989 -0.75244504
3.6714268 0.70741642 -0.75452244
3.6699286 0.68379998 -0.75327599
3.6817567 0.66265583 -0.75493789
3.6896083 0.64072239 -0.7557689
3.7021532 0.61952525 -0.75763851
3.7020218 0.59617507 -0.75680757
3.6940103 0.57165235 -0.75431466
3.6926105 0.54825675 -0.75327599
3.6959052 0.52558899 -0.75327599
3.6903372 0.50171453 -0.75140631
3.6904361 0.47868383 -0.75078309
3.7010701 0.45699051 -0.75244504
3.7018614 0.43404454 -0.75202954
3.7132049 0.41229466 -0.75389922
3.7215018 0.39011559 -0.75514567
3.7238255 0.36727354 -0.75514567
3.7240608 0.34423739 -0.75473017
3.7280521 0.32154882 -0.75514567
3.7241044 0.29819879 -0.75389922
3.7258642 0.27534252 -0.75389922
3.7216277 0.25207862 -0.75265276
3.7201755 0.22905774 -0.75202954
3.7244411 0.20638953 -0.75265276
3.7227063 0.18338822 -0.75202954
3.7247386 0.1605849 -0.75223726
3.7305415 0.1379085 -0.75327599
3.7283843 0.11492502 -0.75265276
3.6947932 0.091197498 -0.74538183
3.7490742 0.069528148 -0.75680757
3.7523644 0.046559673 -0.75743079
3.7388852 0.023447406 -0.75452244
3.756566 0.00050982047 -0.75826174
3.7574766 -0.022545813 -0.75846952
3.7553113 -0.045577291 -0.75805402
3.7618072 -0.068742983 -0.75950819
3.7486019 -0.091514677 -0.75680757
3.7548139 -0.11472234 -0.75826174
3.7540393 -0.13775928 -0.75826174
3.7394412 -0.1602063 -0.75535339
3.7403419 -0.1832436 -0.7557689
3.7303567 -0.20570664 -0.75389922
3.7358589 -0.22901005 -0.75535339
3.7324314 -0.25179705 -0.75493789
3.7464249 -0.27584171 -0.75826174
3.7358861 -0.29812476 -0.75639212
3.7310627 -0.32079104 -0.7557689
3.7270761 -0.34349903 -0.75535339
3.7171102 -0.36559629 -0.75369149
3.713824 -0.38829556 -0.75348371
3.7103994 -0.41096827 -0.75327599
3.6961491 -0.43236452 -0.75078309
3.6905138 -0.45467702 -0.75015986
3.6750433 -0.47568202 -0.74745923
3.6827178 -0.49966824 -0.74974442
3.6689291 -0.52074462 -0.74745923
3.6724384 -0.54425001 -0.74891341
3.6719298 -0.56722116 -0.74953663
3.6712778 -0.5902065 -0.75015986
3.6733761 -0.61368841 -0.75140631
3.6647224 -0.63538128 -0.75036758
3.6588292 -0.6575098 -0.74995214
3.6403005 -0.67726535 -0.74683601
3.6495245 -0.70217502 -0.74974442
3.6355529 -0.72264886 -0.74766695
3.6339252 -0.74553204 -0.74829018
3.6378956 -0.76963663 -0.75015986
3.6254585 -0.79027802 -0.74849796
3.6262679 -0.81379306 -0.74974442
3.6326439 -0.83866745 -0.75223726
3.626478 -0.86071533 -0.75202954
3.6325328 -0.88573027 -0.75452244
3.636519 -0.91037691 -0.75659984
3.6299171 -0.93242979 -0.75639212
3.6241274 -0.95468497 -0.75639212
3.6134794 -0.97562987 -0.75535339
3.6102536 -0.99856538 -0.75597662
3.5937052 -1.0177678 -0.75369149
3.580816 -1.0378937 -0.75223726
3.581883 -1.0620694 -0.75389922
3.5668736 -1.0814738 -0.75202954
3.5648425 -1.1047868 -0.75306827
3.5542662 -1.1254587 -0.75223726
3.5454321 -1.1466442 -0.75182182
3.5411165 -1.1692969 -0.75244504
3.5514879 -1.1969366 -0.75639212
3.530201 -1.2139357 -0.75327599
3.5300705 -1.2381631 -0.75493789
3.5196435 -1.258812 -0.75431466
3.498987 -1.2756948 -0.75140631
3.4975123 -1.2995244 -0.75286049
3.4913025 -1.3216527 -0.75327599
3.48404 -1.3434018 -0.75348371
3.4775524 -1.3654691 -0.75389922
3.4682002 -1.3864182 -0.75369149
3.4605341 -1.4080411 -0.75389922
3.4482143 -1.4277517 -0.75306827
3.4321768 -1.4458454 -0.75140631
3.4304338 -1.469959 -0.75306827
3.4231434 -1.4917614 -0.75348371
3.407665 -1.5099641 -0.75202954
3.4010117 -1.5320497 -0.75265276
3.3915472 -1.5528891 -0.75265276
3.3775206 -1.5716071 -0.75161403
3.3686981 -1.5927196 -0.75182182
3.3597436 -1.613783 -0.75202954
3.3480201 -1.63351 -0.75161403
3.3396871 -1.6548907 -0.75202954
3.3277223 -1.6744723 -0.75161403
3.3130298 -1.6926346 -0.75057536
3.2938976 -1.7084283 -0.74849796
3.2798905 -1.7267846 -0.74766695
3.2744102 -1.7496426 -0.74891341
3.2532935 -1.7641068 -0.7464205
3.2458363 -1.7859212 -0.74725151
3.2416501 -1.8096174 -0.74891341
3.2347417 -1.8318834 -0.74995214
3.2268336 -1.8536456 -0.75078309
3.215399 -1.8734101 -0.75078309
3.2114234 -1.8975819 -0.75265276
3.2005587 -1.9177538 -0.75286049
3.182879 -1.9338012 -0.75140631
3.185946 -1.9625275 -0.75514567
3.1688657 -1.978931 -0.75389922
3.1566634 -1.9983375 -0.75389922
3.1468124 -2.0192533 -0.75452244
3.1294429 -2.0353243 -0.75327599
3.1234298 -2.058794 -0.75493789
3.1091115 -2.0768337 -0.75452244
3.1003602 -2.098613 -0.75556111
3.087425 -2.1175969 -0.75556111
3.0743737 -2.1365011 -0.75556111
3.0620062 -2.1558881 -0.7557689
3.0463312 -2.1729317 -0.75514567
3.0353196 -2.1933012 -0.7557689
3.0178578 -2.2089958 -0.75473017
3.0097475 -2.231549 -0.75618434
2.9983451 -2.2517366 -0.75680757
2.9805791 -2.2671311 -0.7557689
2.9635124 -2.2829895 -0.75493789
2.9533048 -2.3041384 -0.75597662
2.9314356 -2.3161526 -0.75389922
2.9263349 -2.3414285 -0.75639212
2.9119129 -2.35934 -0.75639212
2.8996506 -2.379024 -0.75701535
2.8872559 -2.3986461 -0.75763851
2.8747296 -2.4182055 -0.75826174
2.8568587 -2.4332623 -0.75743079
2.8374295 -2.4469135 -0.75618434
2.8201516 -2.4623477 -0.75556111
2.8027909 -2.4776621 -0.75493789
2.7846196 -2.492204 -0.75410694
2.775075 -2.514497 -0.7557689
2.759594 -2.5314772 -0.7557689
2.7475934 -2.5516901 -0.75680757
2.7325974 -2.569171 -0.75701535
2.7146561 -2.5838664 -0.75639212
2.699455 -2.6011531 -0.75659984
2.686245 -2.6203997 -0.75743079
2.6687238 -2.6354585 -0.75701535
2.6525028 -2.6517837 -0.75701535
2.6403072 -2.6721838 -0.75826174
2.6218114 -2.6862342 -0.75763851
2.6052797 -2.7022707 -0.75763851
2.5825777 -2.7118311 -0.7557689
2.5598569 -2.7212148 -0.75389922
2.5377843 -2.7311385 -0.75223726
2.5183325 -2.7437761 -0.75140631
2.4975071 -2.7548289 -0.75015986
2.4746833 -2.7635436 -0.74829018
2.4557354 -2.7764781 -0.74766695
2.436722 -2.7892842 -0.74704373
2.4195616 -2.804183 -0.74704373
2.411828 -2.8301432 -0.75015986
2.3988268 -2.8501267 -0.75161403
2.388798 -2.8738182 -0.75410694
2.3748441 -2.8929574 -0.75535339
2.352736 -2.9021561 -0.75389922
2.3409984 -2.9241734 -0.75597662
2.3187649 -2.9331112 -0.75452244
2.301326 -2.9480548 -0.75473017
2.2909582 -2.9721909 -0.75743079
2.2679381 -2.9799652 -0.7557689
2.2507861 -2.9953887 -0.75618434
2.2364445 -3.0146418 -0.75763851
2.2161708 -3.0259402 -0.75701535
2.191257 -3.0307624 -0.75473017
2.1623893 -3.0298202 -0.75099081
2.1437581 -3.0430312 -0.75099081
2.1205778 -3.0497034 -0.74932891
2.1034861 -3.0650771 -0.74995214
2.086834 -3.0811656 -0.75078309
2.0749564 -3.1044836 -0.75348371
2.0601776 -3.1236892 -0.75514567
2.0521784 -3.1534872 -0.75950819
2.0264473 -3.156143 -0.75701535
2.0101845 -3.1734755 -0.75826174
1.988601 -3.1824319 -0.75743079
1.9659563 -3.1895781 -0.75618434
1.9524472 -3.2116103 -0.75867724
1.9316982 -3.2218521 -0.75826174
1.9178681 -3.2437477 -0.76075464
1.901378 -3.2613695 -0.76220882
1.8798681 -3.2704308 -0.76158559
1.8621775 -3.2861588 -0.76262432
1.8438874 -3.3009386 -0.76345527
1.8269017 -3.3181884 -0.76490951
1.8093069 -3.3344939 -0.7661559
1.7925032 -3.3524334 -0.76781785
0 -0 -0
0 -0 -0
1.7233665 -3.3709249 -0.764494
1.7026504 -3.3814359 -0.764494
1.6823049 -3.3926957 -0.76470172
1.6575927 -3.3950436 -0.76283205
1.6371537 -3.4060321 -0.76303983
0 -0 -0
0 -0 -0
0 -0 -0
0 -0 -0
1.5255581 -3.4403419 -0.75971597
1.5005087 -3.4406719 -0.75763851
1.4797544 -3.4507132 -0.7578463
1.4600738 -3.4633329 -0.75867724
1.4402939 -3.4758413 -0.75950819
0 -0 -0
0 -0 -0
0 -0 -0
1.3492748 -3.4964526 -0.75639212
1.3298755 -3.510154 -0.75763851
1.3093357 -3.5209982 -0.75826174
1.2836818 -3.5179393 -0.7557689
1.2656993 -3.5358799 -0.75805402
0 -0 -0
1.2222133 -3.5511456 -0.75805402
1.1997753 -3.5567245 -0.75763851
1.167182 -3.5315132 -0.75036758
1.1533263 -3.5628042 -0.7557689
1.1234612 -3.5446382 -0.75015986
1.110388 -3.5794919 -0.75639212
1.0892564 -3.5890455 -0.75701535
1.0624806 -3.5797203 -0.75348371
1.0413139 -3.5889904 -0.75410694
1.0214078 -3.6028409 -0.7557689
0.9953652 -3.5948999 -0.75265276
0.97686321 -3.6141596 -0.75556111
0.9556669 -3.6238687 -0.75639212
0.93000108 -3.6164017 -0.75348371
0.90589052 -3.6144495 -0.75182182
0.87882191 -3.5999844 -0.74745923
0.85716879 -3.6072123 -0.74787474
0.83479881 -3.6114509 -0.74766695
0.81584191 -3.6308208 -0.75078309
0.79980898 -3.664428 -0.75701535
0.77487552 -3.6577835 -0.75452244
0.75182635 -3.6595948 -0.75389922
0.73050374 -3.6698952 -0.75514567
0.70797193 -3.6743083 -0.75514567
0.68559277 -3.6795447 -0.75535339
0.66126883 -3.6740553 -0.75327599
0.64172715 -3.6953909 -0.75701535
0.61823285 -3.6944351 -0.75597662
0.59368509 -3.6865704 -0.75348371
0.57359838 -3.7065768 -0.75701535
0.5514195 -3.713897 -0.7578463
0.52889669 -3.7191474 -0.75826174
0.50619841 -3.7232919 -0.75846952
0.48170611 -3.7137172 -0.7557689
0.45903006 -3.7175736 -0.75597662
0.43689489 -3.7261493 -0.75722307
0.41121414 -3.7034829 -0.75182182
0.39123851 -3.732203 -0.75743079
0.36813855 -3.7325864 -0.75701535
0.34558946 -3.7386711 -0.7578463
0.32331616 -3.7485178 -0.75950819
0.30054414 -3.7533562 -0.76013142
0.27830246 -3.7658603 -0.7624166
0.25519034 -3.7674971 -0.7624166
0.2317073 -3.763134 -0.76117015
0.20899236 -3.7713215 -0.76262432
0.18512456 -3.7578781 -0.75950819
0.16202092 -3.7579658 -0.75930047
0.13881448 -3.7549794 -0.75846952
0.11583222 -3.7577157 -0.75888497
0.092797376 -3.7593336 -0.75909275
0.069710553 -3.7588542 -0.75888497
0.046522956 -3.7494302 -0.75680757
0.023491062 -3.7457323 -0.75597662
0.00051052473 -3.7595005 -0.75888497
-0.022522744 -3.7535639 -0.75763851
-0.045800906 -3.7738955 -0.7620011
-0.068707444 -3.759851 -0.75909275
-0.091776162 -3.7593586 -0.75909275
-0.1144544 -3.7460144 -0.75639212
-0.13829583 -3.7687023 -0.76137787
-0.16216935 -3.7853739 -0.76511723
-0.18515411 -3.7794225 -0.7640785
-0.20710433 -3.7557511 -0.75930047
-0.23038428 -3.7583151 -0.76013142
-0.25081098 -3.7177918 -0.75182182
-0.27383339 -3.7191095 -0.75244504
-0.29711452 -3.7232099 -0.75369149
-0.32062364 -3.7291136 -0.75535339
-0.34314033 -3.7231798 -0.75452244
-0.36617017 -3.7229512 -0.75493789
-0.38819394 -3.7128513 -0.75327599
-0.41 -3.7016492 -0.75140631
-0.43168324 -3.6903195 -0.74953663
-0 -0 -0
-0.47543108 -3.6731031 -0.74704373
-0.49874836 -3.6759326 -0.74829018
-0.51978314 -3.6621497 -0.74600506
-0.54382014 -3.6695354 -0.74829018
-0.56572884 -3.6622627 -0.74745923
-0.59098232 -3.6761067 -0.75119859
-0.61562145 -3.6849542 -0.75389922
-0.6380533 -3.6801436 -0.75369149
-0.65802854 -3.6617177 -0.75057536
-0.68066287 -3.6585727 -0.75078309
-0.70365274 -3.6572092 -0.75140631
-0.72665155 -3.6557012 -0.75202954
-0.75024772 -3.6569231 -0.75327599
-0.77510041 -3.6637352 -0.7557689
-0.79902375 -3.6656005 -0.75722307
-0.82000172 -3.6539476 -0.7557689
-0.84350622 -3.6536131 -0.75680757
-0.86319906 -3.6369474 -0.75431466
-0.88457215 -3.6277809 -0.75348371
-0.90657771 -3.6213362 -0.75327599
-0.92780769 -3.6119156 -0.75244504
-0.94123477 -3.5730467 -0.74517411
-0.97231644 -3.6012022 -0.75265276
-0.99283069 -3.5895116 -0.75140631
-1.0132382 -3.5777049 -0.75015986
-1.0354437 -3.57236 -0.75036758
-1.0526181 -3.5499959 -0.74683601
-1.0740969 -3.5425341 -0.74662828
-1.0934976 -3.5284019 -0.74496633
-1.1115845 -3.5104351 -0.74247342
-1.1367142 -3.5147173 -0.74496633
-1.1686836 -3.5392587 -0.75202954
-1.1772611 -3.4930875 -0.74330443
-1.1964462 -3.4793229 -0.74185026
-1.2151831 -3.4645314 -0.7401883
-1.2288438 -3.4358251 -0.73541027
-1.2619612 -3.4613061 -0.74288893
-1.2790885 -3.4424939 -0.74039602
-1.3105737 -3.4620268 -0.74662828
-1.3324953 -3.4557455 -0.74704373
-1.3543891 -3.4493256 -0.74745923
-1.3617343 -3.4064333 -0.73956507
-1.4028813 -3.4478488 -0.75099081
-1.4090457 -3.4030235 -0.74268121
-1.442808 -3.4249647 -0.74974442
-1.4668776 -3.4232407 -0.75140631
-1.4933243 -3.4267304 -0.75431466
-1.5155107 -3.420186 -0.75493789
-1.5340581 -3.4054713 -0.75369149
-1.5594032 -3.4057782 -0.75597662
-1.5773833 -3.3899372 -0.75452244
-1.5989898 -3.3819635 -0.75493789
-1.6201345 -3.3729706 -0.75514567
-1.6420866 -3.3656034 -0.7557689
-1.6640093 -3.358094 -0.75639212
-1.6889789 -3.356559 -0.75846952
-1.7122122 -3.3513594 -0.75971597
-1.7390475 -3.3529477 -0.76262432
-1.7568544 -3.3370204 -0.76137787
-1.7800623 -3.3313544 -0.76262432
-1.7981387 -3.3160696 -0.76158559
-1.8203378 -3.3084023 -0.7624166
-1.8406035 -3.2971706 -0.7624166
-1.8656192 -3.2943273 -0.764494
-1.8906692 -3.2913003 -0.7665714
-1.9137828 -3.284709 -0.76781785
-1.9383792 -3.2804842 -0.76968753
-1.9609847 -3.2727244 -0.7707262
-1.9810289 -3.2606306 -0.7707262
-2.0009985 -3.2484138 -0.7707262
-2.0193386 -3.2335854 -0.77010298
-2.0360026 -3.2161748 -0.76885659
-2.0578113 -3.2069149 -0.76968753
-2.0785162 -3.1958683 -0.77010298
-2.0953953 -3.1789706 -0.76906431
-2.1175778 -3.170121 -0.77010298
-2.1369896 -3.157068 -0.77010298
-2.1563206 -3.1438963 -0.77010298
-2.1778033 -3.1338196 -0.77093399
-2.1930497 -3.1147985 -0.76947975
-2.2018971 -3.0869482 -0.76574045
-2.2207971 -3.0733795 -0.76574045
-2.23037 -3.047065 -0.7624166
-2.247277 -3.0309649 -0.76179338
-2.2646577 -3.0155542 -0.76137787
-2.2837102 -3.0023804 -0.76158559
-2.2973146 -2.9821117 -0.7599237
-2.3143659 -2.9664168 -0.75950819
-2.3234289 -2.9406464 -0.75639212
-2.3322628 -2.9148772 -0.75327599
-2.3482571 -2.8982315 -0.75265276
-2.3604128 -2.8769617 -0.75078309
-2.373646 -2.857157 -0.74932891
-2.3898733 -2.8410416 -0.74891341
-2.4015529 -2.8196213 -0.74704373
-2.4168923 -2.8026099 -0.7464205
-2.4327569 -2.7862537 -0.74600506
-2.4374993 -2.7573481 -0.74205798
-2.4543722 -2.7423398 -0.74205798
-2.4593313 -2.7141795 -0.73831862
-2.4660213 -2.6882248 -0.73520249
-2.4744825 -2.6644411 -0.73270965
-2.4820752 -2.6399422 -0.73000902
-2.4948552 -2.6211197 -0.72897029
-2.5068192 -2.6015356 -0.72772384
-2.5186369 -2.5819032 -0.72647738
-2.5309954 -2.5629203 -0.72543871
-2.537684 -2.538348 -0.72273809
-2.5497324 -2.5192914 -0.72169936
-2.5581429 -2.4967661 -0.71962196
-2.5684857 -2.4762695 -0.71816778
-2.5793817 -2.4564149 -0.71692133
-2.5872815 -2.4338388 -0.71484393
-2.5971508 -2.4132564 -0.71338969
-2.6083064 -2.3939674 -0.71235102
-2.6222219 -2.3772612 -0.71214324
-2.6338446 -2.3585162 -0.71131229
-2.6424055 -2.3371258 -0.7096504
-2.6552229 -2.319581 -0.70923489
-2.6605191 -2.2955759 -0.70674199
-2.665621 -2.2715936 -0.70424914
-2.6652911 -2.2432256 -0.70030206
-2.6775007 -2.2255785 -0.69988656
-2.6948862 -2.2122116 -0.70092523
-2.7046103 -2.192554 -0.69988656
-2.7195396 -2.1771405 -0.70030206
-2.7274761 -2.1561656 -0.69884783
-2.7344868 -2.1345735 -0.69718593
-2.7452087 -2.1159632 -0.69656271
-2.7464654 -2.0901916 -0.69344658
-2.7529833 -2.0685987 -0.69178468
-2.7601254 -2.0475876 -0.69033045
-2.7608006 -2.0219424 -0.68721437
-2.7763255 -2.0072572 -0.68804532
-2.7742591 -1.9799541 -0.68430597
-2.7847562 -1.9617674 -0.68389052
-2.7935288 -1.9424095 -0.68305951
-2.7981365 -1.9202499 -0.68118989
-2.8041973 -1.8992044 -0.67973566
-2.8117318 -1.8792441 -0.67869699
-2.8150444 -1.8565699 -0.67661959
-2.8239238 -1.8376613 -0.67599636
-2.8326771 -1.8187137 -0.67537314
-2.8388255 -1.7981572 -0.67412668
-2.8415103 -1.7755202 -0.67204928
-2.8556819 -1.760105 -0.67288023
-2.8563983 -1.736451 -0.67038733
-2.8510602 -1.7093332 -0.66644025
-2.854759 -1.6878238 -0.66477835
-2.8574567 -1.6658407 -0.66290867
-2.8667762 -1.6477888 -0.66270089
-2.8751309 -1.6292028 -0.66228545
-2.8825116 -1.6100993 -0.66166222
-2.8889093 -1.5904948 -0.66083127
-2.8986139 -1.5727388 -0.66083127
-2.9038968 -1.5526171 -0.65979254
-2.9133687 -1.5347699 -0.65979254
-2.9131813 -1.5119072 -0.65750742
-2.9180486 -1.4917769 -0.65646869
-2.9262736 -1.473404 -0.65626097
-2.9291248 -1.4523785 -0.65480679
-2.9379814 -1.4343784 -0.65480679
-2.9476087 -1.4167482 -0.65501451
-2.9465206 -1.3940325 -0.65272933
-2.9559054 -1.3763397 -0.65293711
-2.9527347 -1.3528785 -0.65023649
-2.9600885 -1.3343333 -0.65002871
-2.9628551 -1.3137656 -0.64878225
-2.9654808 -1.2932144 -0.6475358
-0.28094545 -0.12008512 -0.025351629
-2.9757195 -1.2544456 -0.64628941
-0.26071069 -0.10763921 -0.020365845
-0.26770765 -0.10862049 -0.021820031
-0.26927724 -0.10733926 -0.022027774
-0.27903455 -0.10926353 -0.024105182
-0.28517506 -0.10966293 -0.025351629
-0.27486619 -0.10375118 -0.022858737
-0 -0 -0
-0 -0 -0
-0 -0 -0
-0 -0 -0
-0 -0 -0
-0 -0 -0
-0 -0 -0
-0 -0 -0
-0 -0 -0
-0 -0 -0
-0 -0 -0
-0 -0 -0
-0 -0 -0
-0 -0 -0
-0 -0 -0
-0 -0 -0
-0 -0 -0
-0 -0 -0
-0 -0 -0
-0 -0 -0
-0 -0 -0
-0 -0 -0
-0 -0 -0
-0 -0 -0
-0 -0 -0
-0 -0 -0
-0 -0 -0
-0 -0 -0
-0 -0 -0
-0 -0 -0
-0 -0 -0
-0 -0 -0
-0 -0 -0
-0 -0 -0
-0 -0 -0
-0 -0 -0
-0 -0 -0
-0 -0 -0
-0 -0 -0
-0 -0 -0
-0 -0 -0
-0 -0 -0
-0 -0 -0
-0 -0 -0
-0 -0 -0
-0 -0 -0
-0 -0 -0
-0 -0 -0
-0 -0 -0
-0 -0 -0
-0 -0 -0
-0 -0 -0
-0 -0 -0
-0 -0 -0
-0.28062776 0.019586707 -0.023614472
-0.27758491 0.021074457 -0.022955444
-0.27647841 0.022693396 -0.022735769
-0 0 -0
-0.27714998 0.026180316 -0.022955444
-0 0 -0
-0.27874705 0.029794842 -0.023394797
-0 0 -0
-0.28029686 0.033452474 -0.023834148
-0 0 -0
-0 0 -0
-0.28446284 0.039293215 -0.024932528
-0 0 -0
-0.28106698 0.04233329 -0.0242735
-0.28080192 0.04405709 -0.0242735
-0.28052631 0.045779228 -0.0242735
-0.27927896 0.047332671 -0.024053825
-0 0 -0
-0.27388182 0.049862504 -0.022955444
-0.27357072 0.05154207 -0.022955444
-0.2732493 0.053219698 -0.022955444
-0.2729176 0.054895323 -0.022955444
-0.27257565 0.05656888 -0.022955444
-0.27127028 0.058032218 -0.022735769
-0.2709091 0.059695609 -0.022735769
-0.2705377 0.061356749 -0.022735769
-0.26635963 0.062113181 -0.021857064
-0.26597348 0.063746363 -0.021857064
-0.26463106 0.06513992 -0.021637389
-0.26706082 0.067491531 -0.022296418
-0.26947162 0.069875397 -0.022955444
-0 0 -0
-0.2817564 0.076822318 -0.026030907
-0 0 -0
-0.2826663 0.080817915 -0.026470259
-0.27748892 0.081162587 -0.025371879
-0.27045113 0.080880053 -0.023834148
-0.26901802 0.082248889 -0.023614472
-0.2657184 0.083013572 -0.022955444
-0.26427588 0.084341913 -0.022735769
-0.26467967 0.08626809 -0.022955444
-0.26599413 0.088514268 -0.023394797
-0.26544601 0.090144716 -0.023394797
-0.26580837 0.092094965 -0.023614472
-0.26523829 0.093724199 -0.023614472
-0.26740754 0.096353315 -0.0242735
-0.2704688 0.099352635 -0.025152205
-0.27167863 0.10170171 -0.025591556
-0.27560017 0.1051232 -0.026689935
-0.27676585 0.10752599 -0.027129287
-0.27519512 0.10885975 -0.026909612
-0.27181146 0.10944234 -0.026250584
-0.26662862 0.10924052 -0.025152205
-0.26235759 0.10935832 -0.0242735
-0.26168165 0.11096606 -0.0242735
-0.25831321 0.1113995 -0.023614472
-0.25762483 0.11298238 -0.023614472
-0.2595948 0.11576396 -0.0242735
-0.26242712 0.11898036 -0.025152205
-0.26434523 0.12182393 -0.025811231
-0.26535642 0.1242782 -0.026250584
-0.26810586 0.1275948 -0.027129287
-0.26907116 0.13009362 -0.027568638
-0.27176386 0.13347594 -0.028447343
-0.27181107 0.13557974 -0.02866702
-0.26923683 0.13635671 -0.028227666
-0.26666334 0.13710724 -0.027788315
-0.26668015 0.13919564 -0.028007992
-0.26237988 0.13898912 -0.027129287
-0.25894979 0.13920048 -0.026470259
-0.25638163 0.13984559 -0.026030907
-0.2563704 0.1418919 -0.026250584
-0.25549495 0.14346229 -0.026250584
-0.25714719 0.14648595 -0.026909612
-0.25624353 0.14806102 -0.026909612
-0.25784943 0.1511202 -0.027568638
-0.25942737 0.15420462 -0.028227666
-0.26097706 0.15731403 -0.028886694
-0.26000687 0.15891241 -0.028886694
-0.26150882 0.16205585 -0.029545723
-0.26050952 0.1636574 -0.029545723
-0.26196313 0.16683418 -0.030204751
-0.26175216 0.16897058 -0.030424427
-0.26233917 0.17164783 -0.030863779
-0.26209208 0.17379643 -0.031083453
-0.26263618 0.17649558 -0.031522807
-0.26074395 0.17755169 -0.03130313
-0.25884867 0.17859125 -0.031083453
-0.25615296 0.17905235 -0.030644102
-0.25584355 0.1811875 -0.030863779
-0.25472698 0.18275391 -0.030863779
-0.25360084 0.18431345 -0.030863779
-0.25403208 0.18702865 -0.03130313
-0.25365961 0.18916993 -0.031522807
-0.25404665 0.19190454 -0.031962156
-0.25440967 0.19465098 -0.03240151
-0.25474846 0.19740905 -0.032840863
-0.25353238 0.19896844 -0.032840863
-0.25535294 0.20295933 -0.033719566
-0.25486058 0.20513673 -0.033939242
-0.25435111 0.2073157 -0.034158919
-0.25307426 0.20887247 -0.034158919
-0.25402692 0.21230613 -0.034817945
-0.25568941 0.21639208 -0.035696648
-0.25731117 0.22050634 -0.036575351
-0.258892 0.22464855 -0.037454057
-0 0 -0
-0 0 -0
-0 0 -0
-0 0 -0
-0 0 -0
-0 0 -0
-0 0 -0
-0 0 -0
-0 0 -0
-0 0 -0
-0 0 -0
-0 0 -0
-0 0 -0
-0 0 -0
-0 0 -0
-0 0 -0
-0 0 -0
-0 0 -0
-0 0 -0
-0 0 -0
-0 0 -0
-0 0 -0
-0 0 -0
-0 0 -0
-0 0 -0
-0 0 -0
-0 0 -0
-0 0 -0
-0 0 -0
-0 0 -0
-0 0 -0
-0 0 -0
-0 0 -0
-0 0 -0
-0 0 -0
-2.161798 2.9517822 -0.78413254
-2.1487877 2.9721084 -0.78610963
-2.1305106 2.9852371 -0.78610963
-0 0 -0
-2.0898199 3.0055487 -0.78457195
-2.0674767 3.0126832 -0.78303421
-2.0533268 3.0317757 -0.78479159
-2.0346854 3.0443177 -0.78479159
-2.0229466 3.0673344 -0.78764737
-2.006747 3.0837784 -0.78874576
-1.9872607 3.0952125 -0.78852612
-1.9671879 3.1056993 -0.78808671
-1.9424109 3.1086087 -0.78567028
-1.9192075 3.1138232 -0.7839129
-1.8990523 3.123873 -0.78347355
-1.8758377 3.1287715 -0.78171611
-1.8566046 3.1402228 -0.78171611
-1.8348463 3.1473405 -0.78061777
-1.8140423 3.1560018 -0.77995872
-1.7922398 3.1628287 -0.77886033
-1.7756522 3.1788771 -0.78017843
-1.7532921 3.1845839 -0.77886033
-1.729534 3.1875634 -0.77688324
-1.7131609 3.2041388 -0.77842098
-1.6921052 3.2120006 -0.777762
-1.6755087 3.228385 -0.77929968
-1.6605499 3.2481616 -0.78171611
-1.6388345 3.2548034 -0.78083742
-1.6240298 3.2752876 -0.78347355
-1.5966311 3.2702851 -0.77973902
-1.5816029 3.2905734 -0.78237516
-1.5709722 3.3205018 -0.78742772
-1.5468647 3.3221178 -0.78545064
-1.5252333 3.3288856 -0.78479159
-1.5103877 3.3506346 -0.78786707
-1.4866388 3.3527036 -0.78610963
-1.4656494 3.360868 -0.78588998
-1.4407737 3.3599336 -0.78347355
-1.4189944 3.3660135 -0.7828145
-0 0 -0
-1.3713318 3.3678112 -0.77908003
-1.3495554 3.3734443 -0.77842098
-1.3281178 3.3798454 -0.77798164
-1.3077054 3.3888412 -0.77820134
-1.2879233 3.3995385 -0.77886033
-1.2667001 3.4064627 -0.77864069
-1.2451065 3.4123375 -0.77820134
-1.2234883 3.418076 -0.777762
-1.2002325 3.4190745 -0.77622426
-1.1814511 3.4328327 -0.777762
-1.1553812 3.4252253 -0.77424717
-1.1352601 3.4350293 -0.77490616
-1.1102599 3.4298632 -0.77205038
-1.0886048 3.4347508 -0.77161103
-1.0649105 3.4329791 -0.76963395
-1.0421281 3.4338467 -0.76831591
-1.0218706 3.4429827 -0.76897496
-0.99882489 3.4426286 -0.76743722
-0.97821403 3.4505699 -0.76787657
-0.95832342 3.4612086 -0.76897496
-0.93859321 3.4726748 -0.770293
-0.91900682 3.4849722 -0.77183074
-0.89784878 3.4914906 -0.77205038
-0.87498736 3.4912555 -0.77073234
-0.85308683 3.494663 -0.770293
-0.8320784 3.5017302 -0.77073234
-0.80904073 3.5001156 -0.7691946
-0.78968477 3.514533 -0.77139139
-0.7695592 3.5259848 -0.77292907
-0.74669844 3.5249135 -0.77161103
-0.72564393 3.5322959 -0.77227008
-0.70395654 3.5366819 -0.77227008
-0.68058425 3.5323126 -0.770293
-0.65729219 3.5277898 -0.76831591
-0.63580614 3.5327168 -0.76853555
-0.61445105 3.5384741 -0.76897496
-0.59192431 3.5373664 -0.76787657
-0.56989872 3.5390053 -0.76743722
-0.54787534 3.5405073 -0.76699787
-0.52399653 3.5293267 -0.76370269
-0.50356442 3.5411685 -0.76567978
-0.48117122 3.5393581 -0.76458138
-0.45957023 3.5432115 -0.76480108
-0.43794009 3.5469327 -0.76502079
-0.41548854 3.5437393 -0.76370269
-0.39341474 3.543313 -0.7630437
-0.37105763 3.5398386 -0.7617256
-0.34942603 3.5430195 -0.76194531
-0.32606938 3.5276105 -0.75799114
-0.30375016 3.521769 -0.75623375
-0.28260052 3.5294013 -0.75755179
-0.2606529 3.5271771 -0.7566731
-0.23946489 3.5355237 -0.75821084
-0.21806498 3.5417953 -0.75930917
-0.19616786 3.5401442 -0.75865018
-0.17444225 3.5412812 -0.75865018
-0.15237649 3.5344875 -0.75689274
-0.13032924 3.5256069 -0.75469601
-0.10848593 3.5195143 -0.75315827
-0.086817302 3.5171878 -0.75249922
-0.065163553 3.5137527 -0.75162053
-0.043614123 3.5150619 -0.75184023
-0.022004727 3.5084343 -0.75030249
-0.0004763889 3.51143 -0.75096148
0.021050816 3.5084403 -0.75030249
0.042516988 3.5033674 -0.7492041
0.064012446 3.5030408 -0.7492041
0.085577898 3.5055077 -0.74986315
0.10705556 3.5039415 -0.74964345
0 0 -0
0.14975169 3.4955413 -0.7481057
0.17095681 3.4896848 -0.74700731
0.19241993 3.4895442 -0.74722701
0.21418783 3.4941401 -0.74854505
0.23575541 3.4947069 -0.7489844
0.25640255 3.4824924 -0.74656796
0.27870101 3.4925232 -0.7492041
0.29937047 3.4819996 -0.74722701
0.32108939 3.4839828 -0.7481057
0.34265229 3.4838889 -0.74854505
0.36320844 3.4739587 -0.74678767
0.38408652 3.4677863 -0.74590898
0.40547091 3.4663334 -0.74612862
0.42577541 3.4560344 -0.74437124
0.44584328 3.4446497 -0.74239415
0.46631342 3.4370158 -0.74129575
0.48464555 3.414773 -0.73690224
0.50630575 3.4165599 -0.73800063
0.52651358 3.4085684 -0.73690224
0.54679757 3.4014211 -0.73602355
0.56798017 3.3999264 -0.73646289
0.59150261 3.411756 -0.73997772
0.61346287 3.4138234 -0.74129575
0.63475561 3.4119129 -0.7417351
0.65604806 3.4098699 -0.74217445
0.67638671 3.40291 -0.74151546
0.69784302 3.4015625 -0.74217445
0.71485889 3.3790832 -0.73800063
0.73245776 3.3603365 -0.73470551
0.7511372 3.3472126 -0.73272842
0.76792502 3.3263822 -0.72899389
0.78741843 3.3178113 -0.7281152
0.8082242 3.3148127 -0.72855455
0.82688767 3.3031671 -0.72701681
0.85078543 3.3122034 -0.73031199
0.87532276 3.322957 -0.73404646
0.89747781 3.324116 -0.7355842
0.91733652 3.3166661 -0.73514485
0.93793607 3.3119137 -0.7353645
0.95715237 3.3023486 -0.73448581
0.97267723 3.2805145 -0.73075134
0.99307114 3.275418 -0.73097098
1.0122827 3.2664678 -0.73031199
1.0308323 3.2555451 -0.7292136
1.0528921 3.2556558 -0.73075134
1.0746858 3.2546916 -0.73206937
1.0955716 3.2508094 -0.73272842
1.1174029 3.2495606 -0.73404646
1.1392599 3.2481661 -0.7353645
1.1601554 3.24387 -0.73602355
1.1797031 3.2357738 -0.73580384
1.198175 3.224817 -0.73492515
1.216211 3.2128429 -0.73382676
1.2359017 3.2053199 -0.73382676
1.2548323 3.1958604 -0.73338741
1.2733308 3.1853836 -0.73272842
1.2991076 3.1928701 -0.73646289
1.3168066 3.1803327 -0.7353645
1.3351588 3.1694963 -0.73470551
1.3534278 3.1585546 -0.73404646
1.3727828 3.1501906 -0.73404646
1.3905041 3.1381409 -0.73316777
1.4073273 3.1242137 -0.73184967
1.4285028 3.1199541 -0.73294806
1.4426771 3.1005177 -0.73031199
1.4650127 3.0986619 -0.73206937
1.4856889 3.0931313 -0.73294806
1.5012155 3.0769441 -0.73119068
1.5235345 3.0746667 -0.73294806
1.5432492 3.0670033 -0.73338741
1.5607065 3.0548706 -0.73272842
1.5798709 3.0461025 -0.73294806
1.5971675 3.033762 -0.73228908
1.6148322 3.0221844 -0.73184967
1.6366028 3.0182211 -0.73338741
1.6522679 3.0029948 -0.73206937
1.6739936 2.9987619 -0.73360711
1.6976533 2.9977701 -0.73602355
1.7194189 2.9932175 -0.73756129
1.7387354 2.9842966 -0.73800063
1.7624762 2.9828088 -0.74041706
1.7807451 2.9719384 -0.74041706
1.8004676 2.9634566 -0.74107611
1.8160574 2.9482012 -0.73997772
1.8294599 2.9295568 -0.73800063
1.8463567 2.9166281 -0.73756129
1.8547295 2.8904681 -0.73360711
1.868705 2.8733099 -0.73206937
1.8798541 2.8520172 -0.72943324
1.8956919 2.8379958 -0.72877425
1.9185411 2.8343878 -0.73097098
1.9336882 2.819345 -0.73009229
1.9570779 2.8162374 -0.73250872
1.9731973 2.8025808 -0.73206937
1.9880894 2.7872448 -0.73119068
2.0040109 2.7734125 -0.73075134
2.0209906 2.7610638 -0.73075134
2.0413818 2.7533121 -0.73206937
2.0594096 2.7422943 -0.73250872
2.0779698 2.7319353 -0.73316777
2.0946937 2.7191336 -0.73316777
2.1077363 2.7016158 -0.73184967
2.1260886 2.690928 -0.73250872
2.1382916 2.6725011 -0.73097098
2.1564927 2.6616039 -0.73163003
2.1771169 2.6535997 -0.73316777
2.1952291 2.642442 -0.73382676
2.218312 2.6371324 -0.73624319
2.2300217 2.618274 -0.73470551
2.2460451 2.6045415 -0.73470551
2.2658353 2.595119 -0.73602355
2.2758987 2.5745909 -0.73404646
2.2870972 2.5554907 -0.73250872
2.3033898 2.5421319 -0.73272842
2.3136668 2.5222013 -0.73097098
2.3364046 2.5158184 -0.73338741
2.3558083 2.5056982 -0.73470551
2.3718114 2.4919026 -0.73492515
2.3924739 2.4829206 -0.73668259
2.4076638 2.468194 -0.73668259
2.4220774 2.4526806 -0.73646289
2.4343212 2.435014 -0.7355842
2.4547698 2.4255149 -0.73734158
2.4772885 2.4179001 -0.73975801
2.4941854 2.404685 -0.74041706
2.5117202 2.3920259 -0.74129575
2.5242178 2.3745646 -0.74063671
2.5394552 2.3596954 -0.74085641
2.5488536 2.3394532 -0.73931867
2.5617142 2.3224597 -0.73887932
2.5824592 2.3125525 -0.74085641
2.600255 2.2998939 -0.7419548
2.6216671 2.2903116 -0.74415153
2.6386261 2.2767305 -0.74503022
2.6466043 2.2554371 -0.74327284
2.6611402 2.2397833 -0.74349254
2.6763341 2.2246594 -0.74393189
2.6838999 2.2032459 -0.74217445
2.7004004 2.1891928 -0.7430532
2.7122586 2.1713634 -0.74261379
2.7255309 2.1546805 -0.74261379
2.7356236 2.1355162 -0.7417351
2.7455838 2.1163092 -0.74085641
2.7724948 2.1100528 -0.74481058
2.7783685 2.0877295 -0.7428335
2.7973959 2.0752902 -0.74459088
2.8022046 2.052325 -0.74239415
2.8115816 2.0328069 -0.74151546
2.8279729 2.0183494 -0.74261379
2.8411019 2.0015211 -0.7428335
2.8501248 1.9818239 -0.7419548
2.8662541 1.9670573 -0.7430532
2.8839254 1.953261 -0.74459088
2.8885546 1.9306523 -0.74261379
2.9036047 1.9150394 -0.74349254
2.91939 1.8998464 -0.74459088
2.9367399 1.8855853 -0.74612862
2.9540246 1.8711827 -0.74766636
2.9687603 1.8550887 -0.74854505
2.9850709 1.8399075 -0.74986315
2.9913015 1.8185178 -0.74854505
2.9990561 1.7981237 -0.74766636
3.0058329 1.7772069 -0.74656796
3.0116234 1.7557836 -0.74524993
3.0240319 1.7382432 -0.74568927
3.0371873 1.7210975 -0.74634832
3.0459869 1.7014784 -0.74590898
3.0597887 1.6846374 -0.74678767
3.0709255 1.6662962 -0.74700731
3.0699058 1.6414458 -0.74415153
3.0868258 1.6262137 -0.74590898
3.0872195 1.6023023 -0.74349254
3.0978618 1.5837731 -0.74371219
3.1162362 1.5691197 -0.74590898
3.1205604 1.5473707 -0.74459088
3.1317499 1.5290496 -0.74503022
3.1437111 1.5110718 -0.74568927
3.1432219 1.4871676 -0.74327284
3.1611331 1.4719684 -0.74546963
3.1798627 1.4570112 -0.74788606
3.1736214 1.4306618 -0.74415153
3.1867998 1.4131377 -0.74524993
3.2115092 1.4005716 -0.7492041
3.2119718 1.377382 -0.74722701
3.2221608 1.3584052 -0.74766636
3.2268298 1.3371162 -0.74678767
3.2340698 1.316924 -0.74656796
3.2502425 1.3003139 -0.74854505
3.2563436 1.2796333 -0.7481057
3.2695956 1.2617342 -0.74942374
3.2818379 1.2433753 -0.75052214
3.2967215 1.2259327 -0.75227958
3.3133473 1.2090224 -0.75447631
3.3216219 1.1889979 -0.75469601
3.3352993 1.1708542 -0.75623375
3.3405757 1.1497328 -0.75579435
3.3457184 1.1285908 -0.755355
3.3498011 1.107123 -0.75469601
3.355603 1.086248 -0.75447631
3.3631349 1.0659325 -0.75469601
3.3621571 1.0429667 -0.75293857
3.3638253 1.0209023 -0.75184023
3.3728321 1.0010748 -0.75249922
3.3835962 0.98171836 -0.75359762
3.3876789 0.96040696 -0.75315827
3.3944483 0.93986249 -0.75337791
3.3963838 0.91799986 -0.75249922
3.4104433 0.8993789 -0.75447631
3.4130628 0.8777079 -0.75381732
3.4212232 0.85745978 -0.75447631
3.4302113 0.83737558 -0.755355
3.4485738 0.81946564 -0.75843048
3.4525867 0.79807073 -0.75821084
3.4640818 0.77836597 -0.75974852
3.4687927 0.75709611 -0.75974852
3.4686005 0.73478842 -0.75865018
3.4711323 0.71309966 -0.75821084
3.4735289 0.6914075 -0.75777143
3.4805799 0.67063409 -0.75843048
3.4846292 0.64926505 -0.75843048
3.4827862 0.6268366 -0.75711244
3.495218 0.60695416 -0.75908953
3.5084989 0.58710349 -0.76128626
3.5024033 0.56401676 -0.75908953
3.5135112 0.54370683 -0.76084691
3.5109909 0.52128035 -0.75952888
3.5102596 0.49917936 -0.75865018
3.5122898 0.47750032 -0.75843048
3.5093484 0.45518932 -0.75711244
3.5062659 0.43293241 -0.75579435
3.5030425 0.41073048 -0.75447631
3.493861 0.38794041 -0.75184023
3.5058784 0.36750907 -0.75403696
3.5041838 0.34560874 -0.75315827
3.5140102 0.32481676 -0.75491565
3.5178809 0.3034161 -0.755355
3.5235665 0.28213528 -0.75623375
3.5262043 0.26058134 -0.75645339
3.5267634 0.23887444 -0.75623375
3.523294 0.21693197 -0.75513536
3.5187142 0.19498743 -0.75381732
3.5198443 0.17339334 -0.75381732
3.5208421 0.15179271 -0.75381732
3.5158575 0.12997207 -0.75249922
3.5136635 0.10830753 -0.75184023
3.5113361 0.086674802 -0.75118119
3.5088756 0.065074719 -0.75052214
3.5257924 0.043743704 -0.75425667
3.5094099 0.02201052 -0.75052214
3.5153325 0.00047562268 -0.75184023
3.524049 -0.021149658 -0.75381732
3.5345833 -0.042906214 -0.75623375
3.5244997 -0.064411715 -0.75403696
3.5230627 -0.086012296 -0.75381732
3.5263691 -0.10774825 -0.75469601
3.5246668 -0.12934752 -0.75447631
3.5208826 -0.15084578 -0.75381732
3.5218396 -0.1725428 -0.75425667
3.5090258 -0.1935007 -0.75162053
3.5087461 -0.21508804 -0.75184023
3.5054135 -0.23648128 -0.75140083
3.498059 -0.25755388 -0.75008279
3.5051651 -0.27971408 -0.75205988
3.4956071 -0.30054495 -0.75030249
3.4849544 -0.32117924 -0.74832541
3.4838889 -0.34265229 -0.74854505
3.4846315 -0.36432788 -0.7492041
3.4881482 -0.38634863 -0.75052214
3.482805 -0.40740323 -0.74986315
3.4889536 -0.42984217 -0.75184023
3.4891529 -0.45161852 -0.75249922
0 -0 -0
3.4862456 -0.49481404 -0.75315827
3.4657741 -0.51361591 -0.7492041
3.4606292 -0.53457332 -0.74876475
3.4659524 -0.55719376 -0.75074184
3.4566951 -0.57748353 -0.74942374
3.4405913 -0.59651184 -0.74656796
3.4551091 -0.62089622 -0.75074184
3.4502752 -0.6419059 -0.75052214
3.458725 -0.66546464 -0.75337791
3.4497926 -0.68572187 -0.75227958
3.4493425 -0.70766199 -0.75315827
0 -0 -0
3.4318206 -0.74806464 -0.75118119
3.4385879 -0.77167505 -0.75381732
3.4195309 -0.78946269 -0.75052214
3.4146223 -0.81042969 -0.75052214
3.4209583 -0.83414322 -0.75315827
3.4100978 -0.85369474 -0.75184023
3.4000714 -0.87338746 -0.75074184
3.4003081 -0.89572638 -0.75205988
3.3843887 -0.91377276 -0.74964345
3.382479 -0.93556333 -0.75052214
3.3719819 -0.95496947 -0.74942374
3.3613744 -0.97428209 -0.74832541
3.3618796 -0.99683225 -0.74986315
3.3613009 -1.0191418 -0.75118119
3.3577795 -1.0406145 -0.75184023
3.3652806 -1.0656201 -0.75513536
3.3558943 -1.0853474 -0.75447631
3.3417614 -1.1034688 -0.75271893
3.3395495 -1.125512 -0.75381732
3.3178217 -1.1409012 -0.75030249
3.2997129 -1.1573591 -0.74766636
3.2824461 -1.1739668 -0.74524993
3.2788467 -1.1954232 -0.74612862
3.2824225 -1.2196004 -0.74876475
3.2849126 -1.2435206 -0.75118119
3.2881422 -1.2678684 -0.75381732
3.2866564 -1.2905183 -0.755355
3.2777703 -1.3102981 -0.75513536
3.273283 -1.3318573 -0.75601405
0 -0 -0
3.2530968 -1.3704091 -0.75513536
3.2383509 -1.3876522 -0.75359762
3.2414 -1.4125667 -0.75645339
3.204134 -1.4197724 -0.74942374
3.2069237 -1.4446186 -0.75227958
3.1917913 -1.4614238 -0.75074184
3.170383 -1.4752146 -0.74766636
3.1771443 -1.502151 -0.75162053
3.169626 -1.5224627 -0.75205988
3.1646078 -1.5440229 -0.75315827
3.1585703 -1.5651453 -0.75403696
3.1436794 -1.5818636 -0.75271893
3.1330454 -1.6006789 -0.75249922
3.1179698 -1.6171761 -0.75118119
3.1105776 -1.6376414 -0.75184023
3.0953088 -1.6539364 -0.75052214
3.0876746 -1.6742938 -0.75118119
3.0722158 -1.6903844 -0.74986315
3.0643408 -1.7106308 -0.75052214
3.0580306 -1.7318062 -0.75162053
3.0465012 -1.750051 -0.75140083
3.0323346 -1.7667454 -0.75052214
3.0340331 -1.7927667 -0.75381732
3.0279958 -1.8143597 -0.75513536
3.0201404 -1.8349323 -0.75601405
3.0088246 -1.853429 -0.75601405
2.9965682 -1.8713388 -0.75579435
2.9726679 -1.8818589 -0.75249922
2.9602442 -1.8995363 -0.75227958
2.9468977 -1.9165999 -0.75184023
2.9448547 -1.9410917 -0.75447631
2.9280226 -1.9558715 -0.75315827
2.9256589 -1.9803662 -0.75579435
2.9239089 -2.0054574 -0.75865018
2.9187572 -2.0283732 -0.76062727
2.9102437 -2.0490537 -0.7617256
2.9039686 -2.0714064 -0.76348305
2.8801365 -2.0811827 -0.76040757
2.8618031 -2.0947804 -0.75886983
2.8473289 -2.1111381 -0.75843048
2.8304222 -2.1256387 -0.75733209
2.8204315 -2.1453292 -0.75821084
2.8079875 -2.1631904 -0.75843048
2.7992754 -2.1839814 -0.75974852
2.7835262 -2.199301 -0.75908953
