# .PCD v0.7 - Point Cloud Data file format
VERSION 0.7
FIELDS x y z
SIZE 4 4 4
TYPE F F F
COUNT 1 1 1
WIDTH 1582
HEIGHT 1
VIEWPOINT 0 0 0 1 0 0 0
POINTS 1582
DATA ascii
-0 0 -0
-0 0 -0
-0 0 -0
-0 0 -0
-0 0 -0
-0 0 -0
-0 0 -0
-0 0 -0
-0 0 -0
-0 0 -0
-0 0 -0
-0 0 -0
-0 0 -0
-0 0 -0
-0 0 -0
-0 0 -0
-0 0 -0
-0 0 -0
-0 0 -0
-0 0 -0
-0 0 -0
-0 0 -0
-0 0 -0
-0 0 -0
-0 0 -0
-0 0 -0
-0 0 -0
-0 0 -0
-0 0 -0
-0 0 -0
-0 0 -0
-0 0 -0
-0 0 -0
-0 0 -0
-0 0 -0
-0 0 -0
-0 0 -0
-0 0 -0
-0 0 -0
-0 0 -0
-0 0 -0
-0 0 -0
-0 0 -0
-0 0 -0
-0 0 -0
-0 0 -0
-0 0 -0
-0 0 -0
-0 0 -0
-0.27140158 0.23154737 -0.010949072
-0.25196746 0.21768726 -0.0076628509
-0.23271431 0.20359798 -0.0043766294
-0.2670936 0.23650376 -0.010949072
-0.2656374 0.23813817 -0.010949072
-0.23773828 0.21582614 -0.0060197399
-0.2656157 0.2440577 -0.011496776
-0.26120904 0.24298733 -0.010949072
-0.25105059 0.23644553 -0.0093059614
-0.2711263 0.25846395 -0.013413738
-0.27381635 0.26424551 -0.014235294
-0.26367849 0.2576226 -0.012592183
-0.25222251 0.24949384 -0.010675221
-0.23456994 0.23493315 -0.0075259251
-0.25262398 0.25609243 -0.01135985
-0.25173995 0.25834638 -0.011496776
-0.25290096 0.2627379 -0.01204448
-0.23146711 0.2434876 -0.0080736289
-0 0 -0
-0.26623324 0.28693628 -0.015741479
-0.26513764 0.28929403 -0.015878405
-0.24738467 0.27330673 -0.012592183
-0.24900815 0.27850834 -0.013276813
-0.26567611 0.30080163 -0.017110737
-0.26252159 0.30093446 -0.016836885
-0.24448687 0.2837944 -0.013413738
-0.23502831 0.27624401 -0.011770627
-0 0 -0
-0 0 -0
-0 0 -0
-0 0 -0
-0 0 -0
-0 0 -0
-0 0 -0
-0 0 -0
-3.3797317 4.43889 -0.73282242
-3.3542173 4.4619198 -0.73323315
-3.362792 4.5309358 -0.74158567
-3.3261445 4.5394993 -0.73953176
-3.3051953 4.5694537 -0.74117488
-3.2909117 4.608995 -0.74446112
-3.2774084 4.6501517 -0.74802119
-3.2646546 4.6929417 -0.75185508
-3.2290688 4.7030859 -0.75021201
-3.2334938 4.7720113 -0.75842756
-3.1991963 4.7843513 -0.75719523
-3.1997886 4.8493638 -0.76472616
-3.1905136 4.9004498 -0.76992935
-3.170558 4.9357691 -0.77253091
-3.1492283 4.9693537 -0.77485865
-3.1312814 5.0087414 -0.7781449
-3.1098495 5.0430365 -0.78060955
-3.0752437 5.0560994 -0.77965105
-3.0579216 5.0978084 -0.78334808
-3.0311241 5.1241484 -0.78458041
-3.0051165 5.1520624 -0.78608656
-2.9764109 5.1755567 -0.78690815
-2.9538817 5.210094 -0.78950971
-2.9126747 5.2116919 -0.78690815
-2.8892455 5.2450829 -0.7893728
-2.8655159 5.2783818 -0.79183745
-2.8237281 5.2783966 -0.78909898
-2.8051457 5.3219113 -0.79320675
-2.7760909 5.346056 -0.79430211
-2.754966 5.3859177 -0.79786223
-2.7316732 5.4221826 -0.80087459
-2.7075984 5.4574757 -0.80375004
-2.6727564 5.4713163 -0.80333924
-2.6412816 5.4920769 -0.80402386
-2.6075332 5.5081797 -0.80402386
-2.58582 5.5501142 -0.80799472
-2.5591483 5.5820837 -0.81045938
-2.5240345 5.5958757 -0.81018555
-2.482419 5.5949597 -0.8077209
-2.457948 5.6327834 -0.81114399
-2.4229491 5.6468487 -0.81100708
-2.3909504 5.6679978 -0.81196558
-2.3572657 5.685307 -0.81237638
-2.3298137 5.7180104 -0.81511486
-2.2961576 5.7358766 -0.81566256
-2.2601945 5.748014 -0.81538874
-2.224169 5.7599258 -0.81511486
-2.1958091 5.7919893 -0.81785339
-2.1505542 5.7793593 -0.81401944
-2.1198096 5.8054724 -0.81593645
-2.0914984 5.8388858 -0.81894881
-2.0572741 5.8562822 -0.81963342
-2.0193663 5.8631759 -0.81881189
-1.9808173 5.8679476 -0.81771648
-1.9541085 5.908205 -0.82182425
-1.9175143 5.9191418 -0.82168734
-1.8787626 5.9232421 -0.82059193
-1.8415017 5.9318204 -0.82018113
-1.8065097 5.9477472 -0.82086575
-1.7691346 5.9558711 -0.82045496
-1.7281362 5.9513936 -0.81826419
-1.6956433 5.9761796 -0.82031804
-1.6621174 5.9979262 -0.82196116
-1.625801 6.0099244 -0.82223499
-1.5810555 5.9900966 -0.8179903
-1.5541503 6.0380569 -0.82346737
-1.5153847 6.0407534 -0.82250887
-1.4766445 6.0432024 -0.82155037
-1.4308236 6.0155292 -0.81634718
-1.390759 6.0106845 -0.81443024
-1.3473288 5.9901118 -0.81032246
-1.3086452 5.9895568 -0.80909014
-1.2689915 5.9839072 -0.80717319
-1.2356445 6.0080757 -0.80950093
-1.2041787 6.0427451 -0.81333482
-1.1633246 6.0305676 -0.81059629
-1.1304795 6.0599885 -0.81374562
-1.0997771 6.1028814 -0.81881189
-1.0623099 6.1095142 -0.81881189
-1.0216911 6.0973554 -0.81621027
-0.9899388 6.1387153 -0.82113963
-0.95195019 6.1427164 -0.82086575
-0.91176343 6.1317849 -0.81853801
-0.87607867 6.1509938 -0.82045496
-0.83444256 6.1277895 -0.81648415
-0.79835975 6.1445818 -0.81812721
-0.75480235 6.1021771 -0.81155479
-0.71873343 6.1184993 -0.81319791
-0.67986244 6.11098 -0.81155479
-0.63344812 6.0303135 -0.79977918
-0.59809244 6.0508447 -0.80210692
-0.56369746 6.0839911 -0.80621469
-0.52661234 6.0902963 -0.80662549
-0.48788428 6.0766268 -0.80429775
-0.45154229 6.0923486 -0.80607778
-0.41489124 6.1058755 -0.80758393
-0.37595081 6.0845776 -0.80429775
-0.33816877 6.0788574 -0.80320233
-0.2997849 6.059052 -0.80018997
-0.26419052 6.0973945 -0.80525619
-0.22581401 6.0731635 -0.80169612
-0.1879912 6.056613 -0.79923147
-0.15218461 6.1121173 -0.8067624
-0.11288869 6.0178571 -0.79361749
-0.076703109 6.0768762 -0.80169612
-0.038973421 6.0098743 -0.79238516
-0.0020902213 5.9941511 -0.79019433
0.034864929 6.0247583 -0.79443908
0.07096234 5.9511333 -0.78430653
0.10669227 5.9070072 -0.77828181
0.14463185 5.9765525 -0.78800356
0.17839293 5.8795099 -0.77472174
0.21554708 5.9080024 -0.77882951
0.25036165 5.8729196 -0.77417403
0.28610331 5.8653359 -0.77335244
0.32132724 5.8496227 -0.7714355
0.36077347 5.9058771 -0.77951413
0.39116135 5.816577 -0.76746464
0.43140894 5.876307 -0.77609098
0.46007603 5.7807274 -0.76321995
0.49511436 5.772861 -0.76253533
0.5270825 5.7322302 -0.75733215
0.56591898 5.7663503 -0.76253533
0.59676975 5.719419 -0.75651056
0.63511544 5.7451873 -0.76061839
0.66691089 5.7116652 -0.75651056
0.70049423 5.6956673 -0.75486749
0.73314512 5.6735783 -0.75240278
0.76688051 5.6611199 -0.75130743
0.80062956 5.6494422 -0.75034893
0.83339459 5.6316843 -0.74856889
0.8683871 5.6294017 -0.74897969
0.90244126 5.6210332 -0.74856889
0.93316633 5.5929174 -0.74541956
0.95428836 5.5109529 -0.73473936
0.98598576 5.4932938 -0.73309624
0.99362206 5.3468957 -0.71337891
1.0086572 5.2482829 -0.70037097
1.0065138 5.0690455 -0.67599815
1.0310373 5.0307503 -0.67147958
1.0459148 4.9487324 -0.66079938
1.082581 4.9712591 -0.66490716
1.1219459 5.0041537 -0.67052114
1.1426142 4.9537387 -0.66435945
1.1533388 4.8637419 -0.65258384
1.1768318 4.8305874 -0.64888686
1.1956364 4.7800307 -0.64272517
1.2114035 4.7198319 -0.63519424
1.2428616 4.7218895 -0.63656348
1.2689738 4.7036543 -0.63505733
1.2959645 4.6890955 -0.63409883
1.3212062 4.6686645 -0.63231879
1.3459707 4.6471486 -0.63040185
1.3665824 4.6122084 -0.6265679
1.3891134 4.5847754 -0.62382936
1.4180979 4.5790043 -0.62424016
1.4458686 4.5692725 -0.62410325
1.4750962 4.564085 -0.62465096
1.495625 4.532371 -0.62136471
1.5215104 4.5174761 -0.62054318
1.5498441 4.5099287 -0.62081701
1.5768322 4.4984646 -0.62054318
1.6064045 4.4943018 -0.62136471
1.6332728 4.4824986 -0.62109089
1.65523 4.4575343 -0.61890006
1.6772932 4.4333963 -0.61684614
1.7098062 4.4368863 -0.61890006
1.7395308 4.4327669 -0.61985856
1.7696365 4.429369 -0.62095392
1.7979004 4.4211802 -0.62136471
1.8249944 4.4100657 -0.62136471
1.8489453 4.3914804 -0.6202693
1.8754662 4.3791423 -0.62013239
1.8920182 4.3439388 -0.61657232
1.9182355 4.3313422 -0.61643541
1.9276989 4.2815523 -0.61068451
1.9869044 4.3417058 -0.6216386
2.0084953 4.3186536 -0.61999547
2.0269163 4.2892313 -0.61739385
2.0399084 4.2490296 -0.61314917
2.0872133 4.2800617 -0.61985856
2.1077216 4.2556343 -0.61807853
2.1422491 4.2594361 -0.62068009
2.1534798 4.2170973 -0.61616153
2.1943576 4.2328267 -0.62068009
2.2189047 4.2166529 -0.6202693
2.2559342 4.2239299 -0.62355554
2.2799215 4.2065244 -0.62300783
2.3013937 4.1846437 -0.62177551
2.3410223 4.1955314 -0.62574637
2.3652577 4.1785016 -0.62533557
2.3859203 4.1553192 -0.62396634
2.4138641 4.1448812 -0.62465096
2.4498286 4.1479044 -0.6275264
2.4752336 4.1327944 -0.6275264
2.5149405 4.1412373 -0.63136029
2.5392647 4.1240406 -0.63108647
2.5734375 4.1226687 -0.63341421
2.604511 4.1160088 -0.63492036
2.626509 4.0949473 -0.63409883
2.6564441 4.0862293 -0.63533115
2.7092583 4.112041 -0.64231437
2.7179384 4.0706239 -0.6382066
2.7528548 4.0686393 -0.64067125
2.7844884 4.0614758 -0.64231437
2.8127472 4.0491958 -0.64313596
2.84267 4.0391521 -0.64436829
2.8794756 4.0385723 -0.64724374
2.9187002 4.040905 -0.65066689
2.9463642 4.0269175 -0.65135151
2.9993258 4.0469656 -0.65792394
3.0217226 4.0253167 -0.65737623
3.0577545 4.0216832 -0.65997785
3.0745177 3.9926419 -0.65819782
3.0971308 3.9713585 -0.65778702
3.1533628 3.9927061 -0.66490716
3.1765649 3.9717348 -0.66463333
3.2077324 3.9606371 -0.66613948
3.237627 3.9477742 -0.66737181
3.2617893 3.9278343 -0.66737181
3.3317251 3.9623384 -0.67723048
3.357259 3.9433293 -0.67750436
3.4053199 3.9504182 -0.68257058
3.4503369 3.9533329 -0.68695223
3.4778085 3.9357994 -0.68763685
3.4668908 3.8752551 -0.68037981
3.495923 3.8597836 -0.68147522
3.5369453 3.8572445 -0.68503529
3.5538075 3.8282092 -0.68366599
3.5880835 3.8178816 -0.68585682
3.6332898 3.8187604 -0.69023848
3.6745186 3.8149462 -0.69379854
3.7186027 3.8136063 -0.69790632
3.757937 3.8069329 -0.70105559
3.7994292 3.8020222 -0.70461565
3.8642485 3.8197269 -0.71269429
3.9166698 3.8243203 -0.71830827
3.9707181 3.8297884 -0.72419608
4.0084853 3.8190193 -0.72693461
4.0469909 3.8086095 -0.72981006
4.0898714 3.8019171 -0.73350704
4.1517916 3.8122621 -0.74076408
4.2088547 3.8173301 -0.74706268
4.2580199 3.814569 -0.75185508
4.3087926 3.8126605 -0.75692135
4.3679051 3.8174424 -0.76349378
4.4137406 3.8099897 -0.76760161
4.4347739 3.7809076 -0.76719081
4.4647088 3.7593679 -0.76842314
4.498354 3.7407701 -0.77034009
4.5242844 3.7156131 -0.77088779
4.5523829 3.6921511 -0.77184629
4.577271 3.6660063 -0.77225709
4.5888023 3.6292484 -0.77034009
4.6039586 3.5955358 -0.76910776
4.6227961 3.5647988 -0.76856005
4.6445823 3.5363667 -0.76856005
4.6725278 3.5125639 -0.76965547
4.6470642 3.448993 -0.76157683
4.65136 3.4081182 -0.75870138
4.7026825 3.4015772 -0.76390457
4.7041183 3.3588417 -0.76061839
4.7141137 3.3224952 -0.7588383
4.7409167 3.2980332 -0.75993371
4.7243171 3.2436481 -0.75377208
4.7793918 3.2384951 -0.75965989
4.7892919 3.2025003 -0.75801677
4.8336549 3.1894219 -0.76212454
4.8630953 3.1661897 -0.76376766
4.8490949 3.1148734 -0.75829065
4.8722992 3.0877128 -0.75897527
4.8903136 3.0572336 -0.7588383
4.8777847 3.0079298 -0.75377208
4.9232306 2.9944177 -0.75815368
4.9270711 2.9554896 -0.75582594
4.9493756 2.9277239 -0.75651056
4.9723806 2.900295 -0.75733215
5.023571 2.8889921 -0.76267225
5.0308628 2.8522503 -0.76102912
5.0231938 2.8073115 -0.75705826
5.0550737 2.7845631 -0.759386
5.0720644 2.7534933 -0.759386
5.0888643 2.7223198 -0.759386
5.1221213 2.699821 -0.76198763
5.1210089 2.6592102 -0.75924909
5.1222372 2.6200683 -0.75692135
5.201026 2.6202374 -0.76664311
5.2232165 2.5913572 -0.76760161
5.2167678 2.5483882 -0.76417845
5.1912432 2.4965789 -0.75787985
5.2342181 2.4778199 -0.76212454
5.2538128 2.4477487 -0.76280916
5.2984471 2.429091 -0.76732773
5.2852607 2.3839068 -0.76308304
5.2880182 2.3462088 -0.76130301
5.2433023 2.2879624 -0.75240278
5.2781792 2.2647324 -0.75555211
5.2855868 2.2296081 -0.75459361
5.3476644 2.2172456 -0.76185071
5.3180537 2.1668208 -0.7554152
5.3735509 2.1510863 -0.76171374
5.3479309 2.1028471 -0.75596291
5.3625813 2.0707071 -0.75623673
5.4122353 2.0518124 -0.76171374
5.4200811 2.0168374 -0.76102912
5.4481721 1.9893192 -0.76335686
5.4127164 1.9388132 -0.75637364
5.4553518 1.9164013 -0.76089221
5.4913583 1.8912803 -0.76445228
5.4972286 1.855649 -0.76363075
5.5160346 1.8243726 -0.76472616
5.5111051 1.7853018 -0.76239842
5.5313978 1.7544482 -0.76376766
5.5240846 1.7148938 -0.76116604
5.5108075 1.6737678 -0.75774294
5.5807962 1.6576964 -0.76636922
5.5233221 1.6038053 -0.75664753
5.5721297 1.5809731 -0.76226145
5.5712252 1.5438428 -0.7607553
5.4935794 1.4860846 -0.74829501
5.5476093 1.4642332 -0.75473052
5.5545707 1.4296721 -0.7544567
5.5690031 1.3970095 -0.75527823
5.5630364 1.3592846 -0.75322437
5.5568171 1.3216857 -0.75117046
5.5773678 1.2904686 -0.75295049
5.5793824 1.2549175 -0.75212896
5.5598807 1.2147373 -0.74829501
5.6273088 1.1933446 -0.75678444
5.5685472 1.1452199 -0.74747348
5.5667262 1.1092875 -0.74624115
5.6697192 1.0936912 -0.7597968
5.5847888 1.0418003 -0.74692577
5.6485929 1.0178818 -0.75500441
5.6215506 0.97743177 -0.75034893
5.6420965 0.94537663 -0.75240278
5.6419234 0.90979302 -0.75158125
5.6278219 0.87212241 -0.74884272
5.634047 0.8377201 -0.74897969
5.6557527 0.80551004 -0.75130743
5.6183834 0.76504183 -0.74541956
5.6288657 0.73131984 -0.74624115
5.653892 0.699323 -0.7491166
5.670866 0.66612142 -0.75089663
5.6354666 0.6269294 -0.74541956
5.6323109 0.59161419 -0.74446112
5.6703372 0.56045645 -0.74925351
5.6430922 0.52281833 -0.74500883
5.6570501 0.48912251 -0.74651498
5.6638942 0.45471966 -0.74706268
5.7288132 0.42457479 -0.75568902
5.6917787 0.38672674 -0.75021201
5.6979995 0.35203996 -0.75075972
5.6684027 0.31530836 -0.74637806
5.6484642 0.27944341 -0.74336571
5.6649175 0.24542399 -0.74541956
5.6514683 0.21010701 -0.74336571
5.7259188 0.17770523 -0.7534982
5.7387843 0.14286496 -0.75514132
5.6910233 0.1067362 -0.74843198
5.7103906 0.072053485 -0.75103354
5.7483664 0.037260406 -0.75623673
5.7356095 0.0019830517 -0.7544567
5.7216454 -0.033130679 -0.75253975
5.7262874 -0.068296142 -0.75322437
5.7188272 -0.10330593 -0.75226587
5.758688 -0.13937393 -0.75787985
5.7646551 -0.17491578 -0.7588383
5.7317958 -0.20913014 -0.7544567
5.7185283 -0.24379036 -0.75281358
5.7238507 -0.27921137 -0.75377208
5.7012587 -0.31318742 -0.75089663
5.7358131 -0.35039613 -0.75596291
5.7503572 -0.38671261 -0.75829065
5.7449126 -0.42177147 -0.75787985
5.7135801 -0.4547365 -0.75390899
5.799509 -0.49739802 -0.76623231
5.7125015 -0.52526987 -0.75459361
5.7259307 -0.56195486 -0.75692135
5.74405 -0.59933805 -0.75993371
5.771771 -0.6380524 -0.76431537
5.7382302 -0.67001086 -0.76020759
5.7477756 -0.70689929 -0.76212454
5.7148399 -0.73847413 -0.75815368
5.6454139 -0.764754 -0.7491166
5.6376729 -0.79896241 -0.7487058
5.6914597 -0.84223604 -0.75692135
5.6861844 -0.87714231 -0.75692135
5.6640682 -0.90934736 -0.75459361
5.7013736 -0.95125431 -0.76061839
5.6749325 -0.9826715 -0.75774294
5.7019463 -1.0234214 -0.76239842
5.6819243 -1.0558559 -0.76048142
5.6461554 -1.0850931 -0.75637364
5.6743693 -1.1266594 -0.76130301
5.5576916 -1.1389902 -0.74583036
5.6165028 -1.1869937 -0.75514132
5.5858841 -1.2163767 -0.75185508
5.6314783 -1.2625432 -0.759386
5.6072164 -1.2932899 -0.75705826
5.5712228 -1.3210448 -0.75308746
5.6005478 -1.3643457 -0.75842756
5.5930319 -1.3989246 -0.75856447
5.5613151 -1.427308 -0.75527823
5.6013093 -1.4742602 -0.76226145
5.5625091 -1.5006052 -0.75801677
5.5570159 -1.5357631 -0.75856447
5.5474882 -1.5698314 -0.75856447
5.6005507 -1.6220237 -0.76760161
5.6113877 -1.6625469 -0.77061397
5.5489383 -1.6811528 -0.76308304
5.5243244 -1.7107742 -0.76102912
5.560946 -1.7595772 -0.76787543
5.4916039 -1.7747827 -0.759386
5.5003653 -1.8149621 -0.76226145
5.5032072 -1.8534192 -0.76431537
5.5001631 -1.890048 -0.76554769
5.4482641 -1.909674 -0.75965989
5.4103251 -1.9337348 -0.75582594
5.4002194 -1.9675735 -0.75609982
5.4456215 -2.0220463 -0.76458919
5.4016104 -2.0435069 -0.75993371
5.4213223 -2.0890763 -0.76472616
5.3890367 -2.1147041 -0.76185071
5.4127564 -2.1624284 -0.76732773
5.3791981 -2.187392 -0.76431537
5.3281465 -2.2048302 -0.75870138
5.399426 -2.2732224 -0.7714355
5.3717165 -2.3004613 -0.76938164
5.334795 -2.3234911 -0.76595849
5.2950764 -2.3449516 -0.76212454
5.2751689 -2.3749578 -0.76130301
5.2911234 -2.4212935 -0.76595849
5.3031139 -2.4662433 -0.77006626
5.2771335 -2.4936583 -0.76842314
5.3072782 -2.547852 -0.77540636
5.2470255 -2.5586631 -0.76856005
5.2409921 -2.5956454 -0.77006626
5.2019567 -2.6161845 -0.7665062
5.1584568 -2.6340904 -0.76226145
5.1870499 -2.6889403 -0.76924467
5.1730833 -2.7221005 -0.76965547
5.1056023 -2.7267282 -0.76171374
5.079195 -2.7528129 -0.76020759
5.1168938 -2.8139951 -0.76883394
5.1012611 -2.8463039 -0.76910776
5.0845628 -2.8780391 -0.76924467
5.0539212 -2.9017854 -0.76719081
5.053998 -2.9432085 -0.77006626
5.0017252 -2.9540164 -0.76458919
4.9648085 -2.9734547 -0.76157683
4.9024405 -2.9771285 -0.7544567
4.9810896 -3.0668726 -0.77020317
4.9588165 -3.0952804 -0.76965547
4.9472647 -3.1304154 -0.77088779
4.9279637 -3.1607122 -0.77088779
4.9109688 -3.1925097 -0.77129859
4.8805337 -3.2154987 -0.76951855
4.8705983 -3.2519844 -0.77116168
4.8587575 -3.287359 -0.77253091
4.8335929 -3.3137496 -0.77170938
4.8603582 -3.3761196 -0.77965105
4.8265891 -3.3967578 -0.77746028
4.7620993 -3.3952587 -0.77006626
4.7572379 -3.4360135 -0.7728048
4.7088828 -3.4452531 -0.76814932
4.670145 -3.4611068 -0.7651369
4.6456513 -3.4873188 -0.76458919
4.6399379 -3.5277479 -0.76732773
4.6268382 -3.562799 -0.76883394
4.6673841 -3.6398506 -0.77978802
4.6301918 -3.6567566 -0.77718639
4.6092143 -3.6863353 -0.77746028
4.5911279 -3.7182879 -0.77828181
4.5575023 -3.7375953 -0.77636486
4.5360074 -3.7667546 -0.77663869
4.4968867 -3.7811298 -0.77376324
4.5543118 -3.8773549 -0.7884143
4.5311852 -3.9058733 -0.78855127
4.4705625 -3.9016888 -0.78184187
4.4650965 -3.9454432 -0.78526503
4.424561 -3.9582369 -0.78225267
4.3935819 -3.9793267 -0.78102034
4.3486385 -3.9874666 -0.77718639
4.3444185 -4.0329432 -0.78102034
4.3181477 -4.0581675 -0.78074646
4.2960367 -4.0873175 -0.78129417
4.2915683 -4.1335278 -0.78526503
4.2639966 -4.1577082 -0.78485423
4.2426353 -4.1879683 -0.78567582
4.1986394 -4.1957178 -0.78211576
4.1581907 -4.2066078 -0.77924031
4.1212277 -4.2207036 -0.77704948
4.1200109 -4.2715769 -0.78197879
4.1019235 -4.3053823 -0.78362191
4.0795026 -4.3347979 -0.7844435
4.0508046 -4.3575716 -0.7840327
4.0280108 -4.3867221 -0.78485423
4.0063429 -4.4172244 -0.78594965
3.985774 -4.4491014 -0.78731889
3.913759 -4.4230313 -0.77800792
3.8845904 -4.4447246 -0.77759719
3.8404143 -4.4489813 -0.77403712
3.8220415 -4.4830146 -0.77595407
3.7899959 -4.5010781 -0.77499557
3.768007 -4.5311027 -0.77622789
3.740134 -4.5541377 -0.77622789
3.740201 -4.6116199 -0.78238958
3.2448862 -4.0515447 -0.67914748
3.178791 -4.0193257 -0.66997343
3.1485813 -4.0317287 -0.66874111
3.1255987 -4.0533252 -0.66915184
2.824007 -3.7091167 -0.60602903
2.6452298 -3.5189335 -0.57015443
2.5663176 -3.4579444 -0.55687261
2.5415385 -3.468832 -0.55605108
2.5114973 -3.4723225 -0.55399716
2.4699955 -3.4594529 -0.54920477
2.4361663 -3.4567311 -0.54619241
2.3690853 -3.40575 -0.53510141
2.3374891 -3.4047072 -0.53249979
2.3104415 -3.4099655 -0.53099364
2.2812145 -3.4117267 -0.52893972
2.2602377 -3.4256599 -0.52893972
2.2413378 -3.4427843 -0.52948743
2.201431 -3.4273028 -0.52469504
2.1771781 -3.4357259 -0.52387351
2.1455529 -3.4322219 -0.52113497
2.1249728 -3.4461653 -0.52127188
2.0981245 -3.4498298 -0.51976573
2.0697827 -3.4507465 -0.51784873
2.0415089 -3.4514458 -0.51593179
2.0123062 -3.4502172 -0.51374096
1.9861593 -3.453913 -0.51237172
1.9595544 -3.4565561 -0.51086551
1.931542 -3.4564092 -0.50894856
1.8983475 -3.4465053 -0.50552541
1.8743285 -3.4528654 -0.50470388
1.8554434 -3.468668 -0.5053885
0 -0 -0
0 -0 -0
1.774138 -3.4687219 -0.50018531
1.7470262 -3.4680424 -0.49840528
1.7204301 -3.4680483 -0.49676216
1.696944 -3.4740894 -0.49607754
0 -0 -0
1.6478252 -3.4812224 -0.49402365
0 -0 -0
0 -0 -0
1.5850976 -3.5145755 -0.49457133
1.5655117 -3.5287623 -0.49525598
1.5438302 -3.5383017 -0.49525598
1.5275598 -3.560452 -0.49717292
1.5153111 -3.5925748 -0.50059611
1.4977925 -3.6127853 -0.50223917
0 -0 -0
0 -0 -0
1.4393778 -3.6609452 -0.5053885
1.4340183 -3.7140629 -0.51196092
1.4154167 -3.7339067 -0.51360404
1.3990442 -3.7601602 -0.51620561
1.3837618 -3.7900746 -0.51935494
1.3721739 -3.8311327 -0.52414733
1.3555365 -3.8591061 -0.52702278
1.3347356 -3.8757799 -0.52825511
0 -0 -0
1.3007625 -3.9332473 -0.53427988
0 -0 -0
0 -0 -0
1.3054012 -4.205328 -0.57029134
1.2884995 -4.2426405 -0.57453609
1.2731634 -4.28655 -0.57973927
0 -0 -0
0 -0 -0
0 -0 -0
1.5624112 -5.7756567 -0.78868818
1.4993809 -5.6807384 -0.77376324
1.4667193 -5.6984653 -0.77499557
1.4351017 -5.720809 -0.77691257
1.4032651 -5.7429781 -0.77882951
1.3631856 -5.7312431 -0.77595407
1.3250899 -5.7269535 -0.77417403
1.2964482 -5.7639694 -0.77828181
1.2767081 -5.8434281 -0.7884143
1.2256179 -5.7794447 -0.77828181
1.1769583 -5.7228189 -0.76924467
1.1540219 -5.7911353 -0.77787101
1.127288 -5.843821 -0.78430653
1.0923183 -5.8554969 -0.78499115
1.0479335 -5.8152952 -0.77841872
1.0086669 -5.8011212 -0.77554327
0.98124117 -5.8560486 -0.78238958
0.9468683 -5.8717389 -0.78375882
0.91628569 -5.9126778 -0.78868818
0.87386721 -5.8770375 -0.78293729
0.84072447 -5.9028826 -0.78581274
0.80368692 -5.902041 -0.78499115
0.7581358 -5.8351521 -0.77499557
0.73180765 -5.9163747 -0.78567582
0.69202274 -5.8912392 -0.78156805
0.65366989 -5.8756847 -0.77882951
0.61511987 -5.8559413 -0.77554327
0.58229703 -5.89115 -0.77992493
0.54833347 -5.9182844 -0.78321111
0.50586057 -5.850481 -0.77335244
0.47431692 -5.9077816 -0.78088337
0.43432119 -5.8601995 -0.77390015
0.40541345 -5.9665256 -0.78827739
0.36396483 -5.8907943 -0.77746028
0.33111784 -5.9522595 -0.78567582
0.29512841 -5.9650621 -0.78718197
0.25469989 -5.8786817 -0.77499557
0.21486336 -5.7791648 -0.76102912
0.15408447 -4.9665103 -0.64847606
0.12358291 -4.9663715 -0.64833915
0.093405806 -4.982883 -0.65052992
0.062716551 -4.9744477 -0.6492976
0.032303043 -4.9915786 -0.65162534
0.0020105627 -5.8019781 -0.76363075
-0.033708762 -5.8226833 -0.7665062
-0.070269361 -5.892693 -0.77622789
-0.10578331 -5.8564959 -0.77129859
-0.14006703 -5.7874064 -0.76185071
-0.1773438 -5.8448553 -0.76992935
-0.21410507 -5.8684053 -0.77335244
-0.24817121 -5.8214555 -0.7670539
-0.28186211 -5.7782683 -0.76130301
-0.31964502 -5.8189611 -0.76719081
-0.35365415 -5.7892056 -0.76335686
-0.38684541 -5.7523341 -0.75856447
-0.42785829 -5.8278985 -0.76938164
-0.45984048 -5.7777653 -0.76280916
-0.49900505 -5.8182611 -0.76883394
-0.53279251 -5.7943749 -0.76595849
-0.56543553 -5.7614212 -0.76185071
-0.60581017 -5.8061199 -0.76856005
-0.63990158 -5.7885094 -0.76664311
-0.67161828 -5.7520051 -0.76212454
-0.70726186 -5.7507253 -0.76253533
-0.74684823 -5.7796798 -0.76719081
-0.77618396 -5.7298336 -0.76089221
-0.81396657 -5.743598 -0.76349378
-0.84788877 -5.7296762 -0.76226145
-0.88287854 -5.7233868 -0.76212454
-0.91797996 -5.7178621 -0.76212454
-0.85429615 -5.1200075 -0.67914748
-0.87302482 -5.0414643 -0.66887802
-0.90184301 -5.0243125 -0.6672349
-0.93265468 -5.0186844 -0.6672349
-0.96118855 -5.0011935 -0.66559178
-0 -0 -0
-1.1441592 -5.5829225 -0.74939042
-1.1687701 -5.5302453 -0.74295491
-1.2071059 -5.5432959 -0.74583036
-1.2361134 -5.5135531 -0.74268109
-1.2683628 -5.4991078 -0.74172258
-1.312591 -5.5355597 -0.74802119
-1.3561419 -5.5668621 -0.75363517
-1.3921963 -5.566124 -0.75473052
-1.4199225 -5.5325298 -0.75117046
-1.455355 -5.5294609 -0.75199205
-1.4951885 -5.5424247 -0.75514132
-1.5336527 -5.5493774 -0.75746906
-1.56309 -5.5236588 -0.75514132
-1.6170647 -5.5834236 -0.7651369
-1.5975585 -5.3919864 -0.73898405
-1.6555958 -5.4645624 -0.75089663
-1.7204422 -5.5555515 -0.76554769
-1.7598759 -5.5618906 -0.76801234
-1.7647322 -5.4604979 -0.75486749
-1.8264446 -5.535172 -0.76732773
-1.8489938 -5.4900641 -0.76239842
-1.888117 -5.4945416 -0.76472616
-1.9244161 -5.4903321 -0.76582158
-1.9637345 -5.4942784 -0.76814932
-1.9977489 -5.4830565 -0.76828623
-2.0079114 -5.407547 -0.75897527
-2.045259 -5.4062428 -0.76061839
-2.0801733 -5.3982134 -0.76130301
-2.1175983 -5.3964138 -0.76294613
-2.1422191 -5.3621612 -0.7597968
-2.1870189 -5.3782802 -0.76417845
-2.22528 -5.3775744 -0.7660954
-2.2578499 -5.362906 -0.76595849
-2.2723882 -5.3061523 -0.75952297
-2.3064852 -5.295742 -0.76007068
-2.3132689 -5.2235212 -0.75130743
-2.3432431 -5.2047124 -0.75062275
-2.3767831 -5.1938396 -0.75117046
-2.4056835 -5.1728706 -0.75021201
-2.4149511 -5.1105428 -0.74295491
-2.4488351 -5.100987 -0.7437765
-2.4800882 -5.085865 -0.7437765
-2.4853132 -5.018177 -0.73569787
-2.5254025 -5.0214176 -0.73857331
-2.5449049 -4.9837713 -0.73515016
-2.5654085 -4.9487143 -0.7321378
-2.5837331 -4.9100866 -0.72857767
-2.6105461 -4.8880243 -0.72761923
-2.6381295 -4.8675594 -0.72693461
-2.656492 -4.8304482 -0.72364837
-2.6687074 -4.7829146 -0.71871907
-2.6901982 -4.7526565 -0.71652824
-2.6842935 -4.675065 -0.70680648
-2.7164178 -4.6644988 -0.70776498
-2.7243364 -4.612772 -0.702151
-2.7627668 -4.6129661 -0.70488954
-2.7807372 -4.5789928 -0.702151
-2.7978756 -4.5441298 -0.69927555
-2.8062999 -4.4957838 -0.69420928
-2.8142371 -4.4475069 -0.68914306
-2.8489599 -4.4418292 -0.69106001
-2.8794 -4.4292479 -0.69188154
-2.9048882 -4.4090152 -0.6914708
-2.9137368 -4.3639207 -0.68695223
-2.9349082 -4.3377552 -0.685583
-2.9390664 -4.286983 -0.68010592
-2.9647503 -4.268055 -0.67996901
-2.9897428 -4.2481632 -0.67969513
-3.0157528 -4.2297382 -0.67969513
-3.0346897 -4.2015176 -0.67805207
-3.0446212 -4.161232 -0.67435503
-3.050045 -4.1154118 -0.66969955
-3.0686984 -4.0879049 -0.6681934
-3.0937235 -4.0689988 -0.6681934
-3.0998986 -4.0256076 -0.66394866
-3.1087041 -3.9862008 -0.66038859
-3.1281931 -3.9608316 -0.65929317
-3.1610987 -3.9523938 -0.66121018
-3.1441469 -3.8821146 -0.65217304
-3.1603706 -3.8535576 -0.65052992
-3.1599102 -3.8051326 -0.64532673
-3.1844735 -3.7871885 -0.64560062
-3.1999462 -3.7585261 -0.6439575
-3.195786 -3.7073064 -0.6382066
-3.2080526 -3.6756859 -0.63601577
-3.244319 -3.6715219 -0.63889122
-3.2515965 -3.6345646 -0.63574195
-3.2758315 -3.6167476 -0.63615274
-3.2798872 -3.5768652 -0.63245571
-3.2815561 -3.5348918 -0.62834793
-3.3120024 -3.5240746 -0.63012797
-3.2830398 -3.4505758 -0.61999547
-3.2718549 -3.3968318 -0.61355996
-3.2843378 -3.3681808 -0.61191684
-3.2979844 -3.3409147 -0.6105476
-3.306519 -3.3087034 -0.60821986
-3.3098519 -3.2716384 -0.60493362
-3.3234859 -3.245039 -0.60370129
-3.3354921 -3.2170205 -0.60219508
-3.3458457 -3.1876101 -0.60041505
-3.3574071 -3.1595523 -0.5989089
-3.3702011 -3.1328216 -0.59767652
-3.3623652 -3.0872924 -0.5926103
-3.3863811 -3.0712621 -0.59356874
-3.3985224 -3.0444765 -0.59233642
-3.4141717 -3.0209403 -0.59178871
-3.3946066 -2.9666867 -0.58480549
-3.3730061 -2.9114933 -0.57754844
-3.4104052 -2.9074528 -0.58110851
-3.3781726 -2.8443589 -0.57207137
-3.4107938 -2.8362455 -0.57480991
-3.412823 -2.8026893 -0.57207137
-3.4222627 -2.7754555 -0.57070214
-3.4237657 -2.7420189 -0.5679636
-3.4366412 -2.7178867 -0.56727898
-3.4477885 -2.6924803 -0.56632054
-3.4462032 -2.6573603 -0.56317121
-3.4789937 -2.6487677 -0.56604666
-3.4896383 -2.623204 -0.56508815
-3.4985096 -2.5964289 -0.56385583
-3.4936011 -2.55969 -0.56029576
-3.4755328 -2.5138197 -0.55454487
-3.4667079 -2.4751766 -0.55043709
-3.4866879 -2.457283 -0.55125868
-3.5025132 -2.4364085 -0.5513956
-3.4773839 -2.3873954 -0.5446862
-3.493607 -2.367125 -0.54496008
-3.5006552 -2.340688 -0.54372776
-3.5066836 -2.3137081 -0.54235846
-3.5191541 -2.2910669 -0.54208463
-3.5431464 -2.2758558 -0.54372776
-3.5679209 -2.2609665 -0.54550779
-3.5548494 -2.2222264 -0.54112613
-3.5717905 -2.2024524 -0.54167384
-3.5640798 -2.1676245 -0.53825068
-3.5798612 -2.1472437 -0.53866148
-3.5852962 -2.1206982 -0.53742915
-3.5862622 -2.0916712 -0.53551221
-3.5990291 -2.069627 -0.53551221
-3.60132 -2.0416415 -0.53386909
-3.6068621 -2.0156391 -0.53277367
-3.6139562 -1.9906019 -0.53195214
-3.6182673 -1.9641356 -0.53071976
-3.5822129 -1.9161948 -0.52318883
-3.6236961 -1.909885 -0.52784431
-3.6265559 -1.8830489 -0.52647507
-3.6098218 -1.8463241 -0.52209347
-3.6166596 -1.8219111 -0.5214088
-3.6171224 -1.7944018 -0.51976573
-3.6467552 -1.7813057 -0.52264112
-3.6344066 -1.747732 -0.51908106
-3.6575963 -1.7313335 -0.52099806
-3.6609676 -1.7055111 -0.51990265
-0.27042538 -0.12356563 -0.0027335186
-3.6834271 -1.6612717 -0.52017647
-3.6691046 -1.6277907 -0.51647949
-0.25086486 -0.10905737 0.00055270299
-0.24424694 -0.10439077 0.0016481101
-0.26313636 -0.11059145 -0.0010904078
-0.26380998 -0.10897479 -0.0010904078
-0.25346571 -0.10286799 0.00055270299
-0.25409213 -0.10131082 0.00055270299
-0.27130228 -0.10627576 -0.0019119632
-0 -0 -0
-0 -0 -0
-0 -0 -0
-0 -0 -0
-0 -0 -0
-0 -0 -0
-0 -0 -0
-0 -0 -0
-0 -0 -0
-0 -0 -0
-0 -0 -0
-0 -0 -0
-0 -0 -0
-0 -0 -0
-0 -0 -0
-0 -0 -0
-0 -0 -0
-0 -0 -0
-0 -0 -0
-0 -0 -0
-0 -0 -0
-0 -0 -0
-0 -0 -0
-0 -0 -0
-0 -0 -0
-0 -0 -0
-0 -0 -0
-0 -0 -0
-0 -0 -0
-0 -0 -0
-0 -0 -0
-0 -0 -0
-0 -0 -0
-0 -0 -0
-0 -0 -0
-0 -0 -0
-0 -0 -0
-0 -0 -0
-0 -0 -0
-0 -0 -0
-0 -0 -0
-0 -0 -0
-0 -0 -0
-0 -0 -0
-0 -0 -0
-0 -0 -0
-0 -0 -0
-0 -0 -0
-0 -0 -0
-0 -0 -0
-0 -0 -0
-0 -0 -0
-0 -0 -0
-0 -0 -0
-0 -0 -0
-0 -0 -0
-0.27237713 0.019021502 -0.0026832968
-0 0 -0
-0 0 -0
-0 0 -0
-0.27182829 0.025700241 -0.0026832968
-0 0 -0
-0 0 -0
-0 0 -0
-0.27111569 0.0323635 -0.0026832968
-0.27091202 0.034026425 -0.0026832968
-0 0 -0
-0 0 -0
-0.27904204 0.040316291 -0.0040275618
-0.28172076 0.042482041 -0.0044756499
-0.2814548 0.044209845 -0.0044756499
-0.28117824 0.045935988 -0.0044756499
-0 0 -0
-0.28059334 0.049383018 -0.0044756499
-0.28028506 0.051103778 -0.0044756499
-0 0 -0
-0 0 -0
-0 0 -0
-0 0 -0
-0 0 -0
-0.27049673 0.059649654 -0.0032807479
-0.27108896 0.061531182 -0.0034301106
-0.26878244 0.062735751 -0.003131385
-0 0 -0
-0.26511514 0.065307565 -0.0026832968
-0.26566699 0.067179546 -0.0028326595
-0.26620582 0.069060743 -0.0029820222
-0 0 -0
-0.26629117 0.072586372 -0.003131385
-0.26964569 0.0752986 -0.0037288361
-0 0 -0
-0.26775351 0.078320332 -0.0035794734
-0.26726791 0.079961762 -0.0035794734
-0.26960519 0.082479723 -0.0040275618
-0.26909402 0.084132433 -0.0040275618
-0.26857275 0.085781977 -0.0040275618
-0.26804134 0.087428294 -0.0040275618
-0.26749983 0.089071319 -0.0040275618
-0.26881802 0.091355011 -0.0043262872
-0 0 -0
-0.26581502 0.093980029 -0.0040275618
-0.26801974 0.096626751 -0.0044756499
-0.26742181 0.09826947 -0.0044756499
-0 0 -0
-0.26342857 0.10047515 -0.0040275618
-0.26004651 0.10100406 -0.0035794734
-0.25666803 0.1014953 -0.003131385
-0.2569561 0.10344139 -0.0032807479
-0.25814331 0.10577356 -0.0035794734
-0 0 -0
-0.26772979 0.11361232 -0.0053718267
-0.26793388 0.11564843 -0.0055211894
-0.26902685 0.11809232 -0.0058199149
-0.26649451 0.11892767 -0.0055211894
-0.26575977 0.12056062 -0.0055211894
-0.26501504 0.12218902 -0.0055211894
-0.26426029 0.12381282 -0.0055211894
-0.26527777 0.12628908 -0.0058199149
-0.26627475 0.12878248 -0.0061186403
-0.26636532 0.13085335 -0.006268003
-0.26555738 0.13248529 -0.006268003
-0.26473948 0.13411221 -0.006268003
-0.2639116 0.1357341 -0.006268003
-0.26482317 0.13827303 -0.0065667289
-0.26309791 0.13942891 -0.0064173662
-0.26397538 0.14198418 -0.0067160917
-0.26396528 0.14407831 -0.0068654544
-0.26480252 0.14666007 -0.0071641798
-0.26389766 0.14828211 -0.0071641798
-0.2621257 0.1494056 -0.0070148171
-0.26120403 0.15101117 -0.0070148171
-0.26112354 0.15311448 -0.0071641798
-0.26017913 0.15471382 -0.0071641798
-0.25922495 0.15630734 -0.0071641798
-0.25573614 0.15633792 -0.0067160917
-0.25225681 0.15633163 -0.006268003
-0.2479521 0.15575927 -0.0056705521
-0.24782364 0.15781218 -0.0058199149
-0.2443648 0.15771127 -0.0053718267
-0.24504308 0.16029687 -0.0056705521
-0.24652073 0.16344634 -0.0061186403
-0.2471503 0.16606525 -0.0064173662
-0.24775696 0.16869798 -0.0067160917
-0.24671717 0.17021501 -0.0067160917
-0.2448599 0.17115599 -0.0065667289
-0.24621919 0.17437899 -0.0070148171
-0.24674688 0.17704552 -0.0073135425
-0.24884622 0.18089391 -0.0079109939
-0.25328946 0.18654259 -0.0089565329
-0.25767252 0.19225243 -0.010002073
-0.26042145 0.19682491 -0.010748887
-0.25920886 0.19841912 -0.010748887
-0.25798652 0.20000586 -0.010748887
-0.25597891 0.20097169 -0.010599524
-0.25319746 0.20130229 -0.010300798
-0.2496537 0.20098351 -0.0098527102
-0.24841578 0.20251158 -0.0098527102
-0.248689 0.20529649 -0.010151436
-0.25196272 0.21063988 -0.011047612
-0.25141793 0.21282345 -0.011196975
-0.25310126 0.21694662 -0.011794426
-0.25250983 0.21914624 -0.011943788
-0 0 -0
-0 0 -0
-0 0 -0
-0 0 -0
-0 0 -0
-0 0 -0
-0 0 -0
-0 0 -0
-0 0 -0
-0 0 -0
-0 0 -0
-0 0 -0
-0 0 -0
-0 0 -0
-0 0 -0
-0 0 -0
-0 0 -0
-0 0 -0
-0 0 -0
-0 0 -0
-0 0 -0
-0 0 -0
-0 0 -0
-0 0 -0
-0 0 -0
-0 0 -0
-0 0 -0
-0 0 -0
-0 0 -0
-0 0 -0
-0 0 -0
-0 0 -0
-3.1642954 4.1601768 -0.75099075
-3.1523621 4.1977024 -0.75442612
-3.1341994 4.2272935 -0.75636786
-3.1017802 4.2376666 -0.75472486
-3.082088 4.2654366 -0.75636786
-3.0644679 4.2963443 -0.75860828
-3.0522745 4.3352823 -0.76234233
-3.03859 4.3726077 -0.76577771
-3.0195303 4.4025874 -0.76786876
-2.9996624 4.4316783 -0.7698105
-2.9811983 4.4631581 -0.77220029
-2.9532127 4.4805408 -0.77205092
-2.9321318 4.5085254 -0.77384329
-2.9343059 4.573041 -0.78220761
-2.9157073 4.6059999 -0.78489614
-2.8674958 4.591929 -0.77922034
-2.8548179 4.6346974 -0.78370124
-2.8335114 4.663959 -0.78579229
-2.8058565 4.6829538 -0.78609103
-2.7745554 4.6958251 -0.78534424
-2.7456903 4.7127614 -0.78534424
-2.7231219 4.7406673 -0.78728592
-2.7051845 4.7770786 -0.7907213
-2.6816032 4.8039489 -0.79251361
-2.6568406 4.8289766 -0.79400724
-2.6375256 4.8643131 -0.79729325
-2.6118209 4.8882546 -0.79863751
-2.5744112 4.8901882 -0.79624772
-2.5402617 4.8979917 -0.79490346
-2.5142074 4.921412 -0.79624772
-2.4897377 4.9482298 -0.7981894
-2.4562576 4.957211 -0.79714388
-2.4266613 4.9739661 -0.79744262
-2.3999469 4.9967852 -0.79878688
-2.378113 5.0301909 -0.80192345
-2.3413665 5.032136 -0.7998324
-2.3116801 5.0491047 -0.80028051
-2.2928329 5.0902429 -0.80476135
-2.2615566 5.1042156 -0.80476135
-2.2313795 5.1207156 -0.80520946
-2.2003067 5.1352201 -0.80535883
-2.1706743 5.1531806 -0.80610561
-2.1390142 5.1664028 -0.80610561
-2.1046665 5.1730185 -0.80506009
-2.0710516 5.1812439 -0.8043133
-2.0468059 5.2131839 -0.80744988
-2.0243788 5.2505565 -0.81148273
-1.9893249 5.2554803 -0.81028777
-1.953943 5.2592449 -0.80894351
-1.9202822 5.2674189 -0.80834609
-1.8912535 5.2884135 -0.80983973
-1.8633474 5.3129826 -0.81193078
-1.8226796 5.3009377 -0.80819672
-1.783808 5.2932801 -0.80520946
-1.7547034 5.3144546 -0.80685246
-1.7171967 5.3100672 -0.80446267
-1.6932322 5.3478427 -0.80879414
-1.6641887 5.3704104 -0.81073588
-1.6312052 5.3805208 -0.81073588
-1.6012498 5.400857 -0.81237888
-1.5708311 5.4200778 -0.81387252
-1.5378138 5.4305658 -0.81402189
-1.5007763 5.4265566 -0.81193078
-1.4659063 5.429935 -0.81103462
-1.4287864 5.4244843 -0.80879414
-1.3940008 5.4274025 -0.80789798
-1.3577939 5.4243426 -0.80610561
-1.3237832 5.4296899 -0.80565757
-1.2913548 5.4415584 -0.80625498
-1.2586082 5.45227 -0.80670309
-1.2259952 5.4637494 -0.80730057
-1.1922368 5.4702034 -0.8071512
-1.1578321 5.473546 -0.80655372
-1.1210494 5.4650488 -0.80416393
-1.0894209 5.481523 -0.80565757
-1.0566993 5.4929595 -0.80640435
-1.0238783 5.5042005 -0.8071512
-0.99253118 5.5240045 -0.80924225
-0.95709968 5.5212221 -0.80789798
-0.91978735 5.5065093 -0.80476135
-0.88801998 5.5247412 -0.80670309
-0.85335052 5.5251999 -0.8059563
-0.81653804 5.5107694 -0.80296904
-0.7881192 5.5538568 -0.80879414
-0.75243402 5.5468302 -0.80700183
-0.71610469 5.5336909 -0.8043133
-0.67779285 5.5026507 -0.79893625
-0.64779991 5.5391159 -0.80386519
-0.61510378 5.55478 -0.80565757
-0.58121389 5.5604162 -0.8059563
-0.54486418 5.5412445 -0.80252093
-0.51103449 5.546453 -0.80281967
-0.4750497 5.5268254 -0.7993843
-0.44081509 5.5256934 -0.79878688
-0.40530956 5.5065994 -0.79550087
-0.36978972 5.4833322 -0.79161745
-0.33547473 5.4746413 -0.78997445
-0.30155137 5.4706731 -0.7890783
-0.2687487 5.4882221 -0.79146808
-0.234816 5.4838405 -0.79057193
-0.20058693 5.469368 -0.78818208
-0.16690388 5.4665427 -0.78758466
-0.1321398 5.4170508 -0.77996713
-0.099879757 5.4721336 -0.78818208
-0.066113226 5.4568243 -0.78579229
-0.032532629 5.4403181 -0.78325313
0.00084804674 5.437449 -0.78280503
0.034308098 5.4521728 -0.7850455
0.067723855 5.4488935 -0.7845974
0.1016391 5.4740791 -0.78848082
0.13406777 5.4268942 -0.78146076
0.16782451 5.440794 -0.78370124
0.19988205 5.4040904 -0.77832419
0.23153836 5.368187 -0.77309644
0.26491252 5.3755536 -0.77444071
0.29822096 5.3797503 -0.77533692
0.33061489 5.3679504 -0.77384329
0.36394811 5.3717399 -0.77473944
0.39734027 5.3753219 -0.77563566
0.43007767 5.3698258 -0.77518755
0.4617402 5.3523092 -0.77294713
0.49347773 5.3375607 -0.77115476
0.52563542 5.3285284 -0.77025855
0.55584109 5.3016019 -0.76667386
0.58836067 5.2980914 -0.76667386
0.62051195 5.2914352 -0.76622576
0.65636712 5.3150048 -0.77040792
0.68310571 5.2657728 -0.76353723
0.71286774 5.242867 -0.76069933
0.74390841 5.2305632 -0.75950444
0.7716251 5.1965594 -0.7550236
0.80016428 5.1702304 -0.75173759
0.84147692 5.2247696 -0.7608487
0.87972981 5.2565651 -0.76652449
0.901972 5.1935925 -0.75771213
0.93206847 5.1782293 -0.75621849
0.95530063 5.1267281 -0.74919844
0.97962195 5.0838766 -0.74352264
1.0015211 5.0312243 -0.73635322
1.0112572 4.9223223 -0.72052079
1.0235932 4.8318725 -0.70752621
1.0293698 4.7163439 -0.6906482
1.0422313 4.6385531 -0.67959535
1.0575213 4.5752344 -0.67078298
1.082371 4.5551925 -0.66869187
1.1004424 4.5081234 -0.66241866
1.112684 4.4399066 -0.65285945
1.1288137 4.389905 -0.64613813
1.1829835 4.4861479 -0.66226929
1.2006752 4.4425349 -0.6565935
1.2213097 4.4112625 -0.65285945
1.2499732 4.4093933 -0.65375561
1.2720417 4.3845487 -0.65106708
1.3006103 4.3823481 -0.65196323
1.3248889 4.3657699 -0.65061897
1.358395 4.3792777 -0.65405434
1.3885288 4.381228 -0.65569735
1.4083762 4.3509908 -0.65226197
1.4412571 4.3610425 -0.65524924
1.4581846 4.3230748 -0.65061897
1.4695487 4.2701068 -0.64359897
1.4953941 4.2600765 -0.6434496
1.5215054 4.2508211 -0.6434496
1.5455242 4.2358322 -0.64255339
1.575624 4.2373896 -0.64434576
1.5963365 4.2137737 -0.64210534
1.621093 4.2011323 -0.64165723
1.6479257 4.1938667 -0.64210534
1.6872251 4.2176409 -0.64763176
1.7205346 4.2255225 -0.65061897
1.7483232 4.2194529 -0.65136582
1.760729 4.1767597 -0.64613813
1.7863239 4.1658773 -0.64613813
1.8177837 4.1684322 -0.64837855
1.8292905 4.1255665 -0.64315087
1.8566029 4.1187711 -0.64389765
1.8793677 4.1019092 -0.6430015
1.9095124 4.1010556 -0.64479387
1.9409864 4.1026669 -0.64703429
1.9532664 4.0639477 -0.64255339
1.9759953 4.0474439 -0.6418066
2.0060663 4.0458722 -0.64359897
2.0326333 4.0370193 -0.64419639
2.0582662 4.0262322 -0.64449513
2.0984259 4.0433626 -0.64957345
2.1176629 4.0199142 -0.64778107
2.1376245 3.9981263 -0.6462875
2.1635315 3.9875417 -0.64673555
2.2103815 4.0148964 -0.65375561
2.2238796 3.9814065 -0.65032029
2.2502179 3.9711266 -0.65091771
2.2873588 3.9795303 -0.65480113
2.322196 3.9833565 -0.65793777
2.336525 3.9520123 -0.6549505
2.346488 3.9138596 -0.65076834
2.3946095 3.9390929 -0.6577884
2.4270384 3.9377916 -0.66017818
2.459017 3.9354014 -0.66241866
2.4937041 3.9369428 -0.66540593
2.5322433 3.9440293 -0.66943872
2.5607116 3.9350464 -0.67063361
2.5924327 3.9308143 -0.67272466
2.6219995 3.9230528 -0.6742183
2.644912 3.9052536 -0.67391956
2.6917717 3.9223716 -0.68004346
2.6881189 3.866009 -0.67272466
2.7106504 3.8478258 -0.67242599
2.7399552 3.8391681 -0.67391956
2.7634604 3.8222837 -0.67391956
2.7868614 3.8052554 -0.67391956
2.8231225 3.8055515 -0.67720556
2.854738 3.7992225 -0.67929667
2.8971643 3.8068085 -0.68407625
2.9228833 3.7920923 -0.68467373
2.9521823 3.7818792 -0.68616736
2.9955738 3.7892861 -0.69109631
3.0366938 3.793215 -0.69542783
3.0711229 3.7883339 -0.69811636
3.1081161 3.7862289 -0.70140237
3.1496243 3.7891335 -0.70573384
3.200201 3.8022594 -0.71215647
3.2433581 3.805877 -0.71678668
3.2782798 3.799377 -0.71947521
3.3236544 3.8045032 -0.72455359
3.3639727 3.8032908 -0.72843701
3.3978026 3.7943616 -0.7308268
3.4309847 3.7844274 -0.73306727
3.4815609 3.7931645 -0.73919111
3.5216007 3.7898352 -0.74292517
3.5630853 3.7875969 -0.74695796
3.6094489 3.7900026 -0.75203633
3.6436193 3.7791708 -0.75442612
3.6660485 3.7560353 -0.75427675
3.6918066 3.7362831 -0.75487423
3.7174602 3.7163558 -0.75547165
3.6796744 3.6337395 -0.74262649
3.7118127 3.6207569 -0.74471754
3.7311106 3.5951698 -0.74412006
3.7724421 3.59061 -0.74815291
3.7763891 3.5504668 -0.7444188
3.8075242 3.5359735 -0.74636054
3.8561144 3.5372694 -0.75188696
3.8806777 3.516197 -0.75248438
3.8903885 3.4817715 -0.75009459
3.9183476 3.4637275 -0.75143886
3.9201574 3.4227157 -0.74755543
3.9605579 3.4153824 -0.75143886
3.9836984 3.3929396 -0.75188696
4.0157943 3.3779771 -0.75412738
4.0288386 3.3469563 -0.75263375
4.0470057 3.3202918 -0.7521857
4.0757546 3.3022425 -0.75382864
4.1160178 3.2932286 -0.75771213
4.1501145 3.2789419 -0.76040065
4.1553411 3.2418628 -0.75756276
4.1963077 3.2325928 -0.76159555
4.1979594 3.1930201 -0.75816017
4.207983 3.1600788 -0.75636786
4.2336488 3.1389093 -0.75756276
4.2448487 3.1070347 -0.75606912
4.2542143 3.0739832 -0.75427675
4.2979546 3.0656159 -0.75890702
4.3223443 3.0431697 -0.75995255
4.337687 3.0143347 -0.75935507
4.3389745 2.9759216 -0.75621849
4.3546958 2.9475801 -0.75577039
4.3981929 2.9378247 -0.76040065
4.4111819 2.9075186 -0.75950444
4.4189906 2.8739307 -0.75771213
4.4149017 2.8328831 -0.75382864
4.4305296 2.8046832 -0.75352997
4.453527 2.78111 -0.75457549
4.4772439 2.7578785 -0.75577039
4.5228171 2.7478042 -0.7608487
4.4768181 2.6824074 -0.74979585
4.5332084 2.6785195 -0.75681591
4.5546851 2.6536393 -0.75771213
4.5545893 2.6162882 -0.75487423
4.5714173 2.5887794 -0.7550236
4.6018949 2.568871 -0.75756276
4.6132383 2.5382037 -0.75681591
4.626987 2.5089073 -0.75651717
4.6466551 2.4827983 -0.75726402
4.6583018 2.4523988 -0.75666654
4.6837959 2.4292302 -0.75845891
4.6942101 2.3981969 -0.75771213
4.7123704 2.3711257 -0.75830954
4.7206278 2.3390949 -0.75726402
4.7535553 2.3191862 -0.76040065
4.7668047 2.2895474 -0.76025128
4.7709293 2.255609 -0.75860828
4.8061976 2.2362993 -0.76219296
4.8333154 2.2129381 -0.76443344
4.8711472 2.1941991 -0.76846623
4.8537788 2.1506567 -0.76338786
4.8378744 2.1082003 -0.75860828
4.8343582 2.0714698 -0.75591975
4.8506227 2.0433023 -0.75651717
4.8685508 2.0157692 -0.75741339
4.8744159 1.9832515 -0.75636786
4.8920026 1.9555061 -0.75726402
4.9149547 1.9297866 -0.75905639
4.9082499 1.8924823 -0.75606912
4.9179201 1.8616306 -0.75577039
4.9329581 1.8327963 -0.75636786
4.9441109 1.8024938 -0.75636786
4.9420424 1.7674646 -0.75427675
4.9518609 1.7367805 -0.75412738
4.96523 1.7073277 -0.75457549
4.9681158 1.674305 -0.7533806
4.9998922 1.6509154 -0.75681591
5.0127506 1.6211177 -0.75726402
5.0263743 1.5915226 -0.75786144
5.027544 1.558019 -0.75651717
5.0616136 1.5345949 -0.76040065
5.0567136 1.4992956 -0.75816017
5.0344758 1.4591635 -0.75323123
5.0595083 1.4328216 -0.75577039
5.054862 1.3980631 -0.75367934
5.0614362 1.3665056 -0.7533806
5.0639882 1.3339136 -0.75248438
5.1008101 1.3101898 -0.75696528
5.0876498 1.2735894 -0.75367934
5.0665479 1.235328 -0.74919844
5.1125169 1.2133414 -0.75517291
5.1526241 1.1895036 -0.76025128
5.1569314 1.1572163 -0.75980318
5.1871223 1.1306009 -0.76338786
5.1542978 1.0903704 -0.75726402
5.1550789 1.0575328 -0.75636786
5.1711698 1.0278074 -0.75786144
5.1511612 0.99102044 -0.75382864
5.1765881 0.96300739 -0.75681591
5.126925 0.92127079 -0.74830222
5.1880159 0.89941019 -0.75681591
5.165153 0.86284184 -0.75248438
5.1781602 0.83238649 -0.75367934
5.1518989 0.79577518 -0.7488997
5.2055912 0.77138484 -0.75636786
5.1661716 0.73318714 -0.74964648
5.1823311 0.70306677 -0.75143886
5.1600704 0.66783464 -0.74740607
5.2455263 0.6461764 -0.75980318
5.2228756 0.61088276 -0.75577039
5.2510953 0.58153981 -0.75950444
5.2309618 0.54684663 -0.75591975
5.2155218 0.51290524 -0.75308186
5.2333403 0.48225144 -0.75532228
5.2568893 0.45190504 -0.75845891
5.2605491 0.41971931 -0.75860828
5.2492194 0.38642004 -0.75651717
5.2347202 0.3530767 -0.75397801
5.2644224 0.32263789 -0.75816017
5.2623539 0.29011309 -0.75756276
5.2719359 0.25820363 -0.75875765
5.2556391 0.22509317 -0.75606912
5.2500043 0.19258873 -0.7550236
5.2105656 0.15914316 -0.7488997
5.2519722 0.12814862 -0.7550236
5.2793527 0.096402206 -0.75905639
5.2857766 0.064077497 -0.75995255
5.2870593 0.031649075 -0.76010191
5.2822099 -0.00079047139 -0.75935507
5.2534318 -0.033014908 -0.7550236
5.2630172 -0.065373741 -0.75651717
5.2546082 -0.097517245 -0.75532228
5.227222 -0.12909199 -0.75128949
5.2648754 -0.1623604 -0.75711465
5.2746491 -0.19506638 -0.75875765
5.2694016 -0.22725604 -0.75816017
5.2797589 -0.26017082 -0.75995255
5.2583179 -0.29146308 -0.75696528
5.2524829 -0.32347801 -0.75636786
5.2533588 -0.35590172 -0.75681591
5.2362852 -0.38703245 -0.75457549
5.2564807 -0.42097494 -0.7580108
5.2469029 -0.45262378 -0.75696528
5.2755332 -0.48772943 -0.76174492
5.2881846 -0.52164686 -0.76413471
5.2868514 -0.55429137 -0.76443344
5.2725406 -0.58551759 -0.76279044
5.2796512 -0.61912739 -0.76443344
5.2620149 -0.64981145 -0.76234233
5.256948 -0.68195891 -0.76219296
5.2614822 -0.71540302 -0.76353723
5.2785292 -0.75074112 -0.76682323
5.2454605 -0.77889746 -0.7624917
5.24156 -0.81121981 -0.76264107
5.2394123 -0.84383845 -0.76308918
5.2195082 -0.87351966 -0.7608487
5.2228174 -0.90705413 -0.76219296
5.2122879 -0.93820679 -0.76144618
5.2346215 -0.97543019 -0.76577771
5.2188292 -1.0056578 -0.76428407
5.196075 -1.0343755 -0.76174492
5.2351503 -1.0756013 -0.76876497
5.1916957 -1.0999078 -0.76308918
5.1838832 -1.1315317 -0.76293981
5.1864896 -1.1654881 -0.76443344
5.1657538 -1.194169 -0.76234233
5.1891117 -1.2331654 -0.76712197
5.1689606 -1.2619306 -0.76518023
5.187974 -1.30036 -0.76936239
5.132019 -1.3198438 -0.76189429
5.145813 -1.3571128 -0.7653296
5.1383433 -1.3889196 -0.76547897
5.1201959 -1.417781 -0.76398534
5.1152048 -1.4502509 -0.76458281
5.1176047 -1.4849188 -0.76637512
5.0960751 -1.5126315 -0.76443344
5.0999432 -1.5478953 -0.76652449
5.0950708 -1.5806247 -0.76727134
5.0899892 -1.6133525 -0.76801813
5.0376649 -1.6308402 -0.76129681
5.0303793 -1.6626515 -0.76174492
5.008841 -1.6896909 -0.75995255
4.9890299 -1.7171727 -0.75845891
4.974668 -1.7464416 -0.75786144
4.9740982 -1.7806007 -0.75950444
4.9742246 -1.8151577 -0.76129681
5.0009875 -1.8597836 -0.76742071
4.9534245 -1.8767633 -0.76159555
4.9261346 -1.9010663 -0.75905639
4.9272599 -1.9363227 -0.76114744
4.9492502 -1.9801165 -0.76667386
4.9287663 -2.0070891 -0.7653296
4.9163585 -2.0372937 -0.7653296
4.9119644 -2.0708807 -0.76667386
4.942781 -2.1196964 -0.77384329
4.9595881 -2.1630356 -0.77877223
4.9281464 -2.1854057 -0.77578497
4.8740845 -2.1973076 -0.76906365
4.8623075 -2.2279973 -0.76936239
4.8351016 -2.2515259 -0.76712197
4.8122582 -2.2769201 -0.76562834
4.8026524 -2.3085475 -0.76637512
4.8248224 -2.3557677 -0.77249902
4.7978764 -2.3791754 -0.77040792
4.7752404 -2.4045658 -0.76906365
4.7595162 -2.4333706 -0.76891428
4.7278228 -2.4538703 -0.76607645
4.7039304 -2.4782226 -0.76458281
4.7025852 -2.5145018 -0.7669726
4.7035785 -2.5522726 -0.7698105
4.6774368 -2.5753601 -0.76801813
4.6839881 -2.6165543 -0.77190155
4.6429005 -2.6311023 -0.76757002
4.6446691 -2.6698933 -0.77070665
4.6358862 -2.702826 -0.77205092
4.597939 -2.7186344 -0.76831686
4.5676045 -2.7386572 -0.76592708
4.5701447 -2.7784505 -0.76936239
4.5504856 -2.804883 -0.76891428
4.5164213 -2.822268 -0.76592708
4.4747987 -2.8345773 -0.76159555
4.4964218 -2.8870986 -0.7686156
4.4927092 -2.9238055 -0.77115476
4.4746842 -2.9513171 -0.77115476
4.4384084 -2.9666255 -0.76786876
4.4430413 -3.0093343 -0.77205092
4.4171567 -3.0315022 -0.77070665
4.3846741 -3.048949 -0.7681675
4.3747735 -3.0820615 -0.7698105
4.3767023 -3.1237862 -0.77369392
4.3165941 -3.1210265 -0.76607645
4.2846012 -3.138103 -0.7636866
4.2668533 -3.1655123 -0.76398534
4.2734313 -3.2112415 -0.76891428
4.2221794 -3.2134418 -0.76293981
4.1765437 -3.2193618 -0.7580108
4.1948962 -3.2747505 -0.7653296
4.1561112 -3.2857068 -0.76174492
4.145133 -3.3185639 -0.76353723
4.134676 -3.3520329 -0.76547897
4.1010408 -3.3666711 -0.76293981
4.090189 -3.3999903 -0.76488149
4.0957222 -3.4473143 -0.77010924
4.0481582 -3.4499271 -0.76488149
4.0284104 -3.4759936 -0.76518023
4.0397639 -3.5292768 -0.77175218
3.9950776 -3.533685 -0.76712197
4.0175076 -3.5977192 -0.77608371
4.0151315 -3.6402385 -0.7801165
3.9541194 -3.6293612 -0.77220029
3.9462595 -3.6670194 -0.77518755
3.9258449 -3.6931973 -0.77563566
3.9074051 -3.7213087 -0.77653182
3.8830748 -3.7438412 -0.77623308
3.8472958 -3.7551622 -0.77354455
3.8473876 -3.8016374 -0.77847356
