# .PCD v0.7 - Point Cloud Data file format
VERSION 0.7
FIELDS x y z
SIZE 4 4 4
TYPE F F F
COUNT 1 1 1
WIDTH 1532
HEIGHT 1
VIEWPOINT 0 0 0 1 0 0 0
POINTS 1532
DATA ascii
4.3649216 3.8148348 -0.76294613
4.4107413 3.8074002 -0.7670539
4.4302511 3.7770512 -0.76636922
4.4533434 3.7497966 -0.76636922
4.4831223 3.7281017 -0.76760161
4.5128021 3.7061822 -0.76883394
4.5346885 3.6777983 -0.76869696
4.5533042 3.6468084 -0.76801234
4.5763717 3.6194158 -0.76814932
4.603178 3.5949259 -0.76897085
4.6243649 3.5660088 -0.76883394
4.6437941 3.5357666 -0.76842314
4.6416492 3.4893477 -0.76431537
4.6566086 3.4560781 -0.76321995
4.6289878 3.3917234 -0.75486749
4.6761971 3.382417 -0.759386
4.6920266 3.3502066 -0.75856447
4.7011595 3.3133636 -0.75664753
4.7279067 3.2889814 -0.75774294
4.7259502 3.2447696 -0.7540459
4.7752914 3.2357166 -0.75897527
4.7752938 3.1931388 -0.75568902
4.8195996 3.1801465 -0.7597968
4.8323812 3.1461899 -0.75870138
4.8532619 3.1175506 -0.75897527
4.8748093 3.0893037 -0.759386
4.8693156 3.0441046 -0.7554152
4.921627 3.0349696 -0.76089221
4.908844 2.9856658 -0.75582594
4.9720912 2.9824991 -0.76308304
5.0201373 2.9695883 -0.76787543
4.9595461 2.8928077 -0.75527823
4.9857893 2.8672609 -0.75664753
5.0592985 2.8683746 -0.76554769
5.0525923 2.8237443 -0.76171374
5.032516 2.772135 -0.75582594
5.0677118 2.7511299 -0.75870138
5.0897374 2.7227871 -0.75952297
5.1037197 2.69012 -0.75911218
5.1482606 2.6733637 -0.76349378
5.1363473 2.6272869 -0.75911218
5.1789103 2.6090939 -0.76321995
5.2161179 2.5878348 -0.7665062
5.2149878 2.5475185 -0.76390457
5.1930285 2.4974377 -0.75815368
5.1984062 2.4608641 -0.75664753
5.2295699 2.4364522 -0.75911218
5.2606292 2.4117501 -0.76157683
5.2590752 2.3720937 -0.75911218
5.2780581 2.341789 -0.7597968
5.3168406 2.3200576 -0.76349378
5.3446307 2.2932503 -0.76554769
5.3421731 2.2534821 -0.76308304
5.3284488 2.2092769 -0.75897527
5.382267 2.1929893 -0.76499999
5.356998 2.1444588 -0.75924909
5.360837 2.1079228 -0.75787985
5.3819866 2.0782018 -0.75911218
5.3863006 2.0419784 -0.75787985
5.4154391 2.0151095 -0.76034451
5.4211884 1.9794645 -0.759386
5.3763475 1.9257832 -0.75103354
5.4628282 1.9190283 -0.76198763
5.4286084 1.8696637 -0.75527823
5.5188146 1.8629373 -0.76678002
5.4680715 1.8085057 -0.75774294
5.494143 1.7798057 -0.75993371
5.5125136 1.7484571 -0.76102912
5.5600333 1.7260565 -0.76636922
5.5496678 1.6855735 -0.76335686
5.5988374 1.6630566 -0.76897085
5.5623245 1.6151333 -0.76226145
5.5950007 1.5874639 -0.76554769
5.6189547 1.5570726 -0.76760161
5.5777245 1.5088532 -0.76034451
5.5868778 1.4746004 -0.76034451
5.5804715 1.4363406 -0.75815368
5.5968661 1.4040011 -0.75924909
5.5716968 1.3614013 -0.7544567
5.6107831 1.3345255 -0.7588383
5.622726 1.3009666 -0.759386
5.5571547 1.2499164 -0.74897969
5.6169772 1.2272161 -0.75637364
5.5585084 1.1787497 -0.74706268
5.6810975 1.168375 -0.76335686
5.6084995 1.1176146 -0.75212896
5.6755548 1.0948174 -0.76061839
5.6743755 1.0585184 -0.75952297
5.6398191 1.0163001 -0.75377208
5.6215506 0.97743177 -0.75034893
5.6127882 0.94046372 -0.74829501
5.6067176 0.90411335 -0.74665195
5.6973228 0.88289762 -0.75856447
5.6164107 0.83509648 -0.74651498
5.6047573 0.79824352 -0.74418724
5.6507735 0.7694546 -0.74993813
5.6436005 0.7332353 -0.74829501
5.7217245 0.7077179 -0.75856447
5.6826715 0.66750896 -0.75253975
5.7476997 0.63942289 -0.76102912
5.6480737 0.59327096 -0.74665195
5.6870952 0.562114 -0.75158125
5.7022734 0.52830547 -0.75322437
5.6688929 0.49014729 -0.7481581
5.728075 0.45987684 -0.75596291
5.6962137 0.42215651 -0.75117046
5.7303224 0.38934827 -0.75555211
5.7513885 0.35534224 -0.75815368
5.6782932 0.3158592 -0.7477473
5.7286034 0.28341368 -0.7544567
5.7421103 0.24877362 -0.75609982
5.7385793 0.21335165 -0.7554152
5.7447305 0.17829037 -0.75609982
5.7407651 0.1429144 -0.7554152
5.6108003 0.10522604 -0.73734099
5.6965237 0.071877554 -0.7491166
5.7305365 0.037143607 -0.75377208
5.7623549 0.0019941381 -0.75815368
5.7236266 -0.033142012 -0.75281358
5.71242 -0.0681317 -0.75130743
5.6574211 -0.10220092 -0.7437765
5.7131343 -0.13827455 -0.75158125
5.7636652 -0.17488581 -0.75870138
5.7357554 -0.20927434 -0.75500441
5.7591057 -0.24551743 -0.75842756
5.7466073 -0.28031987 -0.75692135
5.7052155 -0.3134045 -0.75144434
5.7466893 -0.35105979 -0.75746906
5.7019281 -0.38345906 -0.75158125
5.7389851 -0.42133671 -0.75705826
5.7204924 -0.45528615 -0.75486749
5.7008123 -0.48894 -0.75253975
5.6848817 -0.52273208 -0.75075972
5.7071991 -0.56011784 -0.75431979
5.7341976 -0.59831071 -0.75856447
5.7254953 -0.63293993 -0.75787985
5.698874 -0.66541827 -0.75473052
5.7084484 -0.70206529 -0.75664753
5.7118926 -0.7380935 -0.75774294
5.6925321 -0.77113348 -0.75568902
5.6729813 -0.80396378 -0.75363517
5.6081662 -0.82991594 -0.74528265
5.6949954 -0.87850088 -0.75815368
5.6806955 -0.91201562 -0.75692135
5.6828094 -0.94815814 -0.75801677
5.6895733 -0.98520565 -0.7597968
5.6444206 -1.0131004 -0.75431979
5.6692634 -1.053504 -0.75870138
5.5907059 -1.0744407 -0.74856889
5.6636815 -1.1245381 -0.7597968
5.6886988 -1.1658293 -0.76431537
5.5738587 -1.1779842 -0.7491166
5.6468625 -1.229651 -0.76048142
5.6285787 -1.2618933 -0.75897527
5.6207299 -1.2964058 -0.75897527
5.6676102 -1.3438931 -0.76678002
5.6197968 -1.3690335 -0.76116604
5.5987978 -1.4003663 -0.759386
5.6160064 -1.4413406 -0.76308304
5.5917296 -1.4717395 -0.76089221
5.5998092 -1.5106649 -0.76335686
5.5732479 -1.5402478 -0.76089221
5.5122209 -1.559854 -0.7534982
5.5748601 -1.6145852 -0.76390457
5.5563002 -1.6462295 -0.76267225
5.5669513 -1.6866088 -0.7656846
5.5583901 -1.7213211 -0.76595849
5.5335569 -1.7509128 -0.76390457
5.5368485 -1.7894015 -0.76595849
5.5370531 -1.8270653 -0.76760161
5.4891253 -1.8486776 -0.76226145
5.4739313 -1.881036 -0.76171374
5.4501338 -1.9103292 -0.75993371
5.4159222 -1.9357347 -0.75664753
5.443965 -1.9835088 -0.76253533
5.4196196 -2.0123932 -0.7607553
5.4451571 -2.0599778 -0.76636922
5.4259443 -2.090857 -0.76541078
5.3835039 -2.1125333 -0.76102912
5.4044771 -2.1591213 -0.7660954
5.4269152 -2.2067919 -0.7714355
5.3766589 -2.2249014 -0.76595849
5.3820791 -2.2659204 -0.76883394
5.3617001 -2.2961724 -0.76787543
5.3411527 -2.3262594 -0.76691693
5.2796783 -2.3381338 -0.7597968
5.3140101 -2.3924417 -0.76719081
5.3244519 -2.4365425 -0.7710247
5.2977242 -2.4637375 -0.76924467
5.2610121 -2.4860415 -0.76595849
5.2822733 -2.53585 -0.77157241
5.261272 -2.565609 -0.77075088
5.2401042 -2.5952058 -0.76992935
5.2187719 -2.6246397 -0.76910776
5.1787481 -2.6444504 -0.76541078
5.1835322 -2.6871169 -0.76869696
5.1292505 -2.6990392 -0.76280916
5.1641474 -2.7579899 -0.77088779
5.1279674 -2.7792418 -0.76787543
5.0630765 -2.7844036 -0.76034451
5.047627 -2.8163829 -0.76061839
5.0354233 -2.8502288 -0.76143992
5.0771165 -2.9151013 -0.77088779
5.0223246 -2.9247661 -0.76499999
5.0264611 -2.9686232 -0.76856005
5.0005026 -2.9948289 -0.76732773
4.9930401 -3.0321386 -0.76910776
4.9853072 -3.069469 -0.77088779
4.9747829 -3.1052451 -0.77225709
4.9347081 -3.1224711 -0.76883394
4.8804345 -3.1302321 -0.76308304
4.8802385 -3.1725354 -0.76623231
4.8325548 -3.1838927 -0.76157683
4.840939 -3.2321846 -0.76623231
4.8275795 -3.2662675 -0.76732773
4.7911062 -3.2846262 -0.76458919
4.7936425 -3.3297839 -0.76842314
4.7585392 -3.3488736 -0.76595849
4.785491 -3.4119339 -0.77403712
4.7652688 -3.441813 -0.77417403
4.7408624 -3.4686477 -0.77362633
4.6788998 -3.4675941 -0.76664311
4.6781335 -3.5116985 -0.77020317
4.6320519 -3.5217531 -0.76595849
4.6480308 -3.5791152 -0.77253091
4.6681657 -3.6404598 -0.77992493
4.6239724 -3.6518455 -0.77609098
4.59761 -3.6770556 -0.77540636
4.584969 -3.7133009 -0.77718639
4.5682263 -3.7463887 -0.77828181
4.5299106 -3.7616925 -0.77554327
4.4839969 -3.770293 -0.7714355
4.5663805 -3.8876286 -0.79060513
4.5379386 -3.9116938 -0.7897836
4.4757867 -3.9062481 -0.78280038
4.4613848 -3.9421637 -0.78458041
4.4275141 -3.9608786 -0.78280038
4.3979874 -3.9833164 -0.78184187
4.3683524 -4.0055408 -0.78088337
4.3596654 -4.0470948 -0.78389579
4.3571291 -4.0947971 -0.78814048
4.3161325 -4.1064348 -0.78512812
4.3279567 -4.1685719 -0.79224825
4.262578 -4.1563249 -0.78458041
4.2172546 -4.1629176 -0.78074646
4.1832232 -4.1803141 -0.77910334
4.1435661 -4.1918144 -0.77636486
4.1565247 -4.2568474 -0.7840327
4.1275759 -4.2794194 -0.783485
4.0978236 -4.3010793 -0.78280038
4.0781446 -4.3333554 -0.78416961
4.0562005 -4.3633752 -0.78512812
4.0340409 -4.3932886 -0.78608656
4.0090051 -4.4201593 -0.78649735
3.9976726 -4.4623814 -0.7897836
3.9255757 -4.4363837 -0.78047264
3.8917615 -4.452929 -0.77910334
3.8430035 -4.4519806 -0.77458483
3.8651037 -4.5335174 -0.78512812
3.8104143 -4.5253243 -0.77937722
3.7825758 -4.5486193 -0.77937722
3.7476788 -4.563323 -0.77787101
3.7127438 -4.5777702 -0.77636486
3.2585106 -4.0685534 -0.68215984
3.2033727 -4.0504022 -0.67545044
3.1821182 -4.0746655 -0.67627203
3.1413276 -4.0737195 -0.67271191
2.8696172 -3.7690115 -0.61643541
2.612489 -3.4753866 -0.5626235
2.5834398 -3.4810109 -0.56084347
2.5380254 -3.4640379 -0.55522954
2.5039492 -3.4618888 -0.55221713
2.4740252 -3.4650958 -0.55016327
2.4413028 -3.4640179 -0.54742473
2.3736112 -3.4122553 -0.53619683
2.3374891 -3.4047072 -0.53249979
2.3082185 -3.4066854 -0.53044593
2.2971842 -3.4356058 -0.53291059
2.2766061 -3.4504631 -0.5330475
2.2364731 -3.4353135 -0.52825511
2.2089272 -3.4389706 -0.52661198
2.1792996 -3.4390726 -0.52442122
2.1534302 -3.4448206 -0.52318883
2.1239326 -3.444479 -0.52099806
2.099669 -3.4523687 -0.52017647
2.0779364 -3.4643376 -0.52003956
2.0475614 -3.4616764 -0.51757491
2.0197935 -3.4630518 -0.51579487
1.9950495 -3.4693689 -0.51483637
1.9654177 -3.4668963 -0.51250863
1.9354086 -3.4633267 -0.51004398
1.9045616 -3.4577844 -0.50730544
1.8800005 -3.4633117 -0.50634694
1.8540415 -3.4660478 -0.5049777
0 -0 -0
0 -0 -0
1.7682729 -3.4572575 -0.49840528
1.7452433 -3.4645038 -0.49785757
1.7221915 -3.4715979 -0.49730986
1.6978137 -3.4758694 -0.49635139
0 -0 -0
1.6427385 -3.4704788 -0.49238053
0 -0 -0
0 -0 -0
1.57858 -3.5001283 -0.49238053
1.5663153 -3.5305734 -0.49552983
1.5473963 -3.5464728 -0.4964883
1.5275598 -3.560452 -0.49717292
1.5133858 -3.5880115 -0.49991146
1.496654 -3.6100402 -0.50182843
0 -0 -0
0 -0 -0
1.4477165 -3.6821477 -0.50853777
1.4358027 -3.7186832 -0.51264554
1.4203336 -3.7468739 -0.51552099
1.4028449 -3.7703724 -0.51771182
1.3858006 -3.7956574 -0.52017647
1.3668282 -3.8162122 -0.5219565
1.3621041 -3.8777974 -0.52976131
1.3376393 -3.8842092 -0.52948743
1.3198019 -3.9101756 -0.53208905
1.3041848 -3.9435925 -0.53578603
0 -0 -0
1.2664766 -3.9932911 -0.5407154
1.2857196 -4.1419444 -0.56111735
1.2919548 -4.2540145 -0.57617921
1.283602 -4.3216834 -0.58480549
1.2827555 -4.4179463 -0.5975396
1.270498 -4.4781461 -0.60507053
0 -0 -0
1.5706906 -5.8062549 -0.79306978
1.5115184 -5.7267113 -0.78033566
1.4753635 -5.7320409 -0.77978802
1.4461919 -5.7650056 -0.78321111
1.4234915 -5.8257322 -0.79060513
1.3776304 -5.791955 -0.78458041
1.3364816 -5.7761722 -0.78115726
1.3177571 -5.8586783 -0.79170054
1.2705745 -5.8153639 -0.7844435
1.2229456 -5.7668471 -0.77650177
1.197718 -5.8237262 -0.783485
1.1487932 -5.7649055 -0.77417403
1.1139618 -5.7747641 -0.77458483
1.0815969 -5.7980442 -0.77691257
1.0575993 -5.8689132 -0.78594965
1.0115528 -5.8177123 -0.77787101
0.97632819 -5.8267403 -0.77828181
0.94434404 -5.8560915 -0.78156805
0.90566224 -5.8441558 -0.77910334
0.874596 -5.8819361 -0.78362191
0.84086424 -5.9038634 -0.78594965
0.79619861 -5.8470764 -0.77732331
0.76196671 -5.8646216 -0.77910334
0.72621101 -5.8711529 -0.77937722
0.68809128 -5.85779 -0.77691257
0.65213561 -5.8619018 -0.77691257
0.61470568 -5.8520002 -0.77499557
0.57898194 -5.8576336 -0.77526945
0.54284632 -5.8591032 -0.77499557
0.51235086 -5.9254851 -0.78375882
0.47685584 -5.9393783 -0.78526503
0.44091651 -5.9491076 -0.78622353
0.4041363 -5.9477477 -0.78567582
0.36904052 -5.9728556 -0.78882509
0.33078733 -5.9463253 -0.78485423
0.29262862 -5.9146042 -0.78019875
0.25444224 -5.8727441 -0.77417403
0.21781303 -5.8583565 -0.77198321
0.15254465 -4.9170051 -0.64162976
0.12242105 -4.9198289 -0.64190358
0.092399031 -4.9294009 -0.64313596
0.062427521 -4.9516664 -0.64614832
0.0321538 -4.9687958 -0.64847606
0.0019929064 -5.7593832 -0.75774294
-0.034077149 -5.8870702 -0.77540636
-0.070516013 -5.9134936 -0.77910334
-0.10619323 -5.8792753 -0.77444786
-0.1412859 -5.8379111 -0.76883394
-0.17713396 -5.8379245 -0.76897085
-0.21439347 -5.8763247 -0.77444786
-0.24939279 -5.8501568 -0.7710247
-0.28364533 -5.8148766 -0.76636922
-0.32197842 -5.8614922 -0.77307862
-0.35552448 -5.8198562 -0.76760161
-0.3879742 -5.769136 -0.76089221
-0.42503226 -5.7893691 -0.76404148
-0.46612227 -5.8567624 -0.77376324
-0.49799007 -5.8064175 -0.76719081
-0.53333628 -5.8002934 -0.76678002
-0.56446868 -5.7515626 -0.76048142
-0.6017009 -5.7667103 -0.76308304
-0.63337505 -5.729434 -0.75842756
-0.66897756 -5.7293754 -0.75897527
-0.70025253 -5.6937008 -0.75459361
-0.73847413 -5.7148399 -0.75815368
-0.78229761 -5.7749882 -0.76719081
-0.81354976 -5.7406559 -0.76308304
-0.84977305 -5.7424154 -0.76404148
-0.88212377 -5.718492 -0.76143992
-0.89851731 -5.5965815 -0.74514574
-0.84419298 -5.0594282 -0.67065805
-0.86069167 -4.9702115 -0.65888244
-0.8860991 -4.9365611 -0.65491158
-0.91546798 -4.9261618 -0.65422696
-0.94922793 -4.9389348 -0.65682852
-0 -0 -0
-1.1467437 -5.5955381 -0.75117046
-1.1718415 -5.5447831 -0.74500883
-1.214059 -5.5752368 -0.75034893
-1.2391464 -5.5270853 -0.74459803
-1.2877258 -5.5830851 -0.75363517
-1.3201309 -5.5673676 -0.75253975
-1.353798 -5.5572376 -0.75226587
-1.3909949 -5.5613194 -0.7540459
-1.4342011 -5.588181 -0.75911218
-1.4538426 -5.5237131 -0.75117046
-1.4964782 -5.5472064 -0.75582594
-1.5299594 -5.5360103 -0.75555211
-1.5617416 -5.5188932 -0.7544567
-1.6063201 -5.5463152 -0.7597968
-1.5896811 -5.3653922 -0.73515016
-1.6768454 -5.5347176 -0.76102912
-1.7078445 -5.5148621 -0.75965989
-1.7574857 -5.5543351 -0.76691693
-1.7894015 -5.5368485 -0.76595849
-1.830479 -5.547401 -0.76910776
-1.8515226 -5.4975748 -0.76349378
-1.8958415 -5.5170259 -0.76801234
-1.9286748 -5.5024848 -0.76760161
-1.9657345 -5.4998751 -0.76897085
-1.9831698 -5.4430342 -0.76239842
-2.0072219 -5.4056897 -0.75870138
-2.0571742 -5.4377446 -0.76527387
-2.1015406 -5.4536748 -0.76951855
-2.1175983 -5.3964138 -0.76294613
-2.1510377 -5.3842392 -0.76308304
-2.1978381 -5.404892 -0.76814932
-2.2165699 -5.3565216 -0.76294613
-2.2447834 -5.3318644 -0.76130301
-2.2638104 -5.2861185 -0.75651056
-2.3056943 -5.2939258 -0.7597968
-2.3228939 -5.2452593 -0.75459361
-2.3473091 -5.2137451 -0.75199205
-2.3829651 -5.2073512 -0.75322437
-2.3973305 -5.1549058 -0.74747348
-2.4238374 -5.1293511 -0.74583036
-2.4471207 -5.0974145 -0.74322879
-2.4761813 -5.0778513 -0.74254411
-2.4927859 -5.033268 -0.73802561
-2.5196173 -5.009913 -0.73679328
-2.5422025 -4.978478 -0.73432857
-2.5699668 -4.9575086 -0.73350704
-2.5865004 -4.9153466 -0.72939926
-2.6077466 -4.8827815 -0.72679764
-2.6272748 -4.847528 -0.72378528
-2.6326277 -4.7870474 -0.71680206
-2.670155 -4.7855101 -0.7191298
-2.6760492 -4.7276559 -0.71255738
-2.6813345 -4.6699109 -0.70598495
-2.7159193 -4.6636429 -0.70762801
-2.7429729 -4.6443315 -0.70721728
-2.7622578 -4.6121163 -0.70475262
-2.7920475 -4.5976205 -0.70516336
-2.8015108 -4.5500345 -0.70023406
-2.8262298 -4.5277171 -0.69941247
-2.8539581 -4.5102901 -0.69941247
-2.8580503 -4.4560046 -0.69338775
-2.87886 -4.4284172 -0.69174463
-2.8994389 -4.400743 -0.6901015
-2.9153869 -4.3663921 -0.68736303
-2.9249175 -4.3229866 -0.68311828
-2.9446669 -4.2951536 -0.68147522
-2.9653153 -4.2688684 -0.68010592
-2.9834721 -4.2392516 -0.67818898
-3.0036774 -4.2127995 -0.67681974
-3.0138116 -4.1726074 -0.6731227
-3.0335088 -4.1460414 -0.67175347
-3.0494552 -4.1146159 -0.66956264
-3.0722661 -4.0926585 -0.66901493
-3.0775375 -4.0477071 -0.66449636
-3.09869 -4.0240378 -0.66367483
-3.114186 -3.9932313 -0.66162091
-3.1331043 -3.967051 -0.66038859
-3.1499629 -3.9384685 -0.65874547
-3.1553679 -3.8959715 -0.65463769
-3.1415277 -3.8305779 -0.64642215
-3.17573 -3.8241856 -0.64874989
-3.1704495 -3.7705076 -0.64258826
-3.1806834 -3.7358973 -0.63984972
-3.2138939 -3.7283161 -0.64204055
-3.200237 -3.6667295 -0.63437271
-3.2193961 -3.6433125 -0.63368803
-3.2476342 -3.6301348 -0.63492036
-3.2479043 -3.5859091 -0.63040185
-3.2798872 -3.5768652 -0.63245571
-3.2930121 -3.5472345 -0.63067567
-3.2909741 -3.5016961 -0.62588328
-3.315129 -3.484308 -0.62643099
-3.3151448 -3.4417825 -0.6221863
-3.3313601 -3.4164114 -0.6212278
-3.2972884 -3.3402097 -0.61041063
-3.3072193 -3.3094041 -0.60835677
-3.3373253 -3.298799 -0.61027372
-3.327738 -3.2491915 -0.60452282
-3.3697131 -3.2500315 -0.60876757
-3.36234 -3.2033272 -0.60356438
-3.3667841 -3.1683784 -0.60068893
-3.3752794 -3.1375432 -0.59863502
-3.3776867 -3.1013632 -0.59548575
-3.4076583 -3.0905626 -0.5975396
-3.3999979 -3.0457985 -0.5926103
-3.4067535 -3.0143757 -0.59041947
-3.3834193 -2.9569077 -0.58275163
-3.3955004 -2.9309132 -0.58165622
-3.4088976 -2.9061673 -0.58083469
-3.3812034 -2.8469112 -0.57261908
-3.404701 -2.8311782 -0.57371449
-3.4181814 -2.8070905 -0.57302988
-3.4261091 -2.7785757 -0.57138675
-3.4307237 -2.7475924 -0.56919599
-3.4436336 -2.7234175 -0.56851131
-3.4501305 -2.6943097 -0.56673127
-3.4501252 -2.6603851 -0.56385583
-3.4711127 -2.6427662 -0.56467742
-3.4848878 -2.6196325 -0.56426662
-3.4897604 -2.5899343 -0.56234968
-3.4951992 -2.5608609 -0.56056964
-3.502018 -2.53298 -0.55906343
-3.4755754 -2.481509 -0.5519433
-3.5020714 -2.4681265 -0.55386025
-3.5138969 -2.4443288 -0.55331254
-3.5043314 -2.4058998 -0.54920477
-3.5108275 -2.3787951 -0.54783553
-3.5080657 -2.345644 -0.54496008
-3.5174317 -2.320801 -0.54413849
-3.5141735 -2.2878237 -0.5412631
-3.5331454 -2.2694306 -0.54208463
-3.5344539 -2.2397542 -0.54003072
-3.5422509 -2.214349 -0.53907228
-3.5557711 -2.1925726 -0.53907228
-3.5700037 -2.1712282 -0.53920919
-3.5832591 -2.1492822 -0.53920919
-3.5887063 -2.1227157 -0.53797686
-3.595674 -2.0971618 -0.53701836
-3.596453 -2.0681453 -0.53510141
-3.6021817 -2.04213 -0.534006
-3.6059973 -2.0151558 -0.53263676
-3.6182942 -1.9929919 -0.53263676
-3.6156557 -1.9627177 -0.53030902
-3.6293776 -1.9414301 -0.53058285
-3.6123047 -1.9038796 -0.52606428
-3.6353469 -1.8876145 -0.52784431
-3.6336324 -1.8585055 -0.52579045
-3.6423137 -1.8348377 -0.52537966
-3.641968 -1.8067304 -0.52359962
-3.6262844 -1.771304 -0.51949185
-3.630836 -1.7460145 -0.51853335
-3.6575963 -1.7313335 -0.52099806
-3.6690485 -1.7092767 -0.52113497
-3.6776667 -1.6859058 -0.52086109
-3.6762035 -1.6580129 -0.51908106
-0.25019097 -0.11059459 0.00055270299
-3.7017205 -1.6151527 -0.51990265
-0.24879842 -0.10634407 0.00096348068
-0.28777859 -0.12098822 -0.0047874069
-0.28302541 -0.11694342 -0.0039658519
-0.26447368 -0.10735404 -0.0010904078
-0.26512742 -0.10572923 -0.0010904078
-0.26577118 -0.10410045 -0.0010904078
-0 -0 -0
-0 -0 -0
-0 -0 -0
-0 -0 -0
-0 -0 -0
-0 -0 -0
-0 -0 -0
-0 -0 -0
-0 -0 -0
-0 -0 -0
-0 -0 -0
-0 -0 -0
-0 -0 -0
-0 -0 -0
-0 -0 -0
-0 -0 -0
-0 -0 -0
-0 -0 -0
-0 -0 -0
-0 -0 -0
-0 -0 -0
-0 -0 -0
-0 -0 -0
-0 -0 -0
-0 -0 -0
-0 -0 -0
-0 -0 -0
-0 -0 -0
-0 -0 -0
-0 -0 -0
-0 -0 -0
-0 -0 -0
-0 -0 -0
-0 -0 -0
-0 -0 -0
-0 -0 -0
-0 -0 -0
-0 -0 -0
-0 -0 -0
-0 -0 -0
-0 -0 -0
-0 -0 -0
-0 -0 -0
-0 -0 -0
-0 -0 -0
-0 -0 -0
-0 -0 -0
-0 -0 -0
-0 -0 -0
-0 -0 -0
-0 -0 -0
-0 -0 -0
-0 -0 -0
-0 -0 -0
-0 -0 -0
-0 -0 -0
-0 0 -0
-0.27718332 0.021088189 -0.0034301106
-0 0 -0
-0.27493456 0.02430558 -0.003131385
-0.27478024 0.02599209 -0.003131385
-0.27461559 0.02767762 -0.003131385
-0.27444059 0.029362109 -0.003131385
-0 0 -0
-0 0 -0
-0.27483416 0.034536108 -0.0032807479
-0 0 -0
-0 0 -0
-0 0 -0
-0.28172076 0.042482041 -0.0044756499
-0.27559778 0.043265216 -0.0035794734
-0 0 -0
-0 0 -0
-0.26210436 0.046050806 -0.0016377573
-0.25890082 0.047114141 -0.001189669
-0 0 -0
-0.26703057 0.052027058 -0.0025339341
-0 0 -0
-0.2760447 0.057351485 -0.0040275618
-0 0 -0
-0.27435544 0.060517658 -0.0038781988
-0.27494228 0.062422849 -0.0040275618
-0.27359214 0.063879862 -0.0038781988
-0 0 -0
-0 0 -0
-0 0 -0
-0.26238167 0.068051301 -0.0023845711
-0.2648226 0.07043463 -0.0028326595
-0 0 -0
-0.26869446 0.075028688 -0.0035794734
-0.26822904 0.076675951 -0.0035794734
-0 0 -0
-0.26632181 0.079674385 -0.0034301106
-0.26488361 0.081013821 -0.0032807479
-0.26438153 0.082637593 -0.0032807479
-0.2676321 0.085477233 -0.0038781988
-0.26804134 0.087428294 -0.0040275618
-0.27124721 0.090336382 -0.0046250126
-0.27255756 0.092643037 -0.0049237381
-0.2691853 0.093330465 -0.0044756499
-0.26674587 0.09431348 -0.0041769245
-0.26430455 0.095270105 -0.0038781988
-0.26278833 0.096545205 -0.0037288361
-0.26126641 0.097805291 -0.0035794734
-0.25973898 0.09905035 -0.0034301106
-0.26188692 0.10172777 -0.0038781988
-0.26217574 0.10370026 -0.0040275618
-0.26611292 0.10717258 -0.0047743754
-0.26910383 0.11031831 -0.0053718267
-0.26933289 0.11235175 -0.0055211894
-0.27136442 0.11517196 -0.0059692776
-0.26974639 0.11643938 -0.0058199149
-0.26721925 0.11729026 -0.0055211894
-0.26829717 0.11974081 -0.0058199149
-0.26575977 0.12056062 -0.0055211894
-0.26680756 0.12302422 -0.0058199149
-0.26962245 0.12635136 -0.0064173662
-0.27062425 0.12886049 -0.0067160917
-0.2698285 0.13051859 -0.0067160917
-0.26636532 0.13085335 -0.006268003
-0.26290828 0.13115059 -0.0058199149
-0.26121831 0.13231099 -0.0056705521
-0.26040155 0.13391131 -0.0056705521
-0.25607619 0.13366228 -0.0050731013
-0.25612307 0.13569745 -0.005222464
-0.25528562 0.13726644 -0.005222464
-0.25184038 0.13739897 -0.0047743754
-0.25012943 0.13845925 -0.0046250126
-0.24755487 0.13901603 -0.0043262872
-0.24584009 0.14003943 -0.0041769245
-0.24753849 0.14303985 -0.0046250126
-0.24920923 0.14606635 -0.0050731013
-0.2542437 0.15115327 -0.0061186403
-0.25584581 0.15425196 -0.0065667289
-0.25826097 0.15789497 -0.0071641798
-0.25896412 0.16052499 -0.0074629053
-0.25797427 0.16211095 -0.0074629053
-0.25863856 0.16475964 -0.0077616312
-0.25762275 0.16634351 -0.0077616312
-0.25577193 0.16737653 -0.007612268
-0.25556204 0.16949242 -0.0077616312
-0.25369871 0.17050265 -0.007612268
-0.25509313 0.17373517 -0.0080603566
-0.25645736 0.17699116 -0.0085084448
-0.25536653 0.17856142 -0.0085084448
-0.25507081 0.18069956 -0.0086578075
-0.25636068 0.18399981 -0.0091058956
-0.25761962 0.18732263 -0.0095539838
-0.2588473 0.19066776 -0.010002073
-0.2592532 0.19344078 -0.010300798
-0.25806141 0.19502789 -0.010300798
-0.25920886 0.19841912 -0.010748887
-0.25642794 0.19878863 -0.010450161
-0.25442785 0.19974491 -0.010300798
-0.25165394 0.20006602 -0.010002073
-0.24734986 0.19911493 -0.0094046211
-0.24765167 0.20188402 -0.0097033465
-0.24412754 0.20150307 -0.0092552584
-0.2436429 0.2036341 -0.0094046211
-0.24690339 0.20897435 -0.010300798
-0.24786194 0.21242374 -0.010748887
-0.24953184 0.21654342 -0.011346337
-0 0 -0
-0 0 -0
-0 0 -0
-0 0 -0
-0 0 -0
-0 0 -0
-0 0 -0
-0 0 -0
-0 0 -0
-0 0 -0
-0 0 -0
-0 0 -0
-0 0 -0
-0 0 -0
-0 0 -0
-0 0 -0
-0 0 -0
-0 0 -0
-0 0 -0
-0 0 -0
-0 0 -0
-0 0 -0
-0 0 -0
-0 0 -0
-0 0 -0
-0 0 -0
-0 0 -0
-0 0 -0
-0 0 -0
-0 0 -0
-0 0 -0
-0 0 -0
-3.1475396 4.1381373 -0.74680865
-3.1315866 4.1700249 -0.74919844
-3.1236024 4.2129941 -0.75367934
-3.1117053 4.2512331 -0.75726402
-3.0994561 4.289484 -0.7608487
-3.0765219 4.313252 -0.76174492
-3.0494292 4.3312392 -0.76159555
-3.0357697 4.368547 -0.76503086
-3.0189712 4.4017715 -0.76771939
-3.0013247 4.4341354 -0.77025855
-2.992728 4.4804273 -0.77533692
-2.9738839 4.5119171 -0.77772671
-2.9482989 4.5333958 -0.77832419
-2.9241636 4.5572271 -0.77936971
-2.9051337 4.5892882 -0.78190887
-2.8821552 4.6154156 -0.7834025
-2.8620756 4.6464853 -0.78579229
-2.8278658 4.6546621 -0.78414929
-2.7962041 4.6668363 -0.78325313
-2.7750583 4.6966767 -0.78549355
-2.7551441 4.7289958 -0.78818208
-2.7364144 4.7638197 -0.79131871
-2.7120032 4.7891254 -0.79281235
-2.6844938 4.8091297 -0.79340982
-2.6520762 4.8203125 -0.79251361
-2.6182091 4.8286705 -0.79116935
-2.5908606 4.8490057 -0.79191619
-2.5725696 4.8866878 -0.79565024
-2.5484526 4.9137931 -0.79759198
-2.5205023 4.9337406 -0.79833877
-2.4884052 4.9455795 -0.79774135
-2.4496753 4.9439197 -0.79490346
-2.4175606 4.9553027 -0.79430598
-2.3849702 4.9655862 -0.79355919
-2.36713 5.0069466 -0.79804003
-2.344285 5.0384121 -0.80087793
-2.3207314 5.0688853 -0.80356646
-2.2940507 5.092948 -0.80520946
-2.2611563 5.1033115 -0.80461204
-2.2258523 5.1080241 -0.80311841
-2.1995282 5.1334019 -0.80506009
-2.1683724 5.1477127 -0.80520946
-2.1318312 5.1490431 -0.80326778
-2.094238 5.1473718 -0.80087793
-2.0699513 5.1784892 -0.80386519
-2.0319977 5.1754451 -0.80132604
-2.0062473 5.2035007 -0.80386519
-1.984777 5.2434578 -0.80834609
-1.9474038 5.2416329 -0.80610561
-1.9202822 5.2674189 -0.80834609
-1.8879257 5.2791023 -0.80834609
-1.853536 5.2849884 -0.80744988
-1.822037 5.2990675 -0.80789798
-1.793275 5.3213925 -0.80969036
-1.7426206 5.2778339 -0.8010273
-1.7168926 5.3091264 -0.8043133
-1.6833893 5.3167329 -0.80386519
-1.6595092 5.355298 -0.80834609
-1.6360787 5.3966079 -0.81327504
-1.6023732 5.4046493 -0.8129763
-1.5634049 5.3944345 -0.80983973
-1.5324296 5.4115372 -0.81103462
-1.4976159 5.4151196 -0.81013846
-1.4669363 5.4337535 -0.81163204
-1.4257666 5.4130092 -0.80700183
-1.3940008 5.4274025 -0.80789798
-1.3613924 5.4387312 -0.80834609
-1.3242512 5.4316111 -0.8059563
-1.289758 5.434824 -0.80520946
-1.255053 5.4368544 -0.8043133
-1.2218858 5.4454179 -0.80446267
-1.191185 5.4653726 -0.80640435
-1.1600808 5.4841876 -0.80819672
-1.1260117 5.489265 -0.80789798
-1.0863402 5.4660053 -0.80326778
-1.0518481 5.4677129 -0.80252093
-1.018279 5.4740644 -0.80252093
-0.98799008 5.4987006 -0.80535883
-0.95743704 5.5231709 -0.80819672
-0.92385489 5.5308919 -0.80849546
-0.88974386 5.5354805 -0.80834609
-0.85154188 5.513473 -0.80416393
-0.81798524 5.5205507 -0.80446267
-0.78645456 5.542109 -0.80700183
-0.75256675 5.5478101 -0.8071512
-0.71863854 5.5533037 -0.80730057
-0.68201643 5.5369997 -0.80416393
-0.64699739 5.5322409 -0.80281967
-0.61282277 5.5341411 -0.80252093
-0.57700777 5.5200953 -0.7998324
-0.5439952 5.5323882 -0.80117667
-0.50994837 5.5346375 -0.8010273
-0.47580993 5.5356917 -0.80072856
-0.44105038 5.5286503 -0.79923493
-0.40480295 5.4996963 -0.79445535
-0.36965707 5.481359 -0.79131871
-0.33330512 5.4391117 -0.7845974
-0.30187663 5.4765968 -0.78997445
-0.26740047 5.4605689 -0.78728592
-0.23452137 5.4769254 -0.78952634
-0.20083912 5.476285 -0.78922766
-0.16711363 5.4734612 -0.78863019
-0.13326307 5.46351 -0.78698719
-0.099112913 5.4296231 -0.7817595
-0.065560162 5.4103546 -0.77877223
-0.032355919 5.4096661 -0.77862287
0.00083594496 5.404819 -0.77787608
0.03402501 5.4086671 -0.77847356
0.067373835 5.4212098 -0.78041524
0.10050651 5.413774 -0.77936971
0.13310711 5.3883438 -0.77563566
0.16647382 5.3973083 -0.77712923
0.19885273 5.3764234 -0.77414203
0.23132424 5.3632479 -0.77234966
0.2650103 5.3775287 -0.77473944
0.29635292 5.3461838 -0.77025855
0.32988289 5.3561072 -0.77205092
0.36233884 5.3480635 -0.77115476
0.3949278 5.3427815 -0.77070665
0.42809883 5.3451858 -0.7714535
0.4638702 5.3769369 -0.77668118
0.49420768 5.345437 -0.77234966
0.52398163 5.3118005 -0.76771939
0.5552212 5.2957015 -0.76577771
0.58868873 5.3010397 -0.76712197
0.62143499 5.2992916 -0.76742071
0.65345347 5.2914538 -0.76682323
0.68272346 5.2628312 -0.76308918
0.70779723 5.205637 -0.7550236
0.74502397 5.2383943 -0.76069933
0.77715212 5.2337241 -0.76069933
0.80516201 5.2024751 -0.75666654
0.82777977 5.139843 -0.74785417
0.86845344 5.1892772 -0.75621849
0.89773685 5.1692386 -0.75397801
0.94153899 5.2307768 -0.76428407
0.95167369 5.1072879 -0.74621117
0.97625041 5.066401 -0.74083412
1.0001682 5.024436 -0.73530769
1.0184287 4.9571886 -0.72589785
1.0383637 4.9015155 -0.71828032
1.0219822 4.6825342 -0.68542051
1.0450524 4.651094 -0.68153709
1.0604192 4.5877576 -0.67272466
1.075964 4.5282578 -0.66450971
1.1051369 4.5273337 -0.66540593
1.1148494 4.4485378 -0.65420371
1.1386734 4.4282079 -0.6521126
1.1809646 4.4784999 -0.6610744
1.206098 4.4625788 -0.65973014
1.2292318 4.4398484 -0.65734035
1.253752 4.4227104 -0.65584671
1.2794869 4.4101863 -0.65509987
1.3115914 4.4193139 -0.6577884
1.3309239 4.3856382 -0.65375561
1.3545836 4.3670015 -0.6521126
1.3798587 4.3538957 -0.65136582
1.4068525 4.3462873 -0.65151519
1.4424992 4.3647976 -0.65584671
1.4566033 4.3183908 -0.64987218
1.4708368 4.2738466 -0.64419639
1.4885117 4.2404861 -0.64031297
1.5255069 4.261991 -0.64524192
1.5543425 4.2599812 -0.64643681
1.5718306 4.2271962 -0.64270276
1.597388 4.2165475 -0.64255339
1.6196682 4.1974425 -0.64105976
1.6558865 4.2141113 -0.64539129
1.6846526 4.211215 -0.64658618
1.7182959 4.2200284 -0.64972281
1.7464296 4.2148857 -0.65061897
1.7711058 4.2013574 -0.65017092
1.7886634 4.1713295 -0.64703429
1.8102697 4.1512132 -0.64554065
1.8341029 4.1364121 -0.64494324
1.8476584 4.0989423 -0.64061171
1.8793677 4.1019092 -0.6430015
1.9103476 4.1028481 -0.64509255
1.943948 4.108923 -0.64807981
1.9635519 4.0853338 -0.64613813
1.9859779 4.0678782 -0.64524192
2.0135374 4.0609303 -0.64613813
2.0375271 4.0467329 -0.64583939
2.0591669 4.0279927 -0.64479387
2.0879447 4.0231795 -0.64613813
2.1153576 4.0155406 -0.64703429
2.1408896 4.0042291 -0.64733303
2.1734388 4.0057902 -0.64987218
2.2075191 4.0097003 -0.65285945
2.2301509 3.9926271 -0.65226197
2.253144 3.9762876 -0.65181392
2.2873588 3.9795303 -0.65480113
2.3142247 3.969691 -0.65554798
2.3330009 3.9460552 -0.65390497
2.3642907 3.9435368 -0.65599608
2.3940957 3.9382482 -0.65763903
2.4249623 3.9344251 -0.65958077
2.4605896 3.9379168 -0.66286677
2.4942334 3.937778 -0.6655553
2.5204859 3.9257271 -0.66615272
2.5483029 3.9159882 -0.66719824
2.5853531 3.9200854 -0.67078298
2.6176023 3.9164774 -0.6730234
2.6548963 3.9199874 -0.67660815
2.6940105 3.9256322 -0.68064094
2.6660964 3.8343534 -0.66689956
2.7106504 3.8478258 -0.67242599
2.7284632 3.8230741 -0.67093235
2.7623012 3.8206813 -0.67362088
2.7886147 3.8076482 -0.67436767
2.8213544 3.8031697 -0.67675745
2.8517673 3.7952707 -0.67854983
2.8785949 3.7824214 -0.67944598
2.9210718 3.7897432 -0.68422562
2.9588771 3.7904513 -0.6878103
2.9882131 3.7799797 -0.68930393
3.0354576 3.7916715 -0.6951291
3.0754828 3.7937095 -0.69916189
3.112509 3.7915776 -0.70244789
3.1464632 3.7853322 -0.70498705
3.1925583 3.7931831 -0.7103641
3.2375844 3.7991052 -0.71544242
3.2782798 3.799377 -0.71947521
3.3223531 3.8030143 -0.72425485
3.3692148 3.8092146 -0.7296319
3.4096787 3.8076177 -0.73351532
3.4509137 3.8063993 -0.73754811
3.4935989 3.8062739 -0.74187964
3.5323725 3.8014224 -0.74531502
3.5718951 3.7969575 -0.7488997
3.5971718 3.7771168 -0.74934781
3.6237123 3.7585323 -0.75009459
3.6549957 3.7447162 -0.75188696
3.6890261 3.7334702 -0.75427675
3.6943789 3.6932917 -0.7505427
3.7197857 3.6733322 -0.75114012
3.7118127 3.6207569 -0.74471754
3.7332473 3.5972276 -0.74456817
3.7581146 3.5769792 -0.74516565
3.7778301 3.551821 -0.74471754
3.7836096 3.5137746 -0.74143153
3.8400807 3.522568 -0.74860096
3.8601568 3.497612 -0.74830222
3.9073381 3.4969342 -0.75352997
3.9331672 3.4768217 -0.75442612
3.9298422 3.4311678 -0.74949718
3.943332 3.4005344 -0.74800354
3.9648759 3.3769155 -0.74815291
4.005199 3.3690684 -0.75203633
4.0341635 3.351378 -0.75367934
4.0554161 3.3271887 -0.75382864
4.0803652 3.3059764 -0.75472486
4.0835848 3.2672911 -0.75143886
4.1314912 3.2642345 -0.75681591
4.1444249 3.2333503 -0.75547165
4.1720209 3.2138922 -0.75696528
4.189301 3.1864374 -0.75651717
4.211937 3.1630466 -0.75711465
4.2209382 3.1294897 -0.75517291
4.2368689 3.1011963 -0.75457549
4.2678413 3.0838249 -0.75681591
4.313252 3.0765219 -0.76174492
4.3158755 3.0386174 -0.75875765
4.3441839 3.0188472 -0.76055002
4.3373437 2.9748034 -0.75591975
4.3604288 2.9514585 -0.75681591
4.3801012 2.925746 -0.75711465
4.4012733 2.900991 -0.75771213
4.384172 2.8512969 -0.75143886
4.4107399 2.8302143 -0.75308186
4.4296942 2.8041544 -0.7533806
4.4434614 2.7748275 -0.75278312
4.4629297 2.7490659 -0.75323123
4.486475 2.7257357 -0.75442612
4.4963288 2.6940918 -0.75323123
4.5332084 2.6785195 -0.75681591
4.5418682 2.6461756 -0.75547165
4.5820293 2.6320424 -0.75965381
4.6075583 2.6092358 -0.76129681
4.6424785 2.5915139 -0.76458281
4.6444292 2.555356 -0.76219296
4.6617599 2.5277526 -0.7624917
4.6710768 2.4958405 -0.76144618
4.6723022 2.4597654 -0.75905639
4.6758952 2.4251349 -0.75711465
4.6986132 2.4004452 -0.75845891
4.7256207 2.3777893 -0.76055002
4.7348051 2.3461158 -0.75965381
4.7402239 2.3126857 -0.75816017
4.7525425 2.282701 -0.75786144
4.7369571 2.2395568 -0.75293249
4.7766104 2.2225404 -0.75726402
4.7955523 2.1956584 -0.75816017
4.8116393 2.1674097 -0.75860828
4.8347931 2.1422493 -0.76025128
4.8514729 2.1141224 -0.7608487
4.8570819 2.0812006 -0.75965381
4.8724942 2.05251 -0.76010191
4.8758597 2.0187938 -0.75860828
4.9055586 1.9959143 -0.76144618
4.8672104 1.9456022 -0.75323123
4.8901024 1.920035 -0.7550236
4.9340844 1.9024367 -0.76025128
4.9493637 1.8735254 -0.7608487
4.9440813 1.8369263 -0.75816017
4.9357495 1.7994475 -0.7550236
4.9224892 1.7604766 -0.75114012
4.938797 1.7322019 -0.75203633
4.9568138 1.7044359 -0.75323123
4.9559336 1.6702026 -0.75143886
5.0064654 1.6530842 -0.75786144
4.974175 1.6086518 -0.75114012
4.9679255 1.57303 -0.74860096
5.003931 1.5507071 -0.75278312
5.0379558 1.527428 -0.75666654
5.031116 1.4917122 -0.75412738
5.0449233 1.462189 -0.75487423
5.0452371 1.4287835 -0.75352997
5.0786886 1.4046472 -0.75741339
5.1139421 1.3806689 -0.76159555
5.1060619 1.3449863 -0.75905639
5.1027255 1.3106813 -0.75726402
5.0655875 1.2680718 -0.75024396
5.091526 1.2414122 -0.75308186
5.1384935 1.2195003 -0.75920576
5.1362448 1.185726 -0.75771213
5.1135135 1.1474835 -0.75308186
5.126255 1.1173482 -0.75397801
5.1688089 1.0934368 -0.75950444
5.1667027 1.0599147 -0.75816017
5.1721392 1.0279999 -0.7580108
5.1501904 0.99083388 -0.75367934
5.1726995 0.96228486 -0.75621849
5.1522293 0.92581189 -0.7521857
5.1617098 0.89485574 -0.75278312
5.184659 0.86609584 -0.75547165
5.1840181 0.83332682 -0.75457549
5.2027149 0.80361265 -0.75666654
5.2016788 0.77080595 -0.75577039
5.1886883 0.7363776 -0.75308186
5.2411213 0.71102923 -0.76040065
5.2208695 0.67568964 -0.75666654
5.2023449 0.64086676 -0.75323123
5.2297502 0.61168528 -0.75681591
5.1891789 0.57469666 -0.75009459
5.1985083 0.5434612 -0.75099075
5.2174897 0.51309836 -0.7533806
5.2402325 0.48288503 -0.75636786
5.2637854 0.45249635 -0.75950444
5.2674484 0.42026827 -0.75965381
5.2620392 0.3873609 -0.75845891
5.270236 0.35546428 -0.75935507
5.2496181 0.32173389 -0.75591975
5.2337222 0.28854099 -0.75323123
5.2640347 0.25781843 -0.75756276
5.2773724 0.22601914 -0.75935507
5.2766838 0.19356149 -0.75905639
5.2530637 0.16043162 -0.75532228
5.2697649 0.1285788 -0.75771213
5.2388191 0.095671035 -0.75293249
5.2462282 0.063606814 -0.75397801
5.2702503 0.031552169 -0.75756276
5.2258496 -0.00076956826 -0.75084144
5.2791395 -0.033182185 -0.75890702
5.2620287 -0.065361246 -0.75636786
5.2338476 -0.097127341 -0.7521857
5.2746687 -0.13027436 -0.75845891
5.3083611 -0.16371107 -0.7636866
5.3141732 -0.19653681 -0.76473218
5.2980494 -0.22849792 -0.7624917
5.2728457 -0.25982863 -0.75890702
5.2543688 -0.29124328 -0.75636786
5.2702475 -0.32457599 -0.75905639
5.2740755 -0.35730985 -0.75995255
5.2786865 -0.39017597 -0.76099807
5.2781639 -0.42271635 -0.76129681
5.3069944 -0.45782098 -0.76607645
5.2479653 -0.48517463 -0.75756276
5.2694893 -0.51979846 -0.76129681
5.2671838 -0.55222499 -0.76144618
5.2568173 -0.58376795 -0.76040065
5.2354598 -0.61393541 -0.75771213
5.2551455 -0.64896166 -0.76129681
5.2540064 -0.68157667 -0.76174492
5.2673607 -0.71620363 -0.76443344
5.2481833 -0.74641842 -0.76219296
5.2405705 -0.77817023 -0.76174492
5.267942 -0.81530887 -0.76667386
5.2384357 -0.84368104 -0.76293981
5.251689 -0.87891269 -0.76577771
5.2578874 -0.91315275 -0.76757002
5.2385616 -0.94294202 -0.76547897
5.2628098 -0.98068923 -0.77010924
5.225625 -1.006969 -0.7653296
5.2445607 -1.0440387 -0.76921302
5.2274022 -1.0740076 -0.76757002
5.2265172 -1.1072931 -0.76846623
5.1974072 -1.1344868 -0.76503086
5.2057829 -1.1698281 -0.76742071
5.2033238 -1.2028627 -0.7681675
5.1929593 -1.2340807 -0.76771939
5.1670394 -1.2614611 -0.76488149
5.2292132 -1.3107063 -0.77578497
5.1913881 -1.3351263 -0.77115476
5.1697135 -1.3634218 -0.76906365
5.1249809 -1.3853045 -0.76338786
5.1335359 -1.421478 -0.76607645
5.11901 -1.4513305 -0.76518023
5.1214027 -1.4860219 -0.7669726
5.0704832 -1.5050292 -0.76040065
5.1056199 -1.5496196 -0.76742071
5.1101799 -1.5853156 -0.76966113
5.0815067 -1.6106619 -0.76667386
5.0527153 -1.6357162 -0.7636866
5.0651135 -1.6741405 -0.76727134
5.0425673 -1.7010765 -0.7653296
5.0208158 -1.728121 -0.76353723
4.9914603 -1.7523408 -0.76055002
4.9592042 -1.7752653 -0.75711465
5.0011597 -1.8249933 -0.76562834
4.9667001 -1.8470241 -0.76189429
5.0440316 -1.9111156 -0.77623308
5.00915 -1.9331243 -0.77249902
5.005476 -1.9670801 -0.77384329
4.961184 -1.9848939 -0.7686156
4.9296818 -2.0074623 -0.76547897
4.9190984 -2.03843 -0.76577771
4.9310961 -2.0789514 -0.7698105
4.9118867 -2.1064396 -0.76876497
4.9052129 -2.139307 -0.7698105
4.933569 -2.1878119 -0.77668118
4.894815 -2.2066586 -0.77249902
4.8632064 -2.2284093 -0.76951176
4.8306203 -2.2494378 -0.76637512
4.8390694 -2.289613 -0.77010924
4.8044343 -2.3094049 -0.76667386
4.7999463 -2.3436151 -0.76831686
4.7872477 -2.3739018 -0.7686156
4.788486 -2.4112391 -0.77130413
4.7709599 -2.4392245 -0.77085602
4.7506385 -2.4657185 -0.76995987
4.7144265 -2.4837556 -0.76637512
4.6781735 -2.5014417 -0.76279044
4.7001028 -2.5503855 -0.76921302
4.6852317 -2.579654 -0.76936239
4.6287479 -2.5856805 -0.76234233
4.6446209 -2.6320777 -0.76786876
4.6155262 -2.6531327 -0.76562834
4.6188045 -2.6928618 -0.76906365
4.621768 -2.7327306 -0.77249902
4.6108484 -2.7645984 -0.77354455
4.5794373 -2.7841027 -0.77100539
4.5782585 -2.8220105 -0.77384329
4.5348663 -2.8337998 -0.76921302
4.4981837 -2.8493979 -0.76577771
4.507237 -2.8940461 -0.77055728
4.5175676 -2.9399908 -0.77563566
4.5027442 -2.9698331 -0.77623308
4.5263557 -3.0254374 -0.78385061
4.4585938 -3.0198731 -0.77488881
4.4244928 -3.0365396 -0.77205092
4.4423037 -3.0890412 -0.77877223
4.4062934 -3.1042778 -0.77563566
4.3726788 -3.120913 -0.77294713
4.3222017 -3.1250832 -0.76712197
4.3109212 -3.1573892 -0.7686156
4.2954364 -3.1867275 -0.76936239
4.2852864 -3.220154 -0.77115476
4.2324066 -3.2212291 -0.76488149
4.2517114 -3.2773292 -0.77234966
4.2089233 -3.2857056 -0.76801813
4.1561112 -3.2857068 -0.76174492
4.145905 -3.3191822 -0.7636866
4.134676 -3.3520329 -0.76547897
4.109446 -3.3735743 -0.76458281
4.1152773 -3.4208541 -0.7698105
4.1138749 -3.4625998 -0.77369392
4.0872841 -3.4832861 -0.77264839
4.0598464 -3.5031307 -0.7714535
4.018918 -3.5110571 -0.76757002
3.9913752 -3.5304086 -0.76637512
3.9445984 -3.5323999 -0.76129681
4.0180607 -3.6428957 -0.78071398
3.9796102 -3.6527684 -0.77742797
3.9353967 -3.6569209 -0.77294713
3.9215248 -3.6891313 -0.77473944
3.8988147 -3.7131238 -0.77473944
3.8738229 -3.7349172 -0.7742914
3.853663 -3.7613795 -0.77488881
3.8227758 -3.7773077 -0.77324581
3.8023224 -3.8034906 -0.77384329
3.7941945 -3.8422313 -0.77712923
3.7822824 -3.877475 -0.77966845
3.7645926 -3.9070191 -0.78101271
3.7534981 -3.943656 -0.78385061
3.7048528 -3.9406731 -0.77847356
3.6866579 -3.9698536 -0.77981782
3.6949735 -4.028111 -0.78713655
3.6761618 -4.057303 -0.78848082
3.6195538 -4.0444098 -0.78131139
3.5684812 -4.0369039 -0.77533692
3.5820029 -4.1026773 -0.78414929
3.5593443 -4.1275749 -0.78474677
3.5339508 -4.1493368 -0.78474677
3.5179694 -4.1822948 -0.78698719
3.4840293 -4.1939125 -0.7850455
3.4638734 -4.2220926 -0.78638977
3.4304345 -4.234046 -0.7845974
3.3765998 -4.2202659 -0.77787608
3.341449 -4.2292652 -0.77563566
3.2509835 -4.167037 -0.75980318
3.1650293 -4.1085615 -0.74486691
3.1403584 -4.1286917 -0.74501628
3.1119983 -4.143929 -0.74426943
3.0953438 -4.1748619 -0.74650991
3.0790105 -4.2065444 -0.7488997
3.0705094 -4.2494049 -0.7533806
3.0495439 -4.2754111 -0.75472486
3.0312197 -4.3053632 -0.75681591
3.0250521 -4.353117 -0.76219296
3.0592251 -4.4604912 -0.77847356
3.0295823 -4.4759026 -0.77787608
2.9888847 -4.4746709 -0.7742914
2.971164 -4.5077887 -0.77697992
2.9596157 -4.5508051 -0.78146076
2.9348397 -4.5738735 -0.78235698
2.9120066 -4.6001506 -0.78385061
2.8685429 -4.5936065 -0.77951908
2.8335638 -4.6001754 -0.77757734
2.8227336 -4.6462107 -0.78265566
2.7621667 -4.6100006 -0.77324581
2.7212582 -4.605577 -0.76951176
2.0311754 -3.4857483 -0.57085925
1.9910408 -3.4655607 -0.56518352
1.9580499 -3.4570601 -0.56159878
1.9358374 -3.4672823 -0.56130004
1.9140496 -3.4782288 -0.56115067
1.8837202 -3.4733903 -0.55831277
1.8507277 -3.4630783 -0.55457872
1.818854 -3.4542429 -0.55114341
1.7926195 -3.4556818 -0.54950041
1.7704828 -3.464855 -0.54920167
1.7420816 -3.4615192 -0.54681188
1.7172989 -3.4650545 -0.54561698
1.6960053 -3.4755266 -0.54561698
1.6750759 -3.4867589 -0.54576635
1.6561846 -3.5023355 -0.54666251
1.6384158 -3.5205009 -0.54800677
1.6176065 -3.5322859 -0.54830551
1.5926552 -3.5349319 -0.54711062
1.5721363 -3.5473502 -0.54755867
1.5527093 -3.5623689 -0.54845488
1.534325 -3.5800097 -0.54979914
1.5169334 -3.6002927 -0.55159146
1.4993505 -3.6204965 -0.55338383
0 -0 -0
0 -0 -0
1.4454571 -3.6806178 -0.55876088
1.4470211 -3.7521584 -0.56891757
1.9025627 -5.026124 -0.77324581
1.8802913 -5.0608773 -0.77697992
0 -0 -0
1.4007571 -3.9159636 -0.589679
1.3639481 -3.8880928 -0.58385384
0 -0 -0
1.3189726 -3.9129715 -0.5851981
1.2998953 -3.9360147 -0.58758789
1.2836251 -3.9683793 -0.59147131
1.2750597 -4.026145 -0.59938759
0 -0 -0
1.2619647 -4.1616707 -0.61835665
1.2541 -4.229063 -0.62776649
1.162667 -4.0106359 -0.59221816
0 -0 -0
1.2197633 -4.4096389 -0.65256071
1.4089955 -5.218955 -0.77802545
1.3714098 -5.2064652 -0.77473944
1.3539387 -5.2712893 -0.78355187
1.3196499 -5.2718239 -0.78235698
1.2982762 -5.3249741 -0.78937703
1.2678595 -5.3424611 -0.79087067
1.2268335 -5.3144908 -0.78534424
1.1954989 -5.3277073 -0.7862404
1.1646795 -5.3436379 -0.78758466
1.1330962 -5.3564882 -0.78848082
1.1015974 -5.3701205 -0.78952634
1.0661232 -5.3641706 -0.78758466
1.0303904 -5.3560462 -0.78534424
0.99407506 -5.3437967 -0.78250635
0.95952088 -5.3400636 -0.78101271
0.92842358 -5.3555932 -0.78250635
0.89521945 -5.3592386 -0.78220761
0.86294574 -5.3685355 -0.78280503
0.83451045 -5.4030466 -0.78728592
0.80496031 -5.4325185 -0.79101998
0.77105695 -5.4334393 -0.79042256
0.73120081 -5.3900561 -0.78310376
0.69444019 -5.366003 -0.77877223
0.66113991 -5.367219 -0.77832419
0.62613112 -5.3534966 -0.77563566
0.5967468 -5.3886871 -0.78041524
0.56377381 -5.3932304 -0.78056461
0.53405029 -5.4310303 -0.78579229
0.49863425 -5.4115586 -0.78235698
0.46330842 -5.3898869 -0.77862287
0.43069851 -5.3985424 -0.77951908
0.3966971 -5.3892498 -0.77772671
0.3678664 -5.4547219 -0.78728592
0.33523366 -5.4706936 -0.78937703
0.29927456 -5.4292068 -0.78280503
0.26499292 -5.4111886 -0.77981782
0.23094371 -5.3929548 -0.77683055
0.19647975 -5.3567219 -0.77115476
0.15776481 -5.1651025 -0.74202901
0.12219768 -5.0058374 -0.71783227
0.09160497 -5.0134134 -0.71887779
0.060794454 -5.0099258 -0.71828032
0.030223992 -5.0398679 -0.72276121
-0.00075526605 -5.1872869 -0.74501628
-0.033806261 -5.3750491 -0.77339518
-0.066861309 -5.3806729 -0.7742914
-0.099318236 -5.350503 -0.7698105
-0.13202327 -5.3448505 -0.76906365
-0.16604407 -5.383472 -0.77503818
-0.19789696 -5.3507328 -0.77025855
-0.2325661 -5.3918958 -0.77668118
-0.26574352 -5.3923421 -0.77697992
-0.29948464 -5.4024572 -0.77877223
-0.32951692 -5.3501859 -0.77115476
-0.36448452 -5.3796315 -0.77593434
-0.397852 -5.3822246 -0.77668118
-0.431265 -5.3846097 -0.77742797
-0.46148461 -5.3493538 -0.77249902
-0.49457267 -5.3493752 -0.77294713
-0.52417618 -5.3137684 -0.76801813
-0.55511791 -5.2947183 -0.76562834
-0.59328145 -5.3423138 -0.77339518
-0.62512708 -5.3307166 -0.77220029
-0.65806675 -5.328743 -0.77249902
-0.68985897 -5.3177414 -0.7714535
-0.72487688 -5.3310437 -0.77414203
-0.75255394 -5.291255 -0.76876497
-0.78515172 -5.2875156 -0.76891428
-0.81470305 -5.2640333 -0.76607645
-0.84415334 -5.2413645 -0.76338786
-0.84835219 -5.0693297 -0.73784685
-0.87114018 -5.016295 -0.73052806
-0.90278012 -5.0157208 -0.7312749
-0.93589652 -5.0227232 -0.73321658
-0.97493929 -5.0596046 -0.73978859
-1.0307035 -5.1776505 -0.75890702
-1.0624536 -5.1712289 -0.75890702
-1.0962151 -5.1742849 -0.76040065
-1.1247772 -5.1529713 -0.75816017
-1.157459 -5.1507964 -0.75890702
-1.1832461 -5.1185508 -0.7550236
-1.2077659 -5.0823359 -0.7505427
-1.243857 -5.0950007 -0.75367934
-1.2753365 -5.0882316 -0.75382864
-1.3040684 -5.070735 -0.75233507
-1.3376809 -5.0721979 -0.75382864
-1.3809147 -5.1087546 -0.7608487
-1.4280798 -5.1573577 -0.7698105
-1.4767026 -5.208425 -0.77922034
-1.4846431 -5.1166549 -0.76622576
-1.4656096 -4.9377851 -0.73948985
-1.499903 -4.9419446 -0.7415809
-1.5410455 -4.9675879 -0.74710733
-1.5858475 -5.0032787 -0.75427675
-1.6220026 -5.010386 -0.75696528
-1.6430894 -4.9712377 -0.75233507
-1.6757753 -4.9676199 -0.7533806
-1.7255449 -5.0133371 -0.76234233
-1.7500467 -4.98493 -0.75950444
-1.7902709 -5.0010929 -0.76383597
-1.8232975 -4.9965153 -0.76488149
-1.8518521 -4.9796739 -0.76398534
-1.8949912 -5.0015016 -0.76936239
-1.9377549 -5.0211415 -0.77444071
-1.9464545 -4.9530253 -0.7653296
-1.9712967 -4.9272194 -0.76308918
-1.9958956 -4.9012957 -0.7608487
-2.0259318 -4.888957 -0.7608487
-2.0651157 -4.8982987 -0.76443344
-2.0994213 -4.8955307 -0.76607645
-2.1298156 -4.8834629 -0.76622576
-2.1597397 -4.8703027 -0.76622576
-2.2054389 -4.8921108 -0.77205092
-2.2317061 -4.8703971 -0.77070665
-2.2552843 -4.8431678 -0.76846623
-2.2739584 -4.8060026 -0.76458281
-2.2875478 -4.7589893 -0.75905639
-2.3036847 -4.7182107 -0.75457549
-2.3435783 -4.7261305 -0.75830954
-2.3511784 -4.6692758 -0.75114012
-2.372129 -4.6397963 -0.74860096
-2.3887055 -4.6023383 -0.74471754
-2.4136724 -4.5814724 -0.74367201
-2.4384732 -4.560473 -0.74262649
-2.4593334 -4.5323901 -0.74038601
-2.4837575 -4.5111523 -0.73934048
-2.5041547 -4.4828806 -0.73710006
-2.5199096 -4.4467874 -0.73351532
-2.5456681 -4.4286704 -0.73306727
-2.5712996 -4.4104047 -0.73261917
-2.5872371 -4.3758221 -0.72933316
-2.6160727 -4.3632565 -0.72993064
-2.6391988 -4.3412089 -0.72888511
-2.6647482 -4.3232503 -0.72858638
-2.6681616 -4.269928 -0.72201443
-2.6985455 -4.2601576 -0.72320932
-2.718756 -4.2343683 -0.72156632
-2.7285008 -4.1927481 -0.71708542
-2.7509081 -4.1709752 -0.71618927
-2.7791972 -4.1581273 -0.71693605
-2.8013308 -4.136085 -0.7160399
-2.8025899 -4.0837679 -0.70961732
-2.7976668 -4.0234752 -0.70170105
-2.80863 -3.9868367 -0.69811636
-2.8468304 -3.9888408 -0.70170105
-2.8718312 -3.9720991 -0.70185041
-2.8832922 -3.9368563 -0.69856447
-2.8897147 -3.8952711 -0.69408357
-2.9242563 -3.8916931 -0.6967721
-2.9217238 -3.8390627 -0.69020015
-2.9367712 -3.8101013 -0.68810904
-2.9600942 -3.7920098 -0.68810904
-2.9790123 -3.7683468 -0.68706352
-2.9878612 -3.7322469 -0.68362814
-3.003854 -3.7053959 -0.6819852
-3.0033135 -3.658623 -0.67645878
-3.0174868 -3.6302431 -0.67451704
-3.0256932 -3.5950201 -0.67123103
-3.0329399 -3.5590813 -0.66779572
-3.0624745 -3.5493863 -0.66958809
-3.0568659 -3.4992595 -0.66331482
-3.0560005 -3.4552605 -0.6582365
-3.0725255 -3.431289 -0.65719098
-3.0782428 -3.3955266 -0.65375561
-3.1057074 -3.383858 -0.65524924
-3.1149669 -3.352427 -0.65271008
-3.1239579 -3.3210101 -0.65017092
-3.1401842 -3.2974839 -0.64927471
-3.1280947 -3.2447057 -0.64225471
-3.1389644 -3.216254 -0.64031297
-3.1704574 -3.2088876 -0.64285213
-3.1837921 -3.1830833 -0.64150786
-3.1814482 -3.1419551 -0.6368776
-3.1603134 -3.083029 -0.62836397
-3.1677761 -3.0526049 -0.62597412
-3.1821487 -3.029021 -0.62507796
-3.1877046 -2.9972503 -0.62238944
-3.1915417 -2.9641807 -0.61940217
-3.2060254 -2.9412007 -0.61865538
-3.2225461 -2.920146 -0.61835665
-3.2300861 -2.8910885 -0.61626554
-3.2247944 -2.8509185 -0.61163533
-3.2690458 -2.8544834 -0.61701238
-3.2483025 -2.8014472 -0.60939485
-3.2759712 -2.7904367 -0.61148596
-3.2748675 -2.7550113 -0.60790122
-3.266607 -2.71402 -0.60297227
-3.2770817 -2.6889095 -0.60177737
-3.2965925 -2.6712401 -0.60237479
-3.3098321 -2.6484921 -0.60177737
-3.2965333 -2.6048467 -0.59610158
-3.3171327 -2.5882187 -0.59699774
-3.316499 -2.5551484 -0.59386116
-3.3289659 -2.5323567 -0.59326369
