# .PCD v0.7 - Point Cloud Data file format
VERSION 0.7
FIELDS x y z
SIZE 4 4 4
TYPE F F F
COUNT 1 1 1
WIDTH 1632
HEIGHT 1
VIEWPOINT 0 0 0 1 0 0 0
POINTS 1632
DATA ascii
-0 -0 -0
-0 -0 -0
-0 -0 -0
-0 -0 -0
-0 -0 -0
-0 -0 -0
-0 -0 -0
-0 -0 -0
-0 -0 -0
-0 -0 -0
-0 -0 -0
-0 -0 -0
-0 -0 -0
-0 -0 -0
-0 -0 -0
-0 -0 -0
-0 -0 -0
-0 -0 -0
-0 -0 -0
-0 -0 -0
-0 -0 -0
-0 -0 -0
-0 -0 -0
-0 -0 -0
-0 0 -0
-0 0 -0
-0 0 -0
-0 0 -0
-0 0 -0
-0 0 -0
-0 0 -0
-0 0 -0
-0 0 -0
-0 0 -0
-0 0 -0
-0 0 -0
-0.27575225 0.039780673 0.0094815325
-0 0 -0
-0 0 -0
-0.27987942 0.045670938 0.0089762509
-0 0 -0
-0 0 -0
-0.28192547 0.051361747 0.0086730821
-0 0 -0
-0.27737105 0.054040406 0.0090773078
-0 0 -0
-0.2737672 0.05682138 0.0093804765
-0 0 -0
-0 0 -0
-0 0 -0
-0 0 -0
-0.26706296 0.064012401 0.0098857582
-0 0 -0
-0.26625732 0.067284852 0.0098857582
-0 0 -0
-0 0 -0
-0 0 -0
-0.28175446 0.078684315 0.0080667445
-0.27648905 0.079025239 0.0085720262
-0 0 -0
-0 0 -0
-0.26833627 0.082037359 0.0092794197
-0 0 -0
-0.2644698 0.0844047 0.0095825894
-0.26394695 0.086025871 0.0095825894
-0.26624215 0.088597953 0.0092794197
-0.2666342 0.090553746 0.0091783637
-0.26795095 0.092847265 0.0089762509
-0.26737621 0.094489634 0.0089762509
-0.26772597 0.096469536 0.0088751949
-0 0 -0
-0.26466134 0.099042617 0.0090773078
-0.2631205 0.10030645 0.0091783637
-0.26157415 0.10155512 0.0092794197
-0.26094609 0.10315819 0.0092794197
-0.262151 0.1055079 0.0090773078
-0 0 -0
-0.26266995 0.10949003 0.0088751949
-0.26382187 0.11188399 0.0086730821
-0.26039466 0.11230739 0.0089762509
-0.25970066 0.11390303 0.0089762509
-0.25718296 0.11467654 0.0091783637
-0.25557002 0.11583795 0.0092794197
-0.25214884 0.11614387 0.0095825894
-0.25502858 0.11939101 0.0091783637
-0.25877443 0.12310885 0.0086730821
-0.25980216 0.12556744 0.0084709693
-0.26348326 0.1293693 0.0079656886
-0.26712734 0.133221 0.0074604065
-0.26630488 0.13485755 0.0074604065
-0.26812142 0.1378641 0.0071572377
-0.26462993 0.13811536 0.0074604065
-0.26202285 0.13879819 0.0076625193
-0.2629151 0.14135239 0.0074604065
-0.25768536 0.1405635 0.0079656886
-0.25681806 0.14214198 0.0079656886
-0.25507551 0.14322457 0.0080667445
-0.25246689 0.1437953 0.0082688574
-0.25415817 0.14684509 0.0079656886
-0.25325236 0.14840181 0.0079656886
-0.25233701 0.14995295 0.0079656886
-0.25821283 0.15563335 0.0071572377
-0.25894681 0.15825891 0.0069551254
-0.25965822 0.16089933 0.0067530125
-0.25950649 0.16302195 0.0066519561
-0.25850132 0.16461118 0.0066519561
-0.25748643 0.16619422 0.0066519561
-0.26061425 0.17051001 0.006146675
-0.26039019 0.17265879 0.0060456186
-0.25767851 0.17313735 0.0062477309
-0.25661129 0.17471518 0.0062477309
-0.25471765 0.17571841 0.0063487873
-0.25444794 0.17785104 0.0062477309
-0.25497139 0.18056495 0.0060456186
-0.25305247 0.18154308 0.006146675
-0.2543416 0.18485604 0.0058435057
-0.25320256 0.18641317 0.0058435057
-0.24887267 0.18557249 0.0062477309
-0.24772933 0.18709604 0.0062477309
-0.24500079 0.18739773 0.0064498438
-0.24070957 0.18644856 0.006854069
-0.24112186 0.1891561 0.0066519561
-0.24306315 0.19311929 0.0062477309
-0.24419197 0.19648676 0.0059445621
-0.24528855 0.19987528 0.0056413934
-0.24635264 0.20328459 0.0053382246
-0.24433956 0.20415166 0.0054392805
-0.24989691 0.21145515 0.0045297742
-0.24784154 0.21233453 0.0046308301
-0.2457848 0.21319668 0.0047318866
-0 0 -0
-0 0 -0
-0.24624108 0.22169425 0.004125549
-0 0 -0
-0 0 -0
-0 0 -0
-0 0 -0
-0 0 -0
-0 0 -0
-0 0 -0
-0 0 -0
-0 0 -0
-0 0 -0
-0 0 -0
-0 0 -0
-0 0 -0
-0 0 -0
-0 0 -0
-0 0 -0
-0 0 -0
-0 0 -0
-0 0 -0
-0 0 -0
-0 0 -0
-0 0 -0
-0 0 -0
-0 0 -0
-0 0 -0
-0 0 -0
-0 0 -0
-0 0 -0
-0 0 -0
-0 0 -0
-0 0 -0
-0 0 -0
-4.3801804 5.9828525 -0.71539527
-4.3544583 6.0249381 -0.71731538
-4.3509135 6.0985222 -0.7231766
-4.3420467 6.1657796 -0.72822946
-4.3132157 6.2053781 -0.72984636
-4.3026299 6.2719297 -0.73479807
-4.2969651 6.3468232 -0.74076045
-4.274518 6.3978891 -0.74379212
-4.2625546 6.4655313 -0.74884492
-4.2396159 6.5174193 -0.75197768
-4.2226477 6.5793166 -0.7563231
-4.2210412 6.6664686 -0.76370019
-4.2016606 6.7268424 -0.76784348
-4.1884804 6.7982402 -0.77330053
-4.1673493 6.8578234 -0.7773428
-4.1487122 6.922523 -0.78199136
-4.1415825 7.0078077 -0.7890653
-4.126049 7.0803685 -0.79462343
-4.1082931 7.150413 -0.79987836
-4.1001267 7.2386847 -0.80725545
-4.0813327 7.3097486 -0.81261146
-4.06182 7.3808527 -0.81796741
-4.0581837 7.4826016 -0.82686037
-4.0337605 7.5477262 -0.83150899
-4.0008116 7.5978651 -0.83443958
-3.9898412 7.6911592 -0.84232199
-3.9692762 7.7677684 -0.8482843
-3.9836912 7.9155121 -0.86233115
-3.9575729 7.9852715 -0.86748499
-3.9490678 8.0925608 -0.87688327
-3.9273341 8.1749325 -0.88345194
-3.9043119 8.2564411 -0.88991952
-3.8804362 8.3379726 -0.8963871
-3.8424542 8.3905725 -0.89962089
-3.8117349 8.4602547 -0.90477479
-3.759752 8.4834833 -0.90477479
-3.7116015 8.5155144 -0.90578532
-3.6710353 8.5655622 -0.90881705
-3.6323113 8.6209335 -0.91245508
-3.5880983 8.6642008 -0.91477937
-3.539742 8.6980333 -0.91609311
-3.4911051 8.7315989 -0.9174068
-3.426193 8.7241478 -0.9142741
-3.3958597 8.8053446 -0.92084277
-3.3470497 8.8399725 -0.92235857
-3.2955172 8.8678045 -0.92316705
-3.2447915 8.89814 -0.92427868
-3.2072165 8.9656582 -0.92943251
-3.1577406 9.0011292 -0.9311505
-3.1092439 9.0400925 -0.93327266
-3.0540342 9.0599432 -0.93337375
-2.995579 9.0700092 -0.93246424
-2.9414003 9.0929518 -0.93296951
-2.8945599 9.1392832 -0.93600118
-2.8404889 9.1635246 -0.93670857
-2.7830548 9.1769724 -0.93630433
-2.7258453 9.1910143 -0.93600118
-2.6727219 9.2190332 -0.93721384
-2.6128521 9.223773 -0.93600118
-2.551434 9.2223711 -0.93418217
-2.4958358 9.2416945 -0.93458641
-2.4380693 9.2529869 -0.93418217
-2.3762989 9.2484999 -0.93216103
-2.3112938 9.230093 -0.92872512
-2.2524948 9.2354021 -0.92781562
-2.1824634 9.1929045 -0.92195433
-2.1201985 9.1809187 -0.9193269
-2.0572917 9.1646328 -0.91629523
-1.9995371 9.1702785 -0.91558778
-1.9440551 9.1862688 -0.91599202
-1.888852 9.2038717 -0.91659838
-1.8307914 9.2074814 -0.9157899
-1.77163 9.2048645 -0.91437513
-1.7098414 9.1871967 -0.91144449
-1.6518544 9.1887016 -0.91053498
-1.5927242 9.1829805 -0.90891808
-1.5311044 9.1611786 -0.90568429
-1.4685496 9.1311102 -0.90164202
-1.4073325 9.1065197 -0.89820611
-1.3517212 9.116951 -0.89840823
-1.2950563 9.1201487 -0.89790297
-1.2315847 9.0727158 -0.8922438
-1.1702759 9.0366888 -0.88779736
-1.1111581 9.0140762 -0.88476562
-1.0530552 8.9970093 -0.88234031
-0.99520361 8.9795685 -0.87991494
-0.93853641 8.970664 -0.87839907
-0.881432 8.9554615 -0.87627691
-0.82290721 8.9220648 -0.87233573
-0.76371849 8.8754015 -0.86708081
-0.70813853 8.8660364 -0.86566597
-0.65335929 8.8652534 -0.8651607
-0.59694368 8.8393173 -0.86212903
-0.54196566 8.8308973 -0.86091638
-0.4880437 8.8390236 -0.86142164
-0.43297273 8.8249588 -0.85970366
-0.37860304 8.8224792 -0.85919839
-0.32384297 8.8077345 -0.85748047
-0.26861107 8.7707739 -0.85353923
-0.21369964 8.7275 -0.84899169
-0.15974611 8.7067633 -0.8467685
-0.10627135 8.7036009 -0.84636426
-0.052805968 8.6941404 -0.84535366
0.00053481897 8.6614695 -0.84201884
0.05347269 8.6284723 -0.83868396
0.10630336 8.619029 -0.83777446
0.15907568 8.6122465 -0.8371681
0.21147344 8.5932055 -0.83534908
0.26336712 8.5648975 -0.83262062
0.31551042 8.5521841 -0.83150899
0.36712143 8.5302076 -0.82948786
0.41764146 8.4910288 -0.82574874
0.46747416 8.4475784 -0.82160544
0.51789111 8.4217129 -0.81928116
0.56760448 8.3895912 -0.81635052
0.61775047 8.3680906 -0.81453151
0.66749507 8.3443089 -0.81251037
0.7164579 8.3142853 -0.80988294
0.76388621 8.2710972 -0.8059417
0.81169105 8.2365522 -0.80291003
0.86055374 8.2155857 -0.80129313
0.90864056 8.1893854 -0.79917097
0.81513524 6.9584064 -0.67386115
0.857328 6.9493246 -0.67345691
0.95884776 7.3977728 -0.71994281
0.97887945 7.2054334 -0.70084316
0.96828127 6.8141708 -0.66133016
0.98083949 6.6112847 -0.64111888
1.0206261 6.6002259 -0.64061362
1.0603139 6.5889282 -0.64010835
1.0976019 6.5636549 -0.6381883
1.1342793 6.5362124 -0.63606608
1.1592023 6.4449239 -0.62737525
1.1861475 6.3702054 -0.6204024
1.2176803 6.3237314 -0.61636013
1.2372251 6.2195439 -0.60635555
1.2661519 6.1670074 -0.60170698
1.2950996 6.1172719 -0.59736151
1.3277293 6.0868545 -0.59503722
1.3600346 6.0562677 -0.59271294
1.388877 6.0119443 -0.58897388
1.4135461 5.9520097 -0.58361787
1.4370604 5.8900676 -0.57805979
1.4518846 5.7962179 -0.56916684
1.4814739 5.7640758 -0.56674147
1.5092013 5.7260175 -0.5637098
1.5440474 5.7156892 -0.56360871
1.5782925 5.7032313 -0.56330556
1.6070147 5.6714253 -0.56098127
1.6365153 5.6433043 -0.55906117
1.6691291 5.6264806 -0.55835378
1.7010204 5.6075649 -0.55744427
1.7404076 5.6131754 -0.55916226
1.7673005 5.5786819 -0.55663586
1.7904649 5.5336585 -0.55299783
1.8140804 5.4913964 -0.54966295
1.8308841 5.4302006 -0.54430699
1.8583398 5.4019313 -0.54248798
1.8960648 5.4035687 -0.54390275
1.9295201 5.3927698 -0.54400378
1.9697361 5.4004555 -0.54612601
1.9997143 5.3798752 -0.5452165
2.0302191 5.360992 -0.54450911
2.0634336 5.3493619 -0.54461014
2.099493 5.3449335 -0.54551965
2.1255968 5.3153243 -0.54370064
2.1412842 5.2607193 -0.5391531
2.1655242 5.2281809 -0.53703094
2.1929245 5.2037945 -0.53581822
2.2306955 5.2039557 -0.53733408
2.2689483 5.204761 -0.53895098
2.3044715 5.198926 -0.53986049
2.3408263 5.194665 -0.54097211
2.3809457 5.1982927 -0.54299325
2.4157372 5.1898985 -0.54370064
2.4373231 5.1533957 -0.54127526
2.4684668 5.1374469 -0.54117423
2.4999433 5.1222038 -0.54117423
2.5330935 5.1103334 -0.54157847
2.5644021 5.0946941 -0.54157847
2.6064847 5.1001229 -0.54400378
2.6569803 5.12112 -0.54824817
2.6967006 5.120564 -0.55006719
2.7322915 5.1118164 -0.55097669
2.7678761 5.1028252 -0.5518862
2.7962551 5.0805168 -0.55127984
2.8288317 5.0658693 -0.55158305
2.8583903 5.0458198 -0.55127984
2.8907847 5.0307736 -0.55158305
2.916086 5.0034876 -0.55047143
2.9335659 4.9632349 -0.54784393
2.9706156 4.9562335 -0.54915768
3.0035551 4.9421635 -0.54966295
3.0359113 4.9270287 -0.55006719
3.0703039 4.9150572 -0.55087566
3.1009367 4.896966 -0.55097669
3.1293128 4.8753357 -0.55067354
3.1607964 4.8585439 -0.55097669
3.1960266 4.847363 -0.55198723
3.2229447 4.8235259 -0.55148196
3.2524807 4.8036594 -0.55148196
3.2937171 4.8008375 -0.55360413
3.3424251 4.8083081 -0.5570401
3.4028084 4.8316264 -0.56249714
3.4433727 4.8260417 -0.56441718
3.4822474 4.8177218 -0.56603408
3.5170338 4.8034878 -0.56694359
3.5458484 4.7810183 -0.56684256
3.5781059 4.7631478 -0.56734782
3.6060596 4.7395201 -0.56714571
3.6314282 4.7125769 -0.56653935
3.6688471 4.7011847 -0.56795412
3.7074966 4.6910715 -0.56957108
3.7629485 4.7016292 -0.57391649
3.8055108 4.6954527 -0.57613969
3.8317249 4.6689386 -0.57573551
3.8647528 4.6506948 -0.5764429
3.9156401 4.653533 -0.57997984
3.9673524 4.6566777 -0.58361787
4.0088501 4.6473112 -0.585639
4.0444903 4.630867 -0.58675063
4.0853529 4.6201215 -0.58867067
4.1262355 4.6090484 -0.59059078
4.163126 4.593225 -0.59190452
4.1972861 4.5741901 -0.59281403
4.2374644 4.5614681 -0.59463298
4.2844615 4.5556703 -0.59746259
4.3301735 4.5480261 -0.60009003
4.3724999 4.5364108 -0.60221225
4.4176264 4.5272946 -0.60473865
4.4572101 4.5121336 -0.60645658
4.5087352 4.5086136 -0.60989249
4.5292354 4.4738731 -0.60888195
4.5566015 4.4459982 -0.60888195
4.5988412 4.4324517 -0.61100411
4.6554995 4.432271 -0.61514741
4.708703 4.4281535 -0.61878544
4.7459912 4.4086556 -0.62020028
4.7942152 4.3989539 -0.62313086
4.8624043 4.4068608 -0.62879002
4.9153008 4.4001632 -0.63232702
4.9563708 4.3824396 -0.63424706
4.9929104 4.3604512 -0.63556081
5.0655327 4.3693638 -0.64172524
5.1217871 4.3633566 -0.64566642
5.1652141 4.3459363 -0.64788967
5.2063236 4.3262396 -0.64980978
5.2581534 4.3150358 -0.6531446
5.2961268 4.2920847 -0.65466046
5.3542142 4.2849894 -0.65880376
5.3928962 4.2619238 -0.66042066
5.4848375 4.2801552 -0.66890937
5.5251837 4.2573481 -0.67072839
5.5717912 4.2390246 -0.67335588
5.6112213 4.2149129 -0.6750738
5.6529622 4.1922536 -0.67709494
5.6833959 4.1610141 -0.67770129
5.7265615 4.1388812 -0.67992455
5.8287978 4.1585455 -0.68952489
5.8908124 4.1484737 -0.69407243
5.9300451 4.1219015 -0.69579035
5.9814806 4.1034431 -0.69902414
6.0848184 4.1196389 -0.70862454
6.1480379 4.1076436 -0.71327311
6.2179837 4.0994067 -0.71873015
6.214663 4.0427361 -0.71529424
6.2720084 4.0254798 -0.71923542
6.3571157 4.0252304 -0.72651148
6.3234668 3.9497902 -0.71953857
6.355207 3.9156115 -0.72044808
6.3765621 3.8749933 -0.72014493
6.4847093 3.8864136 -0.73014951
6.5564008 3.8748903 -0.73580867
6.6195974 3.8576245 -0.74045724
6.7466669 3.8763957 -0.75258398
6.8404493 3.8746326 -0.76076955
6.9309864 3.8699234 -0.76855087
7.0757647 3.8939795 -0.78259772
7.1624961 3.8846314 -0.78987378
7.2169094 3.8570185 -0.79341078
7.2518845 3.8186882 -0.79472446
7.28931 3.7814476 -0.79634136
7.3451562 3.7533956 -0.80008048
7.4027095 3.7256942 -0.80402166
7.4040351 3.6696017 -0.80159628
7.4058466 3.6140699 -0.799272
7.4189143 3.5642533 -0.79826146
7.4460411 3.5212159 -0.79886776
7.4575844 3.4708452 -0.7977562
7.4588394 3.4159105 -0.79553294
7.4714947 3.3664024 -0.79462343
7.4983773 3.3233159 -0.79533082
7.5168033 3.2764492 -0.7951287
7.5193906 3.2228212 -0.79320866
7.5335226 3.1743054 -0.7926023
7.561131 3.1314456 -0.79351181
7.5774384 3.0838678 -0.79320866
7.5925226 3.0358386 -0.79280442
7.5934119 2.9822869 -0.79088432
7.6106396 2.9352806 -0.79078329
7.6275764 2.8881752 -0.79068226
7.6442218 2.8409724 -0.79058117
7.6605749 2.7936742 -0.79048014
7.6756988 2.7459471 -0.79027802
7.6848927 2.6961644 -0.78946954
7.6947055 2.6466959 -0.78876215
7.7126861 2.6000676 -0.78896427
7.7322736 2.553942 -0.78936851
7.7780905 2.5162444 -0.7926023
7.8019199 2.471174 -0.79351181
7.8093333 2.4209003 -0.79270333
7.8145199 2.3700514 -0.79169279
7.8231921 2.3203611 -0.79108644
7.8325043 2.2709308 -0.79058117
7.8424621 2.2217445 -0.79017693
7.8473167 2.171196 -0.78926742
7.8499255 2.1201527 -0.78815579
7.861825 2.0716932 -0.78805476
7.8772793 2.0241575 -0.78835791
7.8779697 1.9728867 -0.78714526
7.8812275 1.9223907 -0.78623575
7.901587 1.8760633 -0.78714526
7.9168272 1.8284397 -0.7875495
7.9269261 1.7796108 -0.78744841
7.9376965 1.7309386 -0.78744841
7.9540081 1.6834364 -0.78805476
7.9680862 1.6353993 -0.788459
7.9633336 1.5835688 -0.78694314
7.9680157 1.5337373 -0.78643787
7.9743419 1.4842719 -0.78613472
7.986237 1.435842 -0.78643787
8.0017586 1.3880017 -0.78714526
8.0140495 1.3395332 -0.7875495
8.0152416 1.2892298 -0.78684211
8.0141525 1.2386584 -0.7859326
8.0255384 1.1900444 -0.78633678
8.0287495 1.1402192 -0.7859326
8.0119343 1.0877255 -0.78350723
8.0006971 1.036247 -0.78168821
8.0019684 0.98652828 -0.78118294
8.0375156 0.94087642 -0.78421462
8.0421486 0.89143199 -0.78411359
8.0415297 0.84144914 -0.78350723
8.0396109 0.79141015 -0.78279984
8.0324268 0.74097019 -0.78158718
8.0338488 0.69141471 -0.78128397
8.0478573 0.64289773 -0.78229457
8.0576038 0.59394288 -0.78290087
8.062089 0.54455805 -0.78300196
8.044425 0.4938027 -0.7808798
8.0314093 0.44355828 -0.77926284
8.0349731 0.39431873 -0.77936393
8.0471811 0.34543487 -0.78037447
8.0501442 0.29608822 -0.78047556
8.0707026 0.24726401 -0.7823956
8.0462093 0.19710873 -0.77976817
8.0512457 0.14780688 -0.78017235
8.052001 0.098402582 -0.78017235
8.055438 0.049012307 -0.78047556
8.0575771 -0.00041624493 -0.78067768
8.0454845 -0.049781002 -0.77946496
8.0539808 -0.099257864 -0.78037447
8.0830612 -0.14922953 -0.7834062
8.0909443 -0.19904494 -0.78431571
8.0816154 -0.24844059 -0.78350723
8.0620432 -0.29736114 -0.78168821
8.0451574 -0.3461796 -0.78017235
8.042882 -0.39553723 -0.78017235
8.0472574 -0.44526574 -0.7808798
8.0433807 -0.49457321 -0.78077871
8.0342388 -0.54351342 -0.78017235
8.0327377 -0.59294707 -0.78037447
8.0319233 -0.64246231 -0.78067768
8.0278301 -0.69173312 -0.78067768
8.0095654 -0.73969507 -0.77926284
7.9791336 -0.78628647 -0.77663541
7.970201 -0.83481562 -0.77623117
7.9649286 -0.88370413 -0.77623117
7.9741783 -0.9342981 -0.77774704
7.9742193 -0.98394102 -0.77835333
7.9709921 -1.0332355 -0.77865654
7.9585872 -1.0813206 -0.77805018
7.9458928 -1.1292925 -0.77744383
7.9486547 -1.1794881 -0.77845442
7.9491334 -1.2294555 -0.77926284
7.9561729 -1.2805809 -0.78077871
7.9854527 -1.3356168 -0.78461885
7.9251561 -1.3755648 -0.77926284
7.9332123 -1.4271636 -0.78098083
7.9350643 -1.4778193 -0.78209245
7.9385467 -1.5289279 -0.7834062
7.9309678 -1.5779977 -0.78360832
7.9026198 -1.6228265 -0.78168821
7.8964071 -1.6721104 -0.78209245
7.8791943 -1.7190449 -0.78138506
7.860733 -1.7656131 -0.78057659
7.8419971 -1.8120193 -0.77976817
7.8346028 -1.8610231 -0.78017235
7.8375335 -1.9126003 -0.78168821
7.8169651 -1.9584771 -0.78077871
7.804801 -2.0064044 -0.78077871
7.8096585 -2.0588233 -0.78259772
7.801681 -2.1080019 -0.78310299
7.7914758 -2.1566291 -0.7834062
7.7666106 -2.2011392 -0.78219348
7.7567806 -2.249862 -0.78259772
7.7437835 -2.2976973 -0.78269881
7.7285872 -2.3448801 -0.78259772
7.7064524 -2.389899 -0.7817893
7.6793141 -2.4332316 -0.78047556
7.6566677 -2.4778535 -0.77966708
7.643209 -2.5254118 -0.7798692
7.6247411 -2.5713079 -0.77956605
7.5928288 -2.6125391 -0.77784806
7.571023 -2.6571009 -0.77724177
7.5583239 -2.7048473 -0.77764595
7.5453229 -2.7525377 -0.77805018
7.5320215 -2.8001704 -0.77845442
7.502604 -2.8417504 -0.77714068
7.4757447 -2.8841498 -0.77613014
7.4597592 -2.9306936 -0.77633226
7.4370179 -2.9745626 -0.77582693
7.4306045 -3.0250177 -0.77714068
7.4137416 -3.0713158 -0.7773428
7.3865061 -3.1132691 -0.77643329
7.3718362 -3.1604941 -0.77693856
7.3623362 -3.2100425 -0.77805018
7.3452291 -3.2563665 -0.77835333
7.3278313 -3.3026016 -0.77865654
7.3146644 -3.3508179 -0.77946496
7.3138075 -3.4048772 -0.78168821
7.3062673 -3.4560728 -0.78320408
7.29389 -3.5051486 -0.78421462
7.2829733 -3.5550759 -0.78542727
7.2735009 -3.6058846 -0.78684211
7.242353 -3.6459713 -0.78583151
7.2118731 -3.6862645 -0.784922
7.1767569 -3.7240295 -0.78350723
7.1405687 -3.7610385 -0.78199136
7.1559591 -3.8254244 -0.78643787
7.1375985 -3.8721077 -0.78704423
7.1267776 -3.9230285 -0.78856003
7.1190743 -3.975903 -0.79048014
7.0997376 -4.0224533 -0.79108644
7.0775104 -4.0674281 -0.79138964
7.0541387 -4.1117806 -0.79159176
7.034771 -4.1585317 -0.79229915
7.0133886 -4.2041759 -0.79280442
6.9908605 -4.2491975 -0.79320866
6.9688907 -4.2946229 -0.79371393
6.9466267 -4.3399386 -0.7942192
6.9240689 -4.3851428 -0.79472446
6.90624 -4.4334588 -0.79583609
6.8847437 -4.4795504 -0.79654348
6.8629417 -4.5255446 -0.79725087
6.8366985 -4.5686755 -0.79745299
6.8019471 -4.6060748 -0.79664457
6.764534 -4.6415315 -0.79553294
6.7285757 -4.6778383 -0.79462343
6.6761608 -4.7024183 -0.79169279
6.666616 -4.7571659 -0.79411817
6.642138 -4.8014798 -0.79472446
6.6149597 -4.8439083 -0.79502767
6.6258616 -4.914639 -0.80018151
6.6138735 -4.9689488 -0.80250579
6.5998845 -5.0220914 -0.80462801
6.5815525 -5.0722113 -0.80624491
6.5691266 -5.1271935 -0.80867022
6.5406647 -5.1698723 -0.80907446
6.5429912 -5.2372675 -0.81352097
6.5107327 -5.2773161 -0.81352097
6.4874563 -5.3247414 -0.81473362
6.4523668 -5.3625393 -0.81443048
6.4223862 -5.404592 -0.81483465
6.3936462 -5.4477696 -0.81544101
6.3548265 -5.482348 -0.81473362
6.3180709 -5.5186186 -0.81432939
6.2788744 -5.5526676 -0.813622
6.2513556 -5.5970631 -0.81453151
6.2264762 -5.6440029 -0.81584525
6.2012563 -5.6908474 -0.817159
6.1662211 -5.7287908 -0.817159
6.11936 -5.7556105 -0.8155421
6.0882516 -5.7971668 -0.8161484
6.0597281 -5.84132 -0.817159
6.0251961 -5.8797817 -0.81736112
5.9904203 -5.9180393 -0.81756318
5.9617319 -5.9624248 -0.8186748
5.9208407 -5.9946451 -0.8180685
5.8776951 -6.0244522 -0.817159
5.8378577 -6.0575376 -0.81675476
5.7992082 -6.0918026 -0.81655264
5.7562685 -6.1214724 -0.81574416
5.7206306 -6.158864 -0.81604737
5.6800427 -6.1909165 -0.81564313
5.6346016 -6.2175422 -0.81453151
5.5897107 -6.2445846 -0.81352097
5.5453596 -6.2720561 -0.81261146
5.503499 -6.3022161 -0.81210619
5.4634266 -6.3343596 -0.81190407
5.4212317 -6.363976 -0.81139874
2.9748697 -3.5351083 -0.43152815
2.9149804 -3.5073776 -0.42546478
2.8896189 -3.5205827 -0.42485842
2.8529322 -3.5196939 -0.42243308
2.8045571 -3.5037277 -0.41808766
2.7682045 -3.5021343 -0.41566232
2.7301416 -3.4978743 -0.4129338
2.6843436 -3.4830334 -0.40889153
2.6490695 -3.4812253 -0.40656725
2.6139195 -3.4791162 -0.40424296
2.571193 -3.4663179 -0.40060493
2.5363615 -3.4635639 -0.39828062
2.5034089 -3.4629333 -0.39625949
2.4780698 -3.4725587 -0.3955521
2.4423983 -3.4673607 -0.3930257
2.4068847 -3.4618564 -0.39049929
2.3315809 -3.3977938 -0.38079789
2.2878258 -3.3782556 -0.37665457
2.2670541 -3.3922298 -0.37665457
2.2434597 -3.4019229 -0.3761493
2.2247131 -3.4189606 -0.37655354
2.2187357 -3.4559927 -0.37938309
2.1953599 -3.4661789 -0.37897888
2.1656199 -3.4660821 -0.37736198
2.1432681 -3.4776106 -0.37715986
2.1131084 -3.4762411 -0.37544191
2.0825355 -3.4737797 -0.37362289
2.0495422 -3.4667916 -0.37129858
2.0167136 -3.4595301 -0.3689743
1.9904933 -3.4632123 -0.36796373
1.9603822 -3.4597774 -0.36614472
1.9308735 -3.4569728 -0.36442676
1.9033915 -3.4574234 -0.36311305
1.8773994 -3.4602914 -0.36210248
1.846756 -3.4541957 -0.36008134
1.823673 -3.4619408 -0.35967711
1.8001065 -3.4686494 -0.35917184
1.7742636 -3.4707696 -0.35816127
1.749804 -3.4753697 -0.35745388
1.7249132 -3.4789093 -0.35664544
1.6956831 -3.4733326 -0.35482642
1.6721857 -3.4791877 -0.35432115
1.6491055 -3.4857848 -0.35391691
1.6297845 -3.5003481 -0.35442218
1.6086901 -3.5111871 -0.35452324
1.5850729 -3.5164561 -0.35401797
1.5570186 -3.5115619 -0.35240108
1.5358402 -3.5219617 -0.35250214
1.5208614 -3.5468652 -0.35422009
1.5017729 -3.5625484 -0.35492748
1.478363 -3.5680192 -0.35452324
0 -0 -0
0 -0 -0
1.424798 -3.6261129 -0.35795915
1.4061005 -3.6440699 -0.35896972
1.3935752 -3.6786821 -0.3617993
1.3792918 -3.7095463 -0.36422464
0 -0 -0
1.3547699 -3.7852108 -0.37059119
0 -0 -0
0 -0 -0
0 -0 -0
1.2923453 -3.9108465 -0.38059577
1.2775071 -3.9471014 -0.38362747
1.2757846 -4.0260019 -0.39120668
1.2937526 -4.1715493 -0.40585986
1.2721726 -4.1927385 -0.40727463
1.2693263 -4.2777271 -0.4154602
1.2815448 -4.4182591 -0.42950702
1.2655233 -4.4652867 -0.43365034
1.2404875 -4.4815979 -0.43455985
1.2643011 -4.6793046 -0.45456898
1.2505145 -4.7437363 -0.46053129
1.2387065 -4.8187733 -0.46760523
1.2475216 -4.9797359 -0.48367319
1.2633603 -5.1777124 -0.50358129
1.2522384 -5.2724872 -0.51267636
1.2261281 -5.3072147 -0.51550591
1.2288225 -5.4718995 -0.53187704
1.2250922 -5.6163979 -0.54612601
1.2288975 -5.8048525 -0.56492245
1.6537887 -8.0577488 -0.7977562
1.6147867 -8.1204376 -0.80321324
1.3129443 -6.8200712 -0.66769671
1.2694353 -6.8191957 -0.66678721
1.2307359 -6.8444824 -0.66860622
1.1933029 -6.8783722 -0.67133474
1.1548446 -6.9081345 -0.67365903
1.1234851 -6.98385 -0.68073297
1.2767657 -8.2609434 -0.81129771
1.2266366 -8.2725582 -0.81170195
1.1748759 -8.2730341 -0.81099457
1.1215512 -8.2613554 -0.80907446
1.0714775 -8.273015 -0.80957973
1.022519 -8.2942448 -0.8110956
0.97079843 -8.2934465 -0.81038821
0.91868842 -8.2883692 -0.80927658
0.86760789 -8.2918711 -0.80907446
0.81574035 -8.287138 -0.80806392
0.76451111 -8.2880239 -0.80765969
0.713983 -8.296524 -0.80806392
0.6636166 -8.3076906 -0.80877131
0.61219114 -8.3056536 -0.80816495
0.56054807 -8.2993269 -0.80715442
0.50894487 -8.291687 -0.80604279
0.45740181 -8.282733 -0.80483013
0.40705752 -8.2953205 -0.80584067
0.35585308 -8.2907047 -0.80513328
0.2009134 -5.4522634 -0.51641542
0.14886744 -4.8438148 -0.45446792
0.11909512 -4.842648 -0.4542658
0.087947689 -4.7647052 -0.44628236
0.058506124 -4.7482433 -0.4445644
0.029110348 -4.7047386 -0.44011793
0.00024870728 -4.6710029 -0.43668202
-0.028241938 -4.6440554 -0.43395349
-0.05666237 -4.637826 -0.43334717
-0.085118465 -4.6373906 -0.43334717
-0.11349753 -4.6337976 -0.43304399
-0.14201997 -4.6359968 -0.43334717
-0.17024235 -4.6290731 -0.43274084
-0.19855678 -4.6259537 -0.43253872
-0.22634923 -4.6127238 -0.43132603
-0.25426236 -4.6042948 -0.43061864
-0.2827538 -4.6066203 -0.43102285
-0.31195629 -4.6186948 -0.43243766
-0.34168446 -4.6355448 -0.43435773
-0.37028012 -4.6353445 -0.43455985
-0.40025505 -4.6508269 -0.43637884
-0.43043384 -4.6661153 -0.43819785
-0.45671144 -4.6396246 -0.43577251
-0.48392567 -4.6248612 -0.43455985
-0.51229417 -4.6218052 -0.43455985
-0.53994787 -4.6126461 -0.43395349
-0.56909424 -4.6161575 -0.43466088
-0.5988161 -4.6234317 -0.43577251
-0.62770998 -4.6236134 -0.43617675
-0.65887076 -4.6393743 -0.43819785
-0.68951762 -4.6500053 -0.43971372
-0.72123295 -4.6663337 -0.44183588
-0.755548 -4.6971803 -0.44547391
-0.7886259 -4.7179675 -0.44810137
-0.82590365 -4.7610698 -0.45305315
-0.85933244 -4.7794118 -0.45547849
-0.89575171 -4.8121924 -0.4594197
-0.92639166 -4.8124671 -0.46002603
-0.95862293 -4.8203526 -0.4614408
-1.6408504 -7.9903264 -0.79078329
-1.6958283 -8.0083332 -0.79371393
-1.7474811 -8.0094404 -0.79492658
-1.7968113 -7.9995379 -0.79502767
-1.8420517 -7.9718843 -0.79330969
-1.8874806 -7.9459128 -0.79179382
-1.9331323 -7.9216175 -0.79048014
-1.9817021 -7.9096069 -0.79048014
-2.0264795 -7.8828459 -0.78896427
-2.072526 -7.8616052 -0.78805476
-2.1217632 -7.852582 -0.788459
-1.7548738 -6.3408265 -0.63050801
-1.7280651 -6.0983109 -0.6060524
-1.7740469 -6.1172123 -0.6091851
-1.8183433 -6.1291013 -0.61161047
-1.8605404 -6.1330605 -0.61322737
-2.3624806 -7.618084 -0.77239102
-2.3923438 -7.5503364 -0.76673186
-2.4177876 -7.4711528 -0.75986004
-2.4439116 -7.3966665 -0.75349349
-2.4768467 -7.3447676 -0.74955231
-2.5095613 -7.293685 -0.74571216
-2.5387762 -7.2340307 -0.74096251
-2.5764086 -7.1995835 -0.73894143
-2.5888145 -7.0967231 -0.72954315
-2.6118481 -7.0256891 -0.72358084
-2.6429217 -6.9778996 -0.72014493
-2.681747 -6.9513421 -0.7190333
-2.6861372 -6.8375335 -0.70842242
-2.726932 -6.818152 -0.70811921
-2.7567079 -6.7718067 -0.70488542
-2.7764955 -6.7023773 -0.69912523
-2.8098376 -6.6668806 -0.6971041
-2.8373585 -6.6184268 -0.69366819
-2.8556406 -6.5498257 -0.68800902
-2.8691552 -6.472157 -0.68133932
-2.905951 -6.4480815 -0.68063194
-2.9201779 -6.374959 -0.6744675
-2.9411783 -6.318141 -0.67012209
-2.9709539 -6.2810903 -0.66799986
-3.0077138 -6.2591558 -0.66759568
-3.0124485 -6.1717463 -0.6598143
-3.0259497 -6.1041245 -0.65425622
-3.0526073 -6.0641174 -0.65183085
-3.0711887 -6.008955 -0.64768755
-3.0997508 -5.9741035 -0.64586854
-3.1066678 -5.8986397 -0.63940096
-3.1273205 -5.8505154 -0.63606608
-3.1489239 -5.8049836 -0.63303441
-3.165288 -5.7506933 -0.62899214
-3.1883833 -5.7094498 -0.62646574
-3.2145259 -5.6741991 -0.62464672
-3.2339103 -5.6276307 -0.62151396
-3.2508404 -5.577601 -0.61797702
-3.2698109 -5.5318584 -0.61494535
-3.2985759 -5.5031586 -0.61393476
-3.3095386 -5.4454117 -0.60948831
-3.3366239 -5.4148397 -0.60827559
-3.353441 -5.3681107 -0.60514289
-3.3793943 -5.3365078 -0.60382915
-3.3916473 -5.2838602 -0.599989
-3.4240046 -5.2629504 -0.599989
-3.4447291 -5.2244015 -0.59786683
-3.4722974 -5.1965499 -0.59705836
-3.4890528 -5.1529069 -0.59432983
-3.485136 -5.0797253 -0.58796328
-3.5264633 -5.0729475 -0.5897823
-3.5454905 -5.0341349 -0.58766013
-3.5410547 -4.9628901 -0.5814957
-3.5440407 -4.9031782 -0.57674605
-3.5640652 -4.8676958 -0.57502806
-3.5766742 -4.8225651 -0.57209748
-3.6145654 -4.8116627 -0.57351226
-3.6554699 -4.8044348 -0.5754323
-3.6775918 -4.77246 -0.57421964
-3.6994588 -4.7403946 -0.57300699
-3.7068796 -4.6902909 -0.56946999
-3.718178 -4.6457124 -0.56664044
-3.717165 -4.5864897 -0.56189078
-3.7275608 -4.5420651 -0.55906117
-3.7331002 -4.4923315 -0.55552423
-3.7458587 -4.4518352 -0.55319995
-3.7621331 -4.415895 -0.55148196
-3.7774582 -4.3791704 -0.54966295
-3.7937837 -4.3439226 -0.54804605
-3.815752 -4.3153462 -0.54733866
-3.8262291 -4.2740655 -0.54491329
-3.8350072 -4.2313447 -0.54228586
-3.8548431 -4.201138 -0.54137635
-3.8717439 -4.167932 -0.54006261
-3.8761117 -4.121634 -0.53692985
-3.8704517 -4.0653548 -0.53238231
-3.8752973 -4.0207605 -0.52945173
-3.8769622 -3.9734128 -0.52611685
-3.8935773 -3.9417653 -0.52500522
-3.9120612 -3.9121737 -0.52419674
-3.9097989 -3.8622324 -0.52045768
-3.924165 -3.829139 -0.51914394
-3.9432874 -3.8008471 -0.51853764
-3.952842 -3.7635484 -0.51661754
-3.955564 -3.7201433 -0.51378798
-3.9557157 -3.6748161 -0.51065522
-3.9561942 -3.6303005 -0.50762355
-3.9717593 -3.5999458 -0.50671405
-3.9782045 -3.5615754 -0.50459182
-3.9940195 -3.5318274 -0.5037834
-4.0081205 -3.5007112 -0.50277281
-4.0137024 -3.4624088 -0.50065064
-4.001545 -3.4093339 -0.49620417
-4.0338097 -3.3943226 -0.49772003
-4.0514994 -3.3669648 -0.49731579
-4.0628524 -3.33447 -0.49610311
-4.0561795 -3.2875588 -0.49256614
-4.0770521 -3.2632301 -0.4926672
-4.0876303 -3.2307518 -0.49145454
-4.0940418 -3.1952069 -0.48973659
-4.1041121 -3.1627409 -0.4885239
-4.1028519 -3.1218402 -0.48589644
-4.1235213 -3.0978017 -0.48609856
-4.1304631 -3.0635545 -0.48458269
-4.1226892 -3.0187628 -0.48124784
-4.1266189 -2.9829221 -0.47942883
-4.1294546 -2.9465694 -0.47750875
-4.1075945 -2.8931139 -0.47255701
-4.1260862 -2.8684235 -0.47265807
-4.1370449 -2.8385508 -0.47184962
-4.1477928 -2.8086519 -0.47104117
-4.149229 -2.77265 -0.4691211
-4.1453962 -2.7334516 -0.4665947
-4.1362352 -2.6911509 -0.46346194
-4.1359229 -2.6549761 -0.4614408
-4.150454 -2.6284842 -0.46123871
-4.1665044 -2.6029682 -0.46123871
-4.1544428 -2.5601366 -0.45790383
-4.1471157 -2.5206509 -0.45517531
-4.1590905 -2.4931121 -0.4547711
-4.1725965 -2.4665332 -0.45456898
-4.176477 -2.4343741 -0.45325527
-4.1947861 -2.4106839 -0.45365947
-4.1887212 -2.3731349 -0.45123413
-4.2014661 -2.3464189 -0.45103201
-4.2114263 -2.3181973 -0.45052674
-4.2028313 -2.279984 -0.44789928
-4.213232 -2.2522776 -0.44749504
-4.2093654 -2.2171149 -0.44547391
-4.219357 -2.1894131 -0.4450697
-4.2256236 -2.1598618 -0.44426125
-4.224577 -2.126739 -0.44264433
-4.2313066 -2.0976856 -0.44193694
-4.2673464 -2.0830245 -0.4445644
-4.2585235 -2.0464644 -0.44213906
-4.2521119 -2.0113671 -0.44001687
-4.2562551 -1.9814619 -0.43910736
-4.2574778 -1.9503392 -0.4378947
-4.2793431 -1.9286733 -0.43900633
-4.3083792 -1.9100362 -0.44092637
-4.3282266 -1.8871411 -0.44183588
-4.3324084 -1.8574138 -0.44102743
-4.3097992 -1.8165071 -0.43728834
-4.3125911 -1.7866036 -0.43637884
-4.3428249 -1.7679812 -0.43850103
-0.25457826 -0.10300548 0.0098857582
-4.3419681 -1.7058295 -0.43607569
-0 -0 -0
-0.26387483 -0.10111942 0.0090773078
-0.2626251 -0.09880551 0.0092794197
-0.26042226 -0.096170038 0.0095825894
-0.26100746 -0.094570309 0.0095825894
-0.25970516 -0.092308566 0.0097847013
-0.26026666 -0.090713307 0.0097847013
-0.26176116 -0.089432314 0.0096836453
-0.26702863 -0.089383945 0.0091783637
-0.2694653 -0.088355981 0.0089762509
-0.27095085 -0.087001182 0.0088751949
-0.27433053 -0.086220369 0.0085720262
-0.2739023 -0.084246874 0.0086730821
-0.27727562 -0.083412945 0.0083699133
-0.27587107 -0.081156231 0.0085720262
-0.2773211 -0.079733029 0.0084709693
-0.27780512 -0.078029916 0.0084709693
-0.27923918 -0.07658314 0.0083699133
-0.27970383 -0.074868314 0.0083699133
-0.27919433 -0.072903216 0.0084709693
-0.27770618 -0.070705645 0.0086730821
-0.27716821 -0.068764716 0.008774139
-0.2766169 -0.066833064 0.0088751949
-0.27605239 -0.064910777 0.0089762509
-0.27547473 -0.062997945 0.0090773078
-0.27585608 -0.061306473 0.0090773078
-0 -0 -0
-0.27951142 -0.058516331 0.008774139
-0.27693781 -0.056218479 0.0090773078
-0.27825451 -0.054706071 0.0089762509
-0 -0 -0
-0.27890489 -0.051287342 0.0089762509
-0.28117487 -0.049914837 0.008774139
-0.28049457 -0.048024762 0.0088751949
-0.27980167 -0.046144925 0.0089762509
-0.28106278 -0.044579048 0.0088751949
-0.28034687 -0.042707853 0.0089762509
-0.27961862 -0.04084713 0.0090773078
-0 -0 -0
-0.28009883 -0.037412703 0.0090773078
-0.28328538 -0.036058113 0.008774139
-0 -0 -0
-0.28568423 -0.032797981 0.0085720262
-0.2839011 -0.030837648 0.008774139
-0.2850751 -0.029192405 0.0086730821
-0 -0 -0
-0.27549955 -0.024840262 0.0096836453
-0 -0 -0
-0 -0 -0
-0.27193961 -0.019497393 0.01008787
-0.27304715 -0.017889246 0.0099868141
-0 -0 -0
-0.27523351 -0.014634434 0.0097847013
-0 -0 -0
-0 -0 -0
-0.27446181 -0.0095354831 0.0098857582
-0 -0 -0
-0 -0 -0
-0.27260122 -0.0044578966 0.01008787
-0 -0 -0
-0.27462515 -0.0011119341 0.0098857582
-0.27562168 0.00057945499 0.0097847013
-0.27760252 0.0022954349 0.0095825894
-0.27658853 0.0039802212 0.0096836453
-0 0 -0
-0 0 -0
-0 0 -0
-0 0 -0
-0 0 -0
-0 0 -0
-0.29006448 0.016709603 0.0082688574
-0 0 -0
-0 -0 -0
-0 -0 -0
-0 -0 -0
-0 -0 -0
-0 -0 -0
-0 0 -0
-0 0 -0
-0 0 -0
-0 0 -0
-0 0 -0
-0 0 -0
-0 0 -0
-0 0 -0
-0 0 -0
-0 0 -0
-0 0 -0
-0 0 -0
-0 0 -0
-0 0 -0
-0 0 -0
-0 0 -0
-0 0 -0
-0 0 -0
-0 0 -0
-0 0 -0
-0 0 -0
-0 0 -0
-0 0 -0
-0 0 -0
-0 0 -0
-0 0 -0
-0 0 -0
-0 0 -0
-0 0 -0
-0 0 -0
-0 0 -0
-0 0 -0
-0 0 -0
-0 0 -0
-0 0 -0
-0 0 -0
-0 0 -0
-0 0 -0
-0 0 -0
-0 0 -0
-0 0 -0
-0 0 -0
-0 0 -0
-0 0 -0
-0 0 -0
-0 0 -0
-0 0 -0
-0 0 -0
-0 0 -0
-0 0 -0
-0 0 -0
-0 0 -0
-0 0 -0
-0 0 -0
-0 0 -0
-0 0 -0
-0 0 -0
-0 0 -0
-0 0 -0
-0 0 -0
-0 0 -0
-0 0 -0
-0 0 -0
-0 0 -0
-0 0 -0
-0 0 -0
-0 0 -0
-0 0 -0
-0 0 -0
-0 0 -0
-0 0 -0
-0 0 -0
-0 0 -0
-0 0 -0
-0 0 -0
-0 0 -0
-0 0 -0
-0 0 -0
-0 0 -0
-0 0 -0
-0 0 -0
-0 0 -0
-0 0 -0
-0 0 -0
-0 0 -0
-0 0 -0
-0 0 -0
-0 0 -0
-0 0 -0
-0 0 -0
-0 0 -0
-0 0 -0
-0 0 -0
-0 0 -0
-0 0 -0
-0 0 -0
-0 0 -0
-0 0 -0
-0 0 -0
-0 0 -0
-0 0 -0
-0 0 -0
-0 0 -0
-0 0 -0
-0 0 -0
-0 0 -0
-0 0 -0
-0 0 -0
-0 0 -0
-0 0 -0
-0 0 -0
-0 0 -0
-0 0 -0
-0 0 -0
-0 0 -0
-0 0 -0
-0 0 -0
-0 0 -0
-0.239723 0.21502981 0.0014517863
-0.27374589 0.24851771 -0.0039569959
-0.26049933 0.23944692 -0.0021540688
-0.24810293 0.23089944 -0.0004638242
-0.25536937 0.24058399 -0.0018160198
-0.25028935 0.23872149 -0.001252605
-0.27887434 0.2692067 -0.0059852893
-0.27721727 0.27091277 -0.0059852893
-0.27130735 0.26841998 -0.0053091915
-0.24013883 0.2405774 -0.00057650718
-0.25402403 0.25759447 -0.0030555325
-0.23578028 0.24208415 -0.00035114124
-0.26739717 0.27785838 -0.0057599237
-0.25129548 0.26438498 -0.0033935814
-0.23196526 0.24710673 -0.0004638242
-0.26088452 0.28127754 -0.0055345576
-0.22824346 0.24920273 -0.00035114124
-0.25607824 0.28298569 -0.0053091915
-0.24240433 0.27122885 -0.0032808983
-0.25521979 0.28908366 -0.0057599237
-0 0 -0
-0.23802002 0.27639702 -0.0033935814
-0.25887939 0.30431926 -0.007337485
-0.24548881 0.29221946 -0.0053091915
-0.2170112 0.26163003 -0.00057650718
-0 0 -0
-0 0 -0
-0 0 -0
-0 0 -0
-0 0 -0
-0 0 -0
-4.0375199 5.3046088 -0.71802896
-4.0675783 5.412684 -0.72986066
-4.0627108 5.475842 -0.73526943
-4.0425406 5.5191035 -0.73786116
-4.0371308 5.5832567 -0.74338263
-4.0154972 5.6257148 -0.74586165
-4.0026517 5.6811123 -0.75014359
-3.993248 5.7422733 -0.75521433
-3.9742463 5.7904243 -0.75848216
-4.0088606 5.9183531 -0.77268016
-4.001739 5.9866199 -0.77865237
-3.992835 6.0533614 -0.78439921
-3.9821777 6.1185522 -0.78992069
-3.9386537 6.1336746 -0.78868115
-3.8988168 6.1543689 -0.78823042
-3.8720403 6.1958699 -0.79059678
-3.8542869 6.2524981 -0.79499143
-3.8251421 6.2913117 -0.79701972
-3.8017983 6.3402286 -0.8004002
-3.787102 6.404489 -0.80580896
-3.7642512 6.4559312 -0.80952752
-3.7473495 6.5185313 -0.81471092
-3.7195313 6.5630126 -0.81752801
-3.6879151 6.601325 -0.8195563
-3.6636376 6.6534224 -0.8233875
-3.639807 6.7072158 -0.82744408
-3.605613 6.7425656 -0.82913435
-3.5910401 6.8155475 -0.83566993
-3.5578516 6.8542089 -0.83781093
-3.5293 6.9024506 -0.84119141
-3.5020776 6.9541483 -0.84502268
-3.4725871 7.0022106 -0.84840316
-3.4404578 7.0457072 -0.85122019
-3.4010363 7.0747442 -0.85223436
-3.3545871 7.0891929 -0.85144556
-3.3131232 7.1141462 -0.852009
-3.2772751 7.1515036 -0.85415
-3.2427268 7.1923113 -0.85674167
-3.1997433 7.214798 -0.85707974
-3.158195 7.2406702 -0.85786849
-3.1148827 7.2626519 -0.85820657
-3.0760527 7.295361 -0.85989678
-3.0434062 7.3434711 -0.86350268
-3.0065362 7.3822517 -0.8659817
-2.9645057 7.4088631 -0.86699581
-2.9248061 7.4417095 -0.86879873
-2.8744378 7.4474649 -0.86733389
-2.8258698 7.4575291 -0.86643243
-2.7824831 7.4812465 -0.86722118
-2.7365267 7.498179 -0.86722118
-2.6914721 7.5176349 -0.86755925
-2.6462817 7.5368209 -0.86789727
-2.6022511 7.5594926 -0.86868608
-2.5596302 7.5866151 -0.87003827
-2.5158386 7.6106687 -0.87105238
-2.4669502 7.6193452 -0.87026364
-2.4183505 7.6286554 -0.86958754
-2.3779752 7.6642284 -0.87206656
-2.3300378 7.6758227 -0.87172854
-2.2871382 7.7042632 -0.87341875
-2.2417617 7.7248316 -0.87420756
-2.1967607 7.7470446 -0.87522167
-2.1528978 7.7737837 -0.87679923
-2.1067145 7.7926025 -0.87747532
-2.0540442 7.787128 -0.87533438
-1.9983023 7.7687912 -0.87172854
-1.9518046 7.7857256 -0.87229192
-1.908239 7.8149295 -0.87432021
-1.859792 7.8245578 -0.87409484
-1.8083881 7.821301 -0.87240463
-1.7570944 7.817708 -0.87071437
-1.7082448 7.8244591 -0.87026364
-1.6604087 7.8357654 -0.87037629
-1.615099 7.8594322 -0.8719539
-1.5697552 7.8838115 -0.87364411
-1.5221039 7.8971977 -0.87409484
-1.4725263 7.9005275 -0.87341875
-1.424374 7.9113698 -0.87364411
-1.3758039 7.919961 -0.87364411
-1.3271821 7.9282537 -0.87364411
-1.2796168 7.9431148 -0.87443292
-1.2343521 7.9734011 -0.87702459
-1.1859891 7.984756 -0.87747532
-1.1345932 7.9751596 -0.87555975
-1.0821543 7.9563727 -0.87263
-1.0292212 7.9313312 -0.8690241
-0.9776113 7.9138298 -0.86631972
-0.92729735 7.9048767 -0.86462951
-0.87680084 7.8926415 -0.86260122
-0.82555622 7.8711915 -0.85955876
-0.77490079 7.8523769 -0.85685438
-0.72505683 7.8391747 -0.85482609
-0.67454922 7.8157578 -0.85167092
-0.624277 7.7910261 -0.84840316
-0.57477373 7.7719188 -0.84581143
-0.52438521 7.7356453 -0.84130412
-0.47489178 7.7059894 -0.83758557
-0.42611256 7.6819715 -0.83454311
-0.37764603 7.6576462 -0.83150071
-0.3293654 7.6300383 -0.82812023
-0.28154826 7.6051059 -0.82507777
-0.23371163 7.5689502 -0.82079583
-0.18679719 7.5513687 -0.81865484
-0.14001468 7.5285296 -0.81595045
-0.093444891 7.4994402 -0.81256998
-0.047332402 7.4849687 -0.81087971
-0.0014069933 7.4950542 -0.81200653
0.044581823 7.4949217 -0.81200653
0.090293996 7.4716554 -0.8094148
0.13566819 7.4451303 -0.80648506
0.18180688 7.4630313 -0.80862606
0.22732358 7.4528365 -0.80761188
0.27268571 7.4413719 -0.80648506
0.31761873 7.4226823 -0.80456948
0.36223564 7.4017372 -0.80242848
0.40840951 7.4132652 -0.80400604
0.45249283 7.3878088 -0.80141437
0.49661309 7.3670483 -0.79938602
0.53830987 7.3162966 -0.79397726
0.58129722 7.289084 -0.79127288
0.62405598 7.2626104 -0.78868115
0.67279673 7.3041592 -0.79386461
0.71478403 7.2712164 -0.79059678
0.76000524 7.2726231 -0.79127288
0.79412371 7.1730127 -0.78045529
0.83419997 7.13445 -0.77662408
0.87613952 7.1144047 -0.77493382
0.91722733 7.0891862 -0.77268016
0.94856113 6.993824 -0.76242602
0.97806203 6.8934288 -0.75160849
0.97827405 6.6032362 -0.71904308
0.98269427 6.3633933 -0.69222456
0.9969759 6.2032189 -0.67453331
1.0345285 6.1940446 -0.67419529
1.0625063 6.1298165 -0.66754699
1.0900866 6.0674367 -0.66112405
1.1194847 6.0186276 -0.65627867
1.131626 5.8828459 -0.64140451
1.1591821 5.8329096 -0.63644648
1.1881642 5.7925925 -0.63261527
1.2152567 5.7453356 -0.62799525
1.2403336 5.6911693 -0.62258649
1.2658793 5.6417618 -0.61774111
1.292653 5.6000013 -0.61379719
1.3217144 5.5697284 -0.61120552
1.341042 5.5006948 -0.60410649
1.3694619 5.4711571 -0.60162747
1.3800251 5.3731465 -0.5911479
1.4031007 5.3271036 -0.58675331
1.4378321 5.3260684 -0.58765477
1.4667782 5.3037381 -0.58607721
1.4952339 5.2802973 -0.58438694
1.5154382 5.2290306 -0.57942891
1.544106 5.2082014 -0.57807672
1.5645056 5.1605926 -0.57356936
1.5814391 5.1034393 -0.56793523
1.6016288 5.0585895 -0.56376594
1.6356941 5.0581212 -0.56489277
1.665765 5.0451589 -0.56455475
1.689711 5.0141273 -0.56207573
1.7165691 4.9923892 -0.56072354
1.7497996 4.9892635 -0.561625
1.7807148 4.9793687 -0.56173766
1.8091925 4.9627476 -0.56106156
1.8361496 4.9422383 -0.55993474
1.8646816 4.9262323 -0.55937135
1.8991619 4.9258242 -0.56072354
1.9311657 4.9187026 -0.56128693
1.9546728 4.8901525 -0.55925864
1.9951242 4.9038382 -0.56241375
2.0217557 4.8832412 -0.56139964
2.0412681 4.8460193 -0.55835718
2.0686169 4.8279228 -0.55768108
2.1077261 4.8370013 -0.56038547
2.1297193 4.8067164 -0.55824453
2.1693728 4.8162084 -0.56106156
2.1777921 4.7567291 -0.55531472
2.2186725 4.7685027 -0.55846989
2.255533 4.7709694 -0.56049818
2.2731514 4.7328558 -0.55745572
2.3043268 4.7232842 -0.55801916
2.3526723 4.7482324 -0.56297719
2.3902469 4.7505722 -0.56511813
2.4130232 4.7234282 -0.56354058
2.4543099 4.7323499 -0.56658304
2.4791358 4.7092881 -0.56556892
2.514071 4.7053809 -0.56703377
2.5428953 4.6898665 -0.56703377
2.58216 4.6933284 -0.56951278
2.6070352 4.6704555 -0.56861132
2.6209569 4.6284308 -0.56523085
2.662173 4.6346645 -0.56816059
2.6845593 4.6079397 -0.5668084
2.7158148 4.5965137 -0.5674845
2.7567329 4.6010728 -0.57030159
2.7792385 4.5747299 -0.56906205
2.7994404 4.5448995 -0.56737185
2.8546386 4.571465 -0.57323134
2.8937938 4.5714946 -0.5755977
2.9309106 4.5678701 -0.57751328
2.9383006 4.518146 -0.57323134
2.9670615 4.5016913 -0.5734567
2.9841428 4.467701 -0.57131571
3.0593927 4.5200763 -0.58100647
3.1039279 4.5258036 -0.58438694
3.1151977 4.4830084 -0.58111912
3.1609485 4.48981 -0.58472502
3.2092071 4.499454 -0.5887816
3.2158072 4.4506822 -0.58472502
3.2641807 4.4597335 -0.5887816
3.3039095 4.4563837 -0.5911479
3.3186626 4.4193411 -0.5887816
3.3944354 4.4629588 -0.59790891
3.4114485 4.4286642 -0.59599328
3.4593363 4.4342871 -0.59982449
3.4704654 4.392705 -0.59689474
3.506043 4.3821907 -0.5984723
3.5478761 4.3791256 -0.60117674
3.6093385 4.3995271 -0.60737425
3.6483281 4.3918204 -0.60951525
3.6726489 4.3663101 -0.60906452
3.7064571 4.3520145 -0.61030406
3.7545023 4.3540244 -0.61402255
3.801404 4.3541102 -0.61751574
3.8458152 4.3508053 -0.6205582
3.8803897 4.3360114 -0.62191039
3.9222655 4.3290572 -0.62450206
3.968231 4.3261456 -0.62776989
4.018364 4.3272009 -0.63171381
4.0530062 4.311151 -0.633066
4.069108 4.275404 -0.63137573
4.1056056 4.2610898 -0.633066
4.1677494 4.2728076 -0.63892549
4.2141333 4.2676592 -0.64219332
4.2409425 4.2424245 -0.64230597
4.2577062 4.2072425 -0.64084113
4.294106 4.1914501 -0.64253134
4.3433466 4.1877837 -0.64624989
4.3754358 4.1672225 -0.64726406
4.43783 4.1750226 -0.6530109
4.4830151 4.165978 -0.6560533
4.5172763 4.1464558 -0.6574055
4.5757565 4.1486959 -0.66247624
4.6188903 4.1364517 -0.66518062
4.6441841 4.1080332 -0.66518062
4.6969876 4.1036501 -0.66934991
4.7589378 4.1065631 -0.67487139
4.807488 4.0972672 -0.67836452
4.8652239 4.0952077 -0.6832099
4.9108896 4.0824299 -0.68625236
4.9596524 4.0717669 -0.68974555
4.999207 4.0531487 -0.69188648
5.0425973 4.0373034 -0.69459087
5.0836425 4.0192289 -0.69695723
5.1395354 4.0124207 -0.70146453
5.1750751 3.9893031 -0.70304209
5.2065711 3.9628911 -0.70405626
5.2355547 3.9344513 -0.70473236
5.2603955 3.9028447 -0.70484501
5.2826409 3.8693197 -0.70461965
5.3360739 3.8583767 -0.70878893
5.3992748 3.8538506 -0.71431041
5.4544973 3.8429699 -0.71870506
5.5619955 3.8678656 -0.73031139
5.6380525 3.8696537 -0.73752308
5.7250333 3.8778977 -0.74619967
5.7685452 3.8559501 -0.74890411
5.8385434 3.8511229 -0.75521433
5.9611611 3.8797297 -0.76862359
6.0182972 3.864557 -0.77313089
6.0763097 3.8493602 -0.77775091
6.1175089 3.8230636 -0.78011727
6.1611509 3.7979701 -0.78282166
6.1919799 3.7647407 -0.78383583
6.2285976 3.734853 -0.78563875
6.2531075 3.6975765 -0.78586411
6.2782526 3.66064 -0.78620213
6.2971501 3.6200674 -0.7857514
6.2760224 3.5568624 -0.78011727
6.3107405 3.5255563 -0.78180748
6.3366055 3.4891646 -0.78237092
6.353529 3.4478483 -0.78180748
6.3596697 3.4008327 -0.77989191
6.3856916 3.3645258 -0.780568
6.4115071 3.3280275 -0.7812441
6.430037 3.2877197 -0.78101873
6.4376655 3.2419465 -0.77944118
6.4672279 3.2072413 -0.78068066
6.476964 3.1627023 -0.77944118
6.5150537 3.1319423 -0.78180748
6.5125933 3.0817068 -0.7791031
6.5259752 3.039171 -0.778427
6.549017 3.0011411 -0.77899045
6.5790839 2.9662104 -0.78045529
6.5935268 2.9241745 -0.78000456
6.6104345 2.883265 -0.77989191
6.6380463 2.8469586 -0.78113139
6.6462345 2.8023138 -0.78000456
6.6476998 2.7550125 -0.77808899
6.6598778 2.712297 -0.77752554
6.6883874 2.6761811 -0.77899045
6.7194781 2.6409075 -0.78079337
6.738337 2.6007013 -0.78113139
6.7420888 2.554729 -0.77966654
6.7641563 2.5157373 -0.78045529
6.7701316 2.4707787 -0.77932847
6.7599068 2.4201474 -0.77628607
6.7952542 2.3858666 -0.77876508
6.8191609 2.3473616 -0.77989191
6.8324943 2.3051581 -0.7797792
6.8370757 2.2600722 -0.77865237
6.8564863 2.2199149 -0.77932847
6.8633485 2.1757002 -0.77853972
6.8822627 2.1353135 -0.77921581
6.8790722 2.0881374 -0.77730018
6.8841352 2.0436263 -0.77639872
6.900362 2.0024555 -0.77684945
6.9029593 1.9573667 -0.77572262
6.9148397 1.9149741 -0.77572262
6.9139905 1.8691376 -0.77425772
6.8705659 1.8122311 -0.76783484
6.9219723 1.7804381 -0.77256751
6.9115634 1.7326155 -0.77008849
6.9153075 1.6885241 -0.76929969
6.9516382 1.6522659 -0.77234215
6.9500289 1.6068938 -0.77098995
6.9326134 1.5581167 -0.76783484
6.9808736 1.524029 -0.77234215
6.9570441 1.4741616 -0.76851094
7.0078096 1.4400487 -0.77335626
6.963891 1.3865421 -0.7672714
6.8932385 1.3285503 -0.75814408
6.9530311 1.295881 -0.76411629
7.0058351 1.2612947 -0.76929969
6.9644942 1.2097785 -0.76366556
6.981586 1.1686635 -0.76479238
6.9748917 1.1235901 -0.76321483
7.0111127 1.0853336 -0.7665953
7.0127258 1.0415636 -0.76603186
6.9334011 0.98633492 -0.75622845
7.0742073 0.96212626 -0.77166605
6.9765148 0.90527046 -0.75983435
7.0174384 0.86683357 -0.76389092
7.0107832 0.82236928 -0.76253873
7.0028586 0.77790958 -0.76107383
7.0470285 0.73907405 -0.76558113
6.9960566 0.6903531 -0.75927091
7.0585356 0.65281522 -0.76591921
7.0653782 0.60974902 -0.76625723
7.0749292 0.56686169 -0.76693338
7.0554829 0.52175337 -0.76434165
7.05756 0.47838467 -0.76422894
7.0385442 0.43372557 -0.76174992
6.9994049 0.38821629 -0.75701725
7.0135641 0.34584936 -0.75836945
7.0582404 0.30465326 -0.76321483
7.0331674 0.26034507 -0.76017237
7.0882626 0.21884423 -0.76625723
7.0964255 0.1755197 -0.76704603
7.0625978 0.13132508 -0.76310211
7.0831418 0.088235959 -0.76535577
7.0616903 0.044633586 -0.76287675
7.1095257 0.001314473 -0.76828557
7.1113868 -0.042320497 -0.76851094
7.103045 -0.08585871 -0.76760948
7.0994039 -0.12938641 -0.7672714
7.1193366 -0.17345217 -0.76963776
7.1250906 -0.21734402 -0.77042651
7.0690093 -0.25906026 -0.76422894
7.085156 -0.30319369 -0.76625723
7.0821695 -0.34661317 -0.76614457
7.0957837 -0.39093572 -0.76794749
7.0387039 -0.43112919 -0.76174992
7.082521 -0.47744825 -0.76704603
7.016037 -0.51623386 -0.75983435
7.0573092 -0.56282592 -0.76490504
7.0972824 -0.60985875 -0.76986313
7.0815334 -0.65230232 -0.76851094
7.0615759 -0.69418705 -0.76670802
7.0502658 -0.73678041 -0.76591921
7.0228972 -0.77751267 -0.76332748
7.0624056 -0.82578003 -0.76839823
7.0305786 -0.86582094 -0.76535577
7.0300608 -0.90958071 -0.76591921
7.0095778 -0.95069695 -0.76422894
6.9347477 -0.98392212 -0.75634116
7.0209737 -1.0401371 -0.76693338
6.9260793 -1.0695544 -0.75679189
6.9517608 -1.117233 -0.76051044
6.9967184 -1.1685395 -0.76648265
6.9522128 -1.2050023 -0.76220065
6.9613142 -1.2506236 -0.76411629
6.9378791 -1.2904075 -0.76231337
6.9259276 -1.3322028 -0.76186264
6.9234705 -1.3758361 -0.76253873
6.9207387 -1.4194894 -0.76321483
6.8827343 -1.4557607 -0.75983435
6.8358088 -1.4897157 -0.7554397
6.8381739 -1.5342411 -0.75679189
6.8673587 -1.5851071 -0.76129919
6.8797398 -1.6324898 -0.76389092
6.8956585 -1.6810249 -0.76693338
6.8823228 -1.7225807 -0.7665953
6.865849 -1.7632947 -0.76591921
6.834722 -1.8000764 -0.76355284
6.8014841 -1.8360248 -0.76096117
6.8063712 -1.8822247 -0.76287675
6.8415408 -1.9372145 -0.76839823
6.7951679 -1.9692023 -0.76434165
6.7543774 -2.0023885 -0.76096117
6.7904606 -2.0584936 -0.76670802
6.7520757 -2.0921812 -0.76366556
6.7893181 -2.1494641 -0.76963776
6.7797832 -2.1923048 -0.77008849
6.7737522 -2.2363551 -0.77098995
6.7627277 -2.2788277 -0.77132797
6.7476783 -2.3199573 -0.77121532
6.7192512 -2.356385 -0.76952505
6.7121511 -2.4002452 -0.77042651
6.6786261 -2.4345798 -0.76817286
6.6924372 -2.4862387 -0.77166605
6.6835608 -2.5297177 -0.7724548
6.666986 -2.5703223 -0.77234215
6.6344404 -2.6046467 -0.77031386
6.6155658 -2.6441996 -0.76997578
6.590013 -2.6809983 -0.76884896
6.5587492 -2.7153029 -0.76704603
6.541049 -2.7551098 -0.76693338
6.5349813 -2.7998884 -0.76828557
6.5413628 -2.8502519 -0.77121532
