# .PCD v0.7 - Point Cloud Data file format
VERSION 0.7
FIELDS x y z
SIZE 4 4 4
TYPE F F F
COUNT 1 1 1
WIDTH 1563
HEIGHT 1
VIEWPOINT 0 0 0 1 0 0 0
POINTS 1563
DATA ascii
3.6068177 4.3964539 -0.60692352
3.6438839 4.3864698 -0.60872644
3.6956728 4.3936863 -0.61312109
3.7128992 4.3595796 -0.61143088
3.7512581 4.3502617 -0.61345917
3.7974834 4.3496189 -0.61683965
3.8359449 4.3396373 -0.61886793
3.8691261 4.3234234 -0.61999476
3.9209313 4.3275847 -0.6242767
3.9836779 4.342988 -0.63036162
4.0109272 4.319191 -0.63047427
4.0421176 4.2995672 -0.63126308
4.0643134 4.2703652 -0.63058698
4.097333 4.2525024 -0.63171381
4.1615052 4.2664056 -0.63791138
4.2176237 4.2711945 -0.6427567
4.2430496 4.2445326 -0.64264405
4.2647734 4.2142272 -0.64196795
4.3026381 4.1997795 -0.64388353
4.3454924 4.1898532 -0.64658797
4.3718386 4.1637959 -0.64670062
4.4125018 4.1511912 -0.64906698
4.4633641 4.1477141 -0.6530109
4.5150805 4.1444402 -0.65706748
4.5706043 4.1440239 -0.66168749
4.6100082 4.1284966 -0.66382843
4.6486492 4.1119833 -0.66585672
4.6969876 4.1036501 -0.66934991
4.755929 4.1039662 -0.67442065
4.8052192 4.0953331 -0.6780265
4.8599029 4.0907283 -0.68242115
4.9162378 4.0868764 -0.6870411
4.951973 4.0654616 -0.68861872
4.999207 4.0531487 -0.69188648
5.0495777 4.0428934 -0.69560504
5.0836425 4.0192289 -0.69695723
5.128571 4.0038595 -0.69988698
5.1727142 3.987483 -0.70270407
5.2010369 3.958678 -0.70326746
5.2307892 3.9308696 -0.70405626
5.2492242 3.8945553 -0.70326746
5.2826409 3.8693197 -0.70461965
5.3376842 3.8595412 -0.7090143
5.3976574 3.8526962 -0.71408504
5.4674931 3.8521273 -0.72050798
5.5571012 3.8644614 -0.7296353
5.6233072 3.8595319 -0.73549479
5.6970639 3.8589499 -0.74236846
5.7743273 3.8598156 -0.74969286
5.8501549 3.858783 -0.75679189
5.9561648 3.8764775 -0.76794749
6.0291662 3.8715372 -0.7745958
6.0763097 3.8493602 -0.77775091
6.1267776 3.8288565 -0.78135675
6.1611509 3.7979701 -0.78282166
6.1936779 3.7657733 -0.78406119
6.2149634 3.7266765 -0.78383583
6.2334366 3.6859431 -0.78327239
6.2550774 3.6471255 -0.78315967
6.2747536 3.6071906 -0.78282166
6.2889891 3.5642118 -0.78180748
6.3081379 3.5241024 -0.78146946
6.3331242 3.4872472 -0.78192019
6.353529 3.4478483 -0.78180748
6.3719363 3.4073932 -0.78146946
6.3830543 3.3631361 -0.78022993
6.397397 3.3207023 -0.77944118
6.4070358 3.2759573 -0.77808899
6.4323406 3.2392647 -0.77876508
6.4609971 3.2041507 -0.77989191
6.4876785 3.1679347 -0.78079337
6.4971437 3.1233313 -0.77955383
6.5125933 3.0817068 -0.7791031
6.5349827 3.0433662 -0.77955383
6.541791 2.9978292 -0.77808899
6.5609679 2.9580414 -0.77820164
6.5944352 2.9245775 -0.78011727
6.6149883 2.8852515 -0.78045529
6.6307411 2.8438251 -0.78022993
6.6416569 2.8003833 -0.77944118
6.6421924 2.7527299 -0.77741289
6.6506758 2.7085488 -0.77639872
6.6819301 2.6735969 -0.77820164
6.6778646 2.6245499 -0.77572262
6.708674 2.589251 -0.77752554
6.73001 2.5501513 -0.77820164
6.755775 2.5126195 -0.77944118
6.7691979 2.470438 -0.77921581
6.7851644 2.4291916 -0.77932847
6.8065042 2.3898175 -0.78011727
6.8219795 2.3483319 -0.78022993
6.8334355 2.3054757 -0.77989191
6.8380194 2.2603841 -0.77876508
6.8337994 2.212568 -0.77662408
6.8425107 2.1690934 -0.7760607
6.8509464 2.1255953 -0.77549726
6.8847771 2.0898693 -0.77797627
6.8898501 2.0453231 -0.77707481
6.8898654 1.9994086 -0.77560997
6.9000916 1.9565533 -0.7753846
6.898561 1.910465 -0.77380699
6.9091945 1.8678409 -0.77369434
6.9262896 1.8269325 -0.77437043
6.9518037 1.7881128 -0.7760607
6.9510789 1.7425237 -0.77470845
6.9741883 1.7029046 -0.77617335
6.9632387 1.6550237 -0.77369434
6.9451885 1.6057743 -0.77042651
6.9665437 1.5657445 -0.7717787
6.9954348 1.5272088 -0.77403235
6.9366312 1.469835 -0.76614457
7.0048895 1.4394486 -0.77301824
6.9599929 1.3857658 -0.76682067
6.9898295 1.3471721 -0.76929969
6.9872193 1.3022548 -0.76806021
7.0312605 1.2658737 -0.77222943
6.9928842 1.2147117 -0.76693338
7.0119658 1.1737505 -0.76828557
6.9807777 1.1245387 -0.76389092
7.031733 1.0885268 -0.76896167
7.0323825 1.0444843 -0.76828557
7.0435777 1.0020148 -0.76884896
6.9826431 0.94966799 -0.76118654
6.974544 0.90501463 -0.75960898
7.0351887 0.8690272 -0.76591921
7.0413756 0.8259595 -0.76603186
6.9386678 0.77077538 -0.75374943
7.0045357 0.73461515 -0.76073581
6.983202 0.68908387 -0.75780606
7.0090652 0.64823717 -0.76028508
7.0396395 0.6075263 -0.76332748
7.1105852 0.56972051 -0.77098995
7.0703468 0.52285337 -0.76603186
7.0932488 0.48080575 -0.76828557
7.0920987 0.43702868 -0.76783484
7.0371046 0.39030939 -0.76129919
7.0224957 0.34629029 -0.75938362
7.0225029 0.30310875 -0.75915825
6.9765692 0.25824684 -0.75374943
7.0018582 0.21617179 -0.75645381
6.988153 0.17283577 -0.7547636
6.9781537 0.12975021 -0.75352407
6.9768314 0.086905755 -0.7532987
7.0467863 0.044538554 -0.76118654
7.0658059 0.0013039809 -0.76332748
7.020968 -0.041787386 -0.75825679
7.1070189 -0.085906528 -0.76806021
7.0626459 -0.12871851 -0.76310211
7.0796032 -0.17248631 -0.7651304
7.023787 -0.21425943 -0.75893289
7.0779462 -0.25938728 -0.76524311
7.0811849 -0.30302399 -0.7658065
7.0861397 -0.34680724 -0.7665953
7.0154214 -0.38651267 -0.75882018
7.0615144 -0.4325251 -0.76434165
7.0379086 -0.47444329 -0.76197529
7.0854039 -0.52133393 -0.76772213
7.0899954 -0.56543082 -0.76862359
7.0388732 -0.60484296 -0.76321483
6.9934726 -0.64419568 -0.75848216
7.0279541 -0.69088376 -0.76287675
7.0443363 -0.73616111 -0.76524311
7.0574632 -0.78133756 -0.7672714
7.019968 -0.82082039 -0.76355284
7.0404406 -0.86703491 -0.76648265
7.0684924 -0.91455102 -0.77031386
7.0302548 -0.95350015 -0.7665953
6.9475369 -0.98573595 -0.75780606
6.983623 -1.0346057 -0.76265138
6.9064393 -1.0665227 -0.75453824
6.9193864 -1.1120319 -0.75679189
7.0271001 -1.173612 -0.76997578
6.9855003 -1.21077 -0.76603186
7.0287948 -1.2627429 -0.77189142
6.947648 -1.2922239 -0.76344019
6.9464183 -1.336143 -0.76422894
6.9254198 -1.3762233 -0.7627641
6.935339 -1.4224832 -0.76490504
6.9293966 -1.4656276 -0.76524311
6.8882351 -1.5011377 -0.76152456
6.9399757 -1.5570757 -0.76862359
6.8751044 -1.5868945 -0.76220065
6.9203453 -1.6421226 -0.76862359
6.8715243 -1.6751429 -0.76411629
6.8842506 -1.7230631 -0.76682067
6.8745108 -1.7655187 -0.76693338
6.8443308 -1.8026065 -0.76467967
6.8609614 -1.8520768 -0.76794749
6.8054137 -1.8819598 -0.7627641
6.7688804 -1.9166446 -0.75983435
6.7722631 -1.9625659 -0.76163727
6.7972474 -2.015095 -0.76603186
6.8113804 -2.0648341 -0.76918703
6.7938371 -2.105119 -0.76862359
6.7694249 -2.1431673 -0.7672714
6.7674923 -2.1883311 -0.76862359
6.7624297 -2.2326176 -0.76963776
6.742012 -2.2718484 -0.76884896
6.7119708 -2.3076828 -0.76693338
6.7023735 -2.350467 -0.76749676
6.6822114 -2.3895407 -0.76682067
6.6907625 -2.4390032 -0.76963776
6.638413 -2.466172 -0.7651304
6.6575403 -2.5198705 -0.76929969
6.6502976 -2.5638893 -0.77031386
6.654789 -2.6126339 -0.77279288
6.6211019 -2.6464119 -0.77065188
6.6038189 -2.686614 -0.77053922
6.5853734 -2.7263236 -0.77031386
6.5547853 -2.7608945 -0.76862359
6.5404615 -2.8022358 -0.76896167
6.5413628 -2.8502519 -0.77121532
6.5246592 -2.8907378 -0.77132797
6.5095172 -2.9319417 -0.77166605
6.4886942 -2.9705877 -0.77132797
6.4838586 -3.0166321 -0.77301824
6.459837 -3.0538118 -0.77234215
6.4499345 -3.0976923 -0.77346897
6.4272337 -3.1354675 -0.77301824
6.4185586 -3.1801383 -0.77437043
6.3918233 -3.2158897 -0.77346897
6.3666615 -3.2523367 -0.77279288
6.3536425 -3.2949998 -0.77369434
6.3508906 -3.343179 -0.77594799
6.3249993 -3.3792753 -0.77527189
6.3155012 -3.4241774 -0.7767368
6.285666 -3.458075 -0.77560997
6.2651968 -3.4970622 -0.77572262
6.2479444 -3.5378866 -0.77628607
6.2692008 -3.6008992 -0.78192019
6.2366853 -3.633297 -0.780568
6.2005863 -3.6634099 -0.77876508
6.1703196 -3.6967914 -0.77775091
6.1466713 -3.7340665 -0.77763826
6.1219516 -3.7706692 -0.77741289
6.1155567 -3.8186865 -0.77966654
6.097888 -3.8598588 -0.78045529
6.0791073 -3.9004211 -0.78113139
6.0617247 -3.9419816 -0.78203285
6.0573354 -3.9922235 -0.78473729
6.0467725 -4.0386968 -0.78665286
6.0078883 -4.0662556 -0.78473729
5.9738111 -4.0968618 -0.78349775
5.970593 -4.148747 -0.78654021
5.9669623 -4.2007461 -0.78958261
5.9459286 -4.2407413 -0.79025871
5.9318776 -4.2858729 -0.79194897
5.8934402 -4.3133874 -0.79025871
5.8636699 -4.3471007 -0.78980798
5.8384757 -4.384191 -0.79003334
5.8130465 -4.4211359 -0.79025871
5.787384 -4.4579334 -0.79048407
5.7560043 -4.4903045 -0.78992069
5.7299032 -4.5267701 -0.79014605
5.7012439 -4.5612221 -0.79003334
5.6731496 -4.5961185 -0.79003334
5.6517553 -4.6365132 -0.79104751
5.6247287 -4.6723742 -0.79127288
5.6065998 -4.7157526 -0.79285043
5.585124 -4.7565074 -0.79397726
5.5573387 -4.791985 -0.79420263
5.5345678 -4.8318748 -0.7952168
5.5070496 -4.8677177 -0.79555482
5.4755974 -4.9000912 -0.79532945
5.4476371 -4.9355979 -0.79566753
5.4143209 -4.9662447 -0.7952168
5.3822904 -4.9980206 -0.79499143
5.3565898 -5.0357156 -0.79578018
5.3371072 -5.0794477 -0.7975831
5.3180046 -5.1238194 -0.79949874
5.2893109 -5.1591287 -0.79994947
5.2561412 -5.1900902 -0.7997241
5.2340355 -5.2320776 -0.80130166
5.209516 -5.2718687 -0.8025412
5.1826234 -5.3094225 -0.80344266
5.1547761 -5.3461289 -0.80423141
5.1184492 -5.3740602 -0.80366802
5.0860591 -5.4060888 -0.80378067
5.0507627 -5.4350114 -0.80344266
5.0226946 -5.4717555 -0.80434412
5.0003729 -5.5149841 -0.80625969
4.9584842 -5.5366802 -0.8049075
4.9152012 -5.556582 -0.80332994
4.8914752 -5.598608 -0.80513287
4.8667684 -5.6397996 -0.80682313
4.8269153 -5.663506 -0.80592167
4.7575183 -5.651969 -0.79983675
2.934556 -3.5302465 -0.48263425
2.8895097 -3.5197725 -0.47846496
2.8522131 -3.5181413 -0.4756479
2.7982771 -3.4952438 -0.46978837
2.7564402 -3.4866273 -0.46606985
2.7178729 -3.4815459 -0.46291471
2.675832 -3.4714019 -0.4590835
2.6382318 -3.4664083 -0.45604104
2.6013911 -3.461879 -0.45311129
2.5700347 -3.4642105 -0.45119569
2.5346379 -3.4606771 -0.44849131
2.5034573 -3.4624765 -0.44657567
2.4677322 -3.4575546 -0.44375861
2.4333069 -3.4539497 -0.44116691
2.4012885 -3.453316 -0.43902594
2.3271956 -3.39098 -0.42843372
2.2935276 -3.3862751 -0.42584202
2.2693932 -3.3953278 -0.42516592
2.2496114 -3.4108474 -0.42539129
2.2318928 -3.4295831 -0.42606738
2.2097335 -3.4415412 -0.42584202
2.1821933 -3.4449627 -0.42448983
2.1552215 -3.4490192 -0.42325032
2.125675 -3.4486456 -0.4214474
2.0982792 -3.4514356 -0.42009518
2.0714409 -3.4548719 -0.41885567
2.0370526 -3.4452801 -0.41592592
2.0073652 -3.4431224 -0.41401032
1.9812483 -3.4467604 -0.41288349
1.9561423 -3.451937 -0.411982
1.9305629 -3.4560678 -0.41096786
1.8982961 -3.4478297 -0.40837616
1.8638337 -3.4349601 -0.40522105
1.8413162 -3.4437032 -0.404883
0 -0 -0
0 -0 -0
1.7644974 -3.4513571 -0.40161517
1.744181 -3.4638937 -0.40184054
1.7175961 -3.4638488 -0.40048835
1.696746 -3.4752154 -0.40060103
0 -0 -0
1.5910649 -3.3628521 -0.38392395
1.6098366 -3.4572191 -0.39451614
1.5844532 -3.457999 -0.39338931
1.5779096 -3.5002649 -0.39744592
1.5636544 -3.5262301 -0.3994742
1.540002 -3.5312045 -0.39891079
1.5218313 -3.5488057 -0.39992493
1.5007997 -3.5599077 -0.4001503
1.4804502 -3.572721 -0.40060103
0 -0 -0
0 -0 -0
1.4304315 -3.6400552 -0.40555909
1.4220247 -3.6849153 -0.40995371
1.4032612 -3.7037919 -0.41119322
1.3884765 -3.7337518 -0.41378495
1.3771244 -3.7739365 -0.41761616
1.3606414 -3.8010247 -0.41986981
1.335647 -3.8046143 -0.4193064
1.3394482 -3.8916566 -0.42877176
1.3212627 -3.9167488 -0.43080008
1.3028195 -3.9417634 -0.43282837
0 -0 -0
1.2663622 -3.9953406 -0.43733567
0 -0 -0
1.2847853 -4.2330618 -0.46370348
0 -0 -0
0 -0 -0
0 -0 -0
0 -0 -0
1.241219 -4.5918069 -0.50145227
1.2604203 -4.7789979 -0.522524
1.2602869 -4.9001923 -0.5358206
1.2640291 -5.0427642 -0.55159622
1.2365997 -5.0649042 -0.55328643
1.7106397 -7.1971774 -0.80096358
1.6680137 -7.2143145 -0.80175239
1.6256776 -7.2331386 -0.80276656
1.5799934 -7.2371526 -0.80209047
1.5343211 -7.2408791 -0.80141437
1.4912634 -7.2569699 -0.80220312
1.4476779 -7.2708559 -0.80276656
1.3323123 -6.9127522 -0.76039773
1.2878683 -6.9100518 -0.75915825
1.2468536 -6.9256473 -0.76005971
1.2062063 -6.9439363 -0.76129919
1.1630841 -6.9482665 -0.76096117
1.1577358 -7.1867824 -0.78755432
1.1315597 -7.3096185 -0.80085093
1.0878557 -7.3242865 -0.80175239
1.0445743 -7.3426285 -0.80310458
0.99722373 -7.3321619 -0.80118895
0.95285529 -7.3430696 -0.80175239
0.90631866 -7.3369446 -0.8004002
0.86070389 -7.3374329 -0.79983675
0.81654412 -7.3504767 -0.80073822
0.76956058 -7.3375607 -0.79870993
0.72237575 -7.3203902 -0.79623091
0.6758886 -7.3078651 -0.79431534
0.63197601 -7.3227644 -0.79555482
0.5890972 -7.3522558 -0.79848456
0.54397351 -7.355732 -0.79848456
0.4986276 -7.3559575 -0.79814655
0.45342174 -7.3578868 -0.79803383
0.40716442 -7.3406882 -0.79578018
0.36064535 -7.3132758 -0.7923997
0.31533611 -7.3054237 -0.79127288
0.26884842 -7.2625384 -0.78620213
0.15092723 -4.8923945 -0.51711524
0.12088059 -4.8922353 -0.51700252
0.090730429 -4.8859305 -0.51621377
0.060600031 -4.8744726 -0.51486158
0.030550312 -4.8528934 -0.51238251
0.0013371261 -7.2039204 -0.77899045
-0.042724725 -7.1799464 -0.77628607
-0.086181492 -7.1298709 -0.77065188
-0 -0 -0
-0.11506583 -4.7174463 -0.49717033
-0.14654963 -4.8000779 -0.50663573
-0.17498222 -4.7712851 -0.50348055
-0.20387314 -4.7611871 -0.50246644
-0 -0 -0
-0 -0 -0
-0.2944504 -4.8052249 -0.50798792
-0.31912127 -4.7319479 -0.49987474
-0 -0 -0
-0.37582359 -4.7108374 -0.49795911
-0 -0 -0
-0 -0 -0
-0.46266535 -4.7050991 -0.49818447
-0 -0 -0
-0.5138123 -4.639811 -0.49142352
-0 -0 -0
-0 -0 -0
-0 -0 -0
-0 -0 -0
-0 -0 -0
-1.013063 -6.8381519 -0.7459743
-1.0918379 -7.0704331 -0.77335626
-1.1091949 -6.9017272 -0.7547636
-0.86533761 -5.1806569 -0.55768108
-0.84774452 -4.890348 -0.52489036
-0.87650567 -4.8782086 -0.52410156
-0.9087826 -4.885438 -0.52556646
-0.9379915 -4.8758669 -0.52511573
-0.96866602 -4.8739181 -0.52556646
-1.4422426 -7.0317035 -0.7760607
-1.4730277 -6.9643936 -0.76929969
-1.5197515 -6.9736705 -0.77144068
-1.5635999 -6.9690619 -0.77200407
-1.6103534 -6.9767642 -0.77403235
-1.6545078 -6.9725528 -0.77470845
-1.6725549 -6.8609052 -0.76287675
-1.7435652 -6.9661827 -0.77639872
-1.7870173 -6.9582405 -0.7767368
-1.8324618 -6.9577146 -0.77797627
-1.8784848 -6.9588108 -0.77944118
-1.7395059 -6.2901702 -0.70214063
-1.7526274 -6.1895089 -0.69154847
-1.7739815 -6.121376 -0.68478745
-1.8163084 -6.1265712 -0.68670309
-1.8602066 -6.1362309 -0.6891821
-2.1065891 -6.7985826 -0.76918703
-2.1536622 -6.8025804 -0.77121532
-2.201169 -6.8072014 -0.77335626
-2.2363551 -6.7737522 -0.77098995
-2.2664554 -6.7260041 -0.76693338
-2.2850718 -6.6461945 -0.75904554
-2.3225212 -6.6226721 -0.75791872
-2.3594339 -6.5980048 -0.75667918
-2.3951104 -6.5703335 -0.75510162
-2.4270768 -6.5331588 -0.75239724
-2.4636009 -6.5088506 -0.75127041
-2.4870527 -6.4509635 -0.74608701
-2.5149701 -6.4059839 -0.74248117
-2.5483296 -6.375669 -0.74067825
-2.5814116 -6.3451862 -0.73887527
-2.6088958 -6.3016849 -0.73549479
-2.6282303 -6.2397714 -0.72986066
-2.643774 -6.1705532 -0.72332507
-2.6827767 -6.1569476 -0.72366309
-2.6915288 -6.0749598 -0.71554995
-2.7250812 -6.0501766 -0.71453577
-2.7323768 -5.9682918 -0.70642263
-2.7689462 -5.9514136 -0.70642263
-2.7850296 -5.8911915 -0.7010138
-2.8176839 -5.8668265 -0.70011234
-2.8318486 -5.8047743 -0.69447821
-2.8502104 -5.7525649 -0.69008356
-2.872951 -5.710114 -0.68692845
-2.8939223 -5.664947 -0.68343526
-2.8998115 -5.5915112 -0.67633623
-2.931289 -5.5683374 -0.67566013
-2.9457369 -5.5134373 -0.67092746
-2.9624631 -5.4638119 -0.66687089
-2.9772556 -5.4115782 -0.66247624
-3.007499 -5.3880024 -0.66180015
-3.0336487 -5.3573418 -0.66022259
-3.0283604 -5.2722802 -0.651546
-3.0686555 -5.2673368 -0.65334892
-3.076659 -5.2073445 -0.64794016
-3.0845535 -5.1483064 -0.64264405
-3.11918 -5.1343784 -0.64332014
-3.1454146 -5.1066823 -0.64219332
-3.1487994 -5.0426154 -0.63622111
-3.1451409 -4.9686255 -0.62889671
-3.1696668 -4.9400344 -0.62765723
-3.2031684 -4.9254909 -0.62833333
-3.2316902 -4.9032545 -0.62799525
-3.2451601 -4.8585439 -0.62461478
-3.2737966 -4.836895 -0.62438941
-3.2961085 -4.8060627 -0.62292451
-3.3215673 -4.780036 -0.62213576
-3.3468308 -4.7538776 -0.62134695
-3.3424757 -4.6863308 -0.61481136
-3.3467288 -4.6319051 -0.61007869
-3.3809547 -4.6193013 -0.61120552
-3.3908916 -4.5737243 -0.60771233
-3.4296303 -4.5671344 -0.60974061
-3.441951 -4.5254412 -0.60681087
-3.4678349 -4.5018749 -0.60647279
-3.4929481 -4.4773779 -0.60602206
-3.520355 -4.4558611 -0.60602206
-3.5420432 -4.4271936 -0.60500795
-3.5485017 -4.3798976 -0.60128939
-3.5595553 -4.3388362 -0.5984723
-3.5638902 -4.2901611 -0.59452844
-3.5920658 -4.270494 -0.59486645
-3.5905008 -4.2158432 -0.59002107
-3.609164 -4.1854548 -0.5887816
-3.6184416 -4.1445169 -0.5859645
-3.6365654 -4.1140471 -0.58472502
-3.6511393 -4.0798082 -0.5829221
-3.6427484 -4.0205088 -0.57728791
-3.6666775 -3.9973495 -0.57717526
-3.6539509 -3.9347277 -0.57097769
-3.6671364 -3.9006495 -0.56917477
-3.6793566 -3.8658385 -0.56725913
-3.6775007 -3.8167131 -0.56308985
-3.6668563 -3.7592208 -0.55756843
-3.6870608 -3.7338223 -0.5571177
-3.6979604 -3.6991816 -0.55520207
-3.7311895 -3.6868985 -0.55689234
-3.6947281 -3.6063247 -0.54753959
-3.7167866 -3.5835865 -0.54753959
-3.7257547 -3.5483773 -0.54551131
-3.7250235 -3.5043421 -0.54201818
-3.7551894 -3.489537 -0.54337037
-3.78019 -3.4697897 -0.54393375
-3.7815351 -3.4285083 -0.54089135
-3.7891781 -3.3933079 -0.538863
-3.8002532 -3.3614352 -0.53739816
-3.7938704 -3.3145173 -0.53334159
-3.7817907 -3.2632608 -0.52849621
-3.8183789 -3.2541752 -0.53097522
-3.8017876 -3.1999691 -0.52556646
-3.8098898 -3.167053 -0.52387619
-3.8161957 -3.1328971 -0.52196062
-3.8307164 -3.1056676 -0.52128446
-3.8295343 -3.0659566 -0.51835471
-3.8467157 -3.0411687 -0.51812935
-3.8504231 -3.0058899 -0.51598841
-3.8530562 -2.9700739 -0.51373476
-3.8577671 -2.9361446 -0.51181912
-3.8367894 -2.8831666 -0.50629765
-3.8360553 -2.8459518 -0.50370592
-3.8398187 -2.8123784 -0.50179034
-3.8835731 -2.8079793 -0.5055089
-3.8546326 -2.7511909 -0.49908593
-3.8673799 -2.7246258 -0.49852252
-3.9109445 -2.7195671 -0.50224108
-3.9210041 -2.69102 -0.50133961
-3.8601141 -2.6145256 -0.49074739
-3.8835182 -2.5957611 -0.49176157
-3.8836136 -2.5614874 -0.48962057
-3.8925955 -2.5332735 -0.48871911
-3.9222791 -2.5184691 -0.49063471
-3.9149961 -2.4799967 -0.48759228
-3.926769 -2.4538214 -0.48714155
-3.9409056 -2.4291596 -0.48702887
-3.9557364 -2.404933 -0.48702887
-3.962749 -2.3760166 -0.48601472
-3.9567273 -2.3395178 -0.48331034
-3.9555573 -2.306186 -0.48128203
-3.9420683 -2.2660234 -0.47767618
-3.9558983 -2.2417927 -0.47767618
-3.9956017 -2.232017 -0.48105666
-3.9613514 -2.1810958 -0.47485912
-3.9851394 -2.162436 -0.47621131
-3.9641612 -2.1196675 -0.47181666
-3.9674232 -2.0902085 -0.47057715
-3.9625361 -2.0566692 -0.4683235
-3.9759657 -2.0327692 -0.46843618
-3.9777145 -2.0029712 -0.46708399
-3.9934902 -1.9802928 -0.46753472
-3.9966376 -1.9513916 -0.4664079
-4.0031629 -1.9242486 -0.4657318
-4.0202832 -1.9021997 -0.4664079
-4.0084605 -1.8665882 -0.46347812
-4.0324841 -1.8477535 -0.4650557
-0.27561197 -0.12384927 0.0037054454
-0.27909157 -0.12336444 0.0033673965
-0.25798538 -0.1121145 0.0060717878
-0.26323429 -0.11248793 0.005508373
-0.25018626 -0.10507927 0.0071986173
-0.2756097 -0.11381477 0.0041561774
-0.27630287 -0.11212152 0.0041561774
-0.2659156 -0.10599396 0.005508373
-0 -0 -0
-0 -0 -0
-0 -0 -0
-0 -0 -0
-0 -0 -0
-0 -0 -0
-0 -0 -0
-0 -0 -0
-0 -0 -0
-0 -0 -0
-0 -0 -0
-0 -0 -0
-0 -0 -0
-0 -0 -0
-0 -0 -0
-0 -0 -0
-0 -0 -0
-0 -0 -0
-0 -0 -0
-0 -0 -0
-0 -0 -0
-0 -0 -0
-0 -0 -0
-0 -0 -0
-0 -0 -0
-0 -0 -0
-0 -0 -0
-0 -0 -0
-0 -0 -0
-0 -0 -0
-0 -0 -0
-0 -0 -0
-0 -0 -0
-0 -0 -0
-0 -0 -0
-0 -0 -0
-0 -0 -0
-0 -0 -0
-0 -0 -0
-0 -0 -0
-0 -0 -0
-0 -0 -0
-0 -0 -0
-0 -0 -0
-0 -0 -0
-0 -0 -0
-0 -0 -0
-0 -0 -0
-0 -0 -0
-0 -0 -0
-0 -0 -0
-0 -0 -0
-0 -0 -0
-0 -0 -0
-0 -0 -0
-0 -0 -0
-0 -0 -0
-0 0 -0
-0 0 -0
-0 0 -0
-0 0 -0
-0 0 -0
-0 0 -0
-0 0 -0
-0 0 -0
-0.27789524 0.033155788 0.0028631389
-0 0 -0
-0.27648437 0.036429778 0.0029882991
-0 0 -0
-0 0 -0
-0 0 -0
-0 0 -0
-0 0 -0
-0 0 -0
-0.28150019 0.049498562 0.0021121786
-0 0 -0
-0 0 -0
-0 0 -0
-0 0 -0
-0 0 -0
-0 0 -0
-0.26749936 0.05892922 0.0036140995
-0 0 -0
-0 0 -0
-0 0 -0
-0 0 -0
-0.2569181 0.064882547 0.0047405399
-0.25843379 0.066963844 0.00449022
-0.2589758 0.068807237 0.00436506
-0 0 -0
-0.26097545 0.072792083 0.0039895796
-0 0 -0
-0 0 -0
-0 0 -0
-0 0 -0
-0 0 -0
-0 0 -0
-0.2632612 0.08579918 0.0032386193
-0.26272979 0.087412909 0.0032386193
-0.26125038 0.088700406 0.0033637793
-0.2616373 0.09063042 0.0032386193
-0 0 -0
-0.26050544 0.093834288 0.0032386193
-0 0 -0
-0.25933433 0.097024024 0.0032386193
-0.25873411 0.098613448 0.0032386193
-0.25997093 0.10092499 0.0029882991
-0 0 -0
-0 0 -0
-0.26998419 0.11063121 0.001361218
-0.27478546 0.11459854 0.00061025767
-0.27407712 0.11628244 0.00061025767
-0.26972088 0.11637531 0.001110898
-0.2699087 0.11843033 0.00098573789
-0 0 -0
-0.26392534 0.11966695 0.0016115382
-0.26588428 0.12254069 0.0012360581
-0.26602417 0.12459419 0.001110898
-0.2634663 0.12536441 0.001361218
-0.26447517 0.12784933 0.001110898
-0.26368573 0.12946971 0.001110898
-0.26111412 0.13019273 0.001361218
-0.26207709 0.13269579 0.001110898
-0.25949681 0.13338719 0.001361218
-0.25867346 0.13497692 0.001361218
-0.26046509 0.13796516 0.00098573789
-0.26048565 0.14003396 0.0008605778
-0.25875244 0.14115107 0.00098573789
-0.25701532 0.14225221 0.001110898
-0.2552745 0.14333735 0.0012360581
-0.25525033 0.14539547 0.001110898
-0.25263923 0.14595942 0.001361218
-0.25259289 0.14801183 0.0012360581
-0.2533817 0.15057939 0.00098573789
-0.25499621 0.15367758 0.00061025767
-0.25404847 0.15523933 0.00061025767
-0.25224981 0.15626942 0.00073541771
-0.24793378 0.15569042 0.0012360581
-0.24530415 0.1561366 0.0014863781
-0.24434149 0.15763883 0.0014863781
-0.24419783 0.15968141 0.001361218
-0.24568792 0.16283086 0.00098573789
-0.24879131 0.16711737 0.00035993749
-0.2485792 0.16920222 0.00023477743
-0.24753632 0.1707243 0.00023477743
-0.24729516 0.17281137 0.00010961735
-0.24380758 0.17259628 0.00048509758
-0.24354793 0.17467035 0.00035993749
-0.24327198 0.17674772 0.00023477743
-0.24457322 0.1800106 -0.0001407028
-0.24822289 0.18508418 -0.00089166325
-0.24945095 0.18840648 -0.0012671435
-0.24750446 0.18932779 -0.0011419834
-0.24712013 0.19145344 -0.0012671435
-0.24594074 0.19296613 -0.0012671435
-0.24397762 0.19385147 -0.0011419834
-0.24201292 0.19472 -0.0010168233
-0.24004677 0.19557174 -0.00089166325
-0.23884225 0.19704096 -0.00089166325
-0.24218288 0.20233627 -0.0016426237
-0.24244699 0.20510559 -0.0018929439
-0.24418843 0.20918208 -0.0023935842
-0.24514173 0.2126348 -0.0027690644
-0.24383241 0.21413496 -0.0027690644
-0.24325298 0.21628897 -0.0028942244
-0.24118629 0.21711104 -0.0027690644
-0 0 -0
-0.23850384 0.22005442 -0.0027690644
-0 0 -0
-0 0 -0
-0 0 -0
-0 0 -0
-0 0 -0
-0 0 -0
-0 0 -0
-0 0 -0
-0 0 -0
-0 0 -0
-0 0 -0
-0 0 -0
-0 0 -0
-0 0 -0
-0 0 -0
-0 0 -0
-0 0 -0
-0 0 -0
-0 0 -0
-0 0 -0
-0 0 -0
-0 0 -0
-0 0 -0
-0 0 -0
-0 0 -0
-0 0 -0
-0 0 -0
-0 0 -0
-3.6897895 4.9118943 -0.73683292
-3.6719892 4.951179 -0.73946124
-3.6491578 4.984025 -0.74108833
-3.6376817 5.0328603 -0.74521863
-3.6176779 5.0704331 -0.74759668
-3.6093431 5.1249862 -0.75260305
-3.5914159 5.1665902 -0.75560689
-3.5646968 5.1958938 -0.75673336
-3.5410898 5.2299929 -0.75861079
-3.5138917 5.2590475 -0.75973719
-3.5028493 5.3128171 -0.76461846
-3.4912786 5.3666482 -0.76949966
-3.4614985 5.3929796 -0.77025062
-3.4479756 5.4451351 -0.77488154
-3.4313152 5.4931183 -0.77888668
-3.4147153 5.5419464 -0.78301698
-3.3914635 5.5806012 -0.78564531
-3.3653162 5.614923 -0.7876479
-3.3469493 5.6628008 -0.79165304
-3.3371105 5.7260947 -0.79791105
-3.3093252 5.7593679 -0.79978842
-3.2861454 5.8011484 -0.80291742
-3.26161 5.8411283 -0.80579609
-3.2333596 5.8749394 -0.80779868
-3.1958323 5.8920517 -0.80742317
-3.1675668 5.9264264 -0.80955088
-3.1426969 5.9676991 -0.81267989
-3.1083043 5.9912739 -0.81330574
-3.0723867 6.0120001 -0.81355602
-3.0465875 6.052896 -0.81668502
-3.0168779 6.0865889 -0.81881273
-2.9855645 6.1174688 -0.82056499
-2.9569919 6.1544542 -0.82319337
-2.9276536 6.1904216 -0.82569653
-2.9009144 6.2325563 -0.82907587
-2.8650954 6.2556515 -0.82982683
-2.8323617 6.285778 -0.83157909
-2.8057957 6.3302517 -0.83533388
-2.7712605 6.3573537 -0.83671063
-2.7267303 6.3614707 -0.83495837
-2.6914971 6.3872252 -0.83621001
-2.6564295 6.4137034 -0.83758676
-2.6230075 6.4445863 -0.8395893
-2.5848877 6.4642444 -0.84008998
-2.5538766 6.5021477 -0.84309381
-2.5107203 6.5093641 -0.84196734
-2.4710834 6.5255752 -0.84209251
-2.434797 6.5508447 -0.84346926
-2.3999927 6.5805755 -0.84547186
-2.3595698 6.5951777 -0.84547186
-2.3187299 6.6085954 -0.84534669
-2.2778139 6.6217599 -0.84522152
-2.2412593 6.6478343 -0.84684861
-2.2004268 6.6614614 -0.84684861
-2.1585956 6.6720057 -0.84647316
-2.1176164 6.6851249 -0.84647316
-2.0756764 6.6951494 -0.84609765
-2.0354202 6.710608 -0.84647316
-1.9908224 6.711556 -0.84497118
-1.9471184 6.7150688 -0.84384477
-1.9075005 6.7326174 -0.84459573
-1.8661541 6.7441945 -0.84459573
-1.8239617 6.7526445 -0.84422022
-1.7845153 6.7713847 -0.84522152
-1.7424397 6.7802849 -0.84497118
-1.6957453 6.770637 -0.84234285
-1.6499401 6.7635641 -0.84008998
-1.6058891 6.7629418 -0.83871323
-1.5643622 6.7726684 -0.83871323
-1.5253826 6.7937565 -0.84021515
-1.4849358 6.8088045 -0.84096611
-1.4414874 6.8100224 -0.83996481
-1.3966848 6.8041601 -0.83808738
-1.3527819 6.801898 -0.83671063
-1.3093343 6.801302 -0.83558422
-1.2654006 6.7975025 -0.83408231
-1.2210369 6.7904916 -0.83220488
-1.1791788 6.7968783 -0.83207971
-1.1376152 6.8049641 -0.83220488
-1.0955244 6.8098574 -0.83195454
-1.0528109 6.8105679 -0.83120358
-1.0115838 6.8208256 -0.83170426
-0.96859807 6.8190455 -0.83070296
-0.92633897 6.8219109 -0.83032745
-0.8836993 6.8215628 -0.82957649
-0.84170508 6.8258719 -0.82945138
-0.79957604 6.8289371 -0.82920104
-0.75580364 6.8169508 -0.82707334
-0.71282721 6.8106055 -0.82569653
-0.67083061 6.8128767 -0.82544625
-0.62856001 6.8119245 -0.82482046
-0.58675098 6.8156533 -0.82482046
-0.54373693 6.8042903 -0.82294303
-0.49993819 6.7797933 -0.81943858
-0.45766154 6.7728343 -0.81818694
-0.41736913 6.7963109 -0.82081532
-0.37604186 6.8056784 -0.82169145
-0.33403349 6.8029032 -0.82106566
-0.29224297 6.8038335 -0.82094049
-0.24910964 6.7678223 -0.8161844
-0.20742719 6.7642651 -0.81555861
-0.16623253 6.7783046 -0.8171857
-0.12476497 6.7861409 -0.81806177
-0.083231471 6.7957072 -0.81918824
-0.041585263 6.8050189 -0.82031465
0.0001691619 6.7991934 -0.81956369
0.041712314 6.7712851 -0.81605923
0.083123282 6.7599888 -0.81468248
0.12430492 6.7434802 -0.81267989
0.16511531 6.7197781 -0.80980122
0.20616022 6.7126884 -0.80905026
0.24701421 6.702374 -0.80792385
0.28740704 6.6838818 -0.80579609
0.32787552 6.671092 -0.80441934
0.36847267 6.6630111 -0.80366838
0.40861678 6.6487417 -0.80216646
0.44296265 6.5510821 -0.79015112
0.48183376 6.5304313 -0.78789824
0.51618862 6.4561462 -0.77888668
0.55545181 6.4489036 -0.77838606
0.59382313 6.4325309 -0.77675897
0.63026059 6.398159 -0.772879
0.66681617 6.3685164 -0.76962483
0.70182681 6.3278203 -0.76499391
0.73566967 6.2810235 -0.75961202
0.7711544 6.2517753 -0.75648302
0.80592501 6.219377 -0.75297856
0.84326893 6.208416 -0.7522276
0.87785357 6.1785688 -0.7490986
0.91166645 6.1455879 -0.74559408
0.94100958 6.0859532 -0.73871028
0.97076011 6.0330486 -0.73270261
0.98990482 5.9203196 -0.71906018
0.99326956 5.7245002 -0.6947791
1.0093889 5.6128426 -0.68126184
1.0365379 5.5675297 -0.6762554
1.0614792 5.513329 -0.67012256
1.0898635 5.4794669 -0.66661811
1.113279 5.4231133 -0.66023493
1.1348102 5.360857 -0.65310079
1.1568896 5.3043585 -0.64671767
1.1774485 5.2439208 -0.63983387
1.2046853 5.2153316 -0.63708031
1.227486 5.1692319 -0.63207394
1.2535324 5.1384711 -0.6290701
1.2746638 5.0893016 -0.62368822
1.2925205 5.0294981 -0.61692953
1.3170304 4.9974895 -0.61380053
1.3435267 4.9739904 -0.61179799
1.3652828 4.9341002 -0.60766768
1.3876828 4.8979497 -0.60403806
1.4141152 4.876956 -0.60241097
1.4327188 4.830143 -0.5974046
1.4557006 4.7994256 -0.59452587
1.4763017 4.7619762 -0.59077108
1.5087909 4.7632313 -0.59214789
1.5382947 4.754828 -0.592273
1.5677522 4.7462416 -0.59239817
1.5981138 4.740293 -0.59289885
1.6265237 4.7285218 -0.59264851
1.6486044 4.6987944 -0.59002012
1.6827554 4.7035351 -0.59202272
1.7139651 4.6996455 -0.59289885
1.7379272 4.6760221 -0.59114659
1.7701017 4.6745477 -0.59239817
1.7994653 4.6654496 -0.59264851
1.8171705 4.6266193 -0.58889371
1.8388903 4.5988021 -0.58664083
1.8648281 4.5819187 -0.58588988
1.8936667 4.5722232 -0.58614016
1.9278533 4.5751452 -0.58814275
1.947286 4.54317 -0.5853892
1.9862322 4.5565991 -0.58889371
2.023807 4.566093 -0.59189755
2.0444458 4.5373087 -0.58964467
2.0817544 4.5454235 -0.59252334
2.1116998 4.5370612 -0.59314913
2.1462886 4.5383677 -0.59515172
2.1706564 4.5179591 -0.59415042
2.1996431 4.5072298 -0.59452587
2.2228496 4.4847598 -0.5932743
2.2463095 4.4630613 -0.59214789
2.2741036 4.4500775 -0.592273
2.3041086 4.4413238 -0.59302396
2.3327041 4.4297357 -0.59339947
2.3649869 4.424963 -0.59477621
2.3826292 4.3929281 -0.592273
2.4210243 4.3990841 -0.59527683
2.4537776 4.3945398 -0.59677875
2.4748254 4.3690429 -0.59527683
2.5020814 4.3546357 -0.595402
2.5432465 4.3640566 -0.59903169
2.5972457 4.3944855 -0.60579032
2.6302836 4.3886766 -0.60729223
2.6535544 4.3665209 -0.60641611
2.6740494 4.3400221 -0.60491419
2.6964226 4.316802 -0.60391289
2.7302926 4.3119092 -0.60566515
2.7663481 4.310102 -0.60791802
2.7949071 4.2963734 -0.60841864
2.837059 4.3031607 -0.61204833
2.8805015 4.3112411 -0.61592829
2.9185853 4.3107357 -0.61855662
2.9399276 4.2853842 -0.61743021
2.9723978 4.2762246 -0.61880696
2.9991517 4.2587166 -0.61893213
3.0379071 4.2579999 -0.62168562
3.0721154 4.250535 -0.62343788
3.1192441 4.2604184 -0.62794363
3.1494651 4.2467766 -0.62881976
3.1659267 4.2146816 -0.62681723
3.2043469 4.2117553 -0.62944555
3.2325525 4.1951575 -0.62994617
3.2618959 4.1799359 -0.63069713
3.3120954 4.1909738 -0.63570356
3.3445694 4.1790915 -0.63708031
3.3651502 4.1523256 -0.63607907
3.4100814 4.1553702 -0.63995898
3.4469304 4.1481009 -0.64221191
3.4908464 4.1488843 -0.64584154
3.5323269 4.1462641 -0.64897054
3.5589979 4.1260142 -0.64922082
3.5901225 4.1108236 -0.65034729
3.6133065 4.0864882 -0.64997178
3.6469173 4.0738482 -0.65159887
3.6791761 4.0594792 -0.65297568
3.7127373 4.0463295 -0.65460271
3.7618093 4.0496359 -0.65910852
3.8008633 4.0416522 -0.66173685
3.8379073 4.0311861 -0.66398972
3.8728998 4.0182743 -0.66586715
3.9120362 4.0093441 -0.66849548
3.9449317 3.9937334 -0.66999745
3.9777827 3.9778695 -0.67149937
4.025413 3.9763913 -0.67562962
4.0788555 3.9800196 -0.68076122
4.1260629 3.9769452 -0.68476629
4.1769786 3.9768605 -0.68939722
4.2294936 3.9776587 -0.69427848
4.2792664 3.975261 -0.69865906
4.2882233 3.9348457 -0.69603074
4.3019929 3.8991337 -0.69427848
4.3287935 3.8753102 -0.6947791
4.3480306 3.844734 -0.69402814
4.3872347 3.8316848 -0.69665653
4.4369612 3.8273692 -0.70103711
4.4943523 3.8290195 -0.70666933
4.5466146 3.8256381 -0.71142542
4.6081619 3.829366 -0.71768343
4.6607199 3.8249304 -0.72243947
4.7195625 3.8249896 -0.72819686
4.7716084 3.8188913 -0.73282778
4.8315406 3.8184476 -0.73871028
4.9065089 3.8290057 -0.74697089
4.9621367 3.8236506 -0.75210243
5.0392041 3.833972 -0.76061332
5.1110296 3.8393197 -0.76824808
5.1679649 3.8327029 -0.77350479
5.2290139 3.8284607 -0.77938735
5.2516022 3.795723 -0.77926219
5.283679 3.7697651 -0.78063893
5.3237467 3.7492678 -0.78326732
5.3564286 3.7233248 -0.78476924
5.3660822 3.6814103 -0.78276664
5.3828187 3.6445227 -0.78189051
5.4017797 3.6092217 -0.78138989
5.4246521 3.576555 -0.78151506
5.4489903 3.5448253 -0.78189051
5.4789886 3.5166817 -0.78314215
5.4945955 3.4792826 -0.78226602
5.5107913 3.4423501 -0.78151506
5.5081558 3.3939035 -0.77801055
5.5212455 3.355406 -0.77688414
5.5613046 3.3331928 -0.7797628
5.5620055 3.2873993 -0.77688414
5.5726418 3.2477162 -0.77550739
5.5898838 3.2119794 -0.77513188
5.6103501 3.1781089 -0.77525705
5.634943 3.1465259 -0.77600801
5.6645751 3.11763 -0.77750993
5.6827254 3.0823412 -0.77738476
5.6910305 3.0418046 -0.77588284
5.7078319 3.0059035 -0.7756325
5.7314525 2.9735646 -0.77638346
5.7248511 2.925704 -0.772879
5.7497854 2.894089 -0.7738803
5.7594342 2.8547904 -0.77275383
5.7759504 2.8189626 -0.77262866
5.7841949 2.7791736 -0.77137709
5.8199754 2.7525346 -0.77400547
5.8493485 2.7226312 -0.77575767
5.874063 2.6904058 -0.77688414
5.8814144 2.6502383 -0.7756325
5.8866801 2.6092782 -0.77413058
5.8907552 2.5679572 -0.77250355
5.9246402 2.539578 -0.77500671
5.8934798 2.4835367 -0.76862359
5.9122744 2.4488461 -0.76912421
5.9336219 2.4151399 -0.77000034
5.9529357 2.3805277 -0.77062613
5.9535775 2.3385179 -0.7687487
5.9761457 2.3051553 -0.76987517
6.0161586 2.2782764 -0.77337962
6.0374651 2.2440832 -0.77438092
6.0529852 2.2076752 -0.77463126
6.0533381 2.1658165 -0.772879
6.0590234 2.1260066 -0.77187771
6.0700779 2.0881441 -0.77162743
6.0743146 2.0480082 -0.77050096
6.0943036 2.0131865 -0.77150226
6.1263657 1.9821649 -0.77413058
6.1071992 1.9346552 -0.77000034
6.0943151 1.8895111 -0.76674616
6.097249 1.8494912 -0.7656197
6.0751896 1.8021749 -0.76123911
6.1261563 1.7764623 -0.76649582
6.1398048 1.7396504 -0.76687133
6.1427135 1.699829 -0.76587003
6.1559014 1.6628817 -0.76624554
6.192853 1.6321534 -0.76975
6.179688 1.5882013 -0.76674616
6.1883545 1.5500126 -0.76662099
6.1929288 1.5108376 -0.7659952
6.1904988 1.4700614 -0.76449329
6.1936021 1.4307108 -0.76374233
6.215817 1.3957213 -0.76549459
6.1913047 1.3503731 -0.76123911
6.2169461 1.3160539 -0.76349199
6.2190728 1.2766867 -0.76274103
6.199542 1.2330889 -0.75923657
6.22258 1.1980243 -0.76123911
6.221035 1.158188 -0.7601127
6.2543902 1.1247309 -0.76349199
6.2347794 1.0817591 -0.7601127
6.2647858 1.047405 -0.76311654
6.2505236 1.0056396 -0.76048815
6.2448101 0.9654513 -0.75898623
6.2712264 0.93016875 -0.76161462
6.2925324 0.89390147 -0.76361716
6.3008485 0.85567439 -0.76399267
6.2941728 0.81546944 -0.76249069
6.3010273 0.7770763 -0.76274103
6.3214436 0.74024266 -0.76474363
6.283464 0.69674706 -0.75936174
6.294528 0.65890115 -0.76023781
6.329061 0.62327486 -0.76411778
6.2991757 0.58133501 -0.75986236
6.3075666 0.54309767 -0.76048815
6.3503404 0.50753945 -0.76549459
6.3859873 0.47096705 -0.76962483
6.2907577 0.42516929 -0.75723398
6.3189955 0.38813868 -0.76048815
6.313333 0.34892219 -0.75948685
6.2331061 0.3061533 -0.7490986
6.2883935 0.27019185 -0.75585723
6.3474383 0.23370865 -0.76311654
6.2624774 0.19212632 -0.7522276
6.2377505 0.15306887 -0.74897343
6.2534518 0.11506288 -0.75085086
6.2431273 0.076558471 -0.74947405
6.2484403 0.038279384 -0.7500999
6.2555022 -6.240845e-05 -0.75097597
6.2712579 -0.038545966 -0.75297856
6.2927289 -0.077297091 -0.75573206
6.2782488 -0.1156487 -0.75397986
6.2327881 -0.1530647 -0.74834764
6.3001566 -0.19341885 -0.7569837
6.3246288 -0.23302676 -0.76023781
6.3438954 -0.27272826 -0.7628662
6.3143568 -0.31028 -0.75936174
6.2935123 -0.34797418 -0.7569837
6.2536287 -0.38426462 -0.7522276
6.239275 -0.42182365 -0.75072569
6.2395377 -0.46031871 -0.75110114
6.2692318 -0.50121039 -0.75523144
6.2690034 -0.5399242 -0.75560689
6.2853312 -0.58020753 -0.75811011
6.258944 -0.61652154 -0.75523144
6.226428 -0.65191269 -0.75160182
6.2587953 -0.69415838 -0.75623274
6.2081056 -0.72711545 -0.75035018
6.2232203 -0.76762682 -0.75285339
6.2154412 -0.80541432 -0.75247788
6.2713337 -0.85182673 -0.76023781
6.2394681 -0.88651776 -0.75685853
6.2388182 -0.92551458 -0.75748432
6.227139 -0.96286708 -0.75673336
6.2446218 -1.0048451 -0.75973719
6.2275748 -1.0413407 -0.75836045
6.2240009 -1.0800421 -0.7587359
6.2201858 -1.118739 -0.7591114
6.2005248 -1.154521 -0.75748432
6.2293696 -1.1994926 -0.76211524
6.228704 -1.239049 -0.76299137
6.2073784 -1.2744482 -0.76123911
6.1800299 -1.3083985 -0.7587359
6.1912713 -1.3505263 -0.76123911
6.1712523 -1.385879 -0.75973719
6.1616659 -1.4234955 -0.75961202
6.162468 -1.4635702 -0.76086366
6.1967435 -1.5119456 -0.76649582
6.1863875 -1.5496985 -0.76637065
6.1431322 -1.5789777 -0.76199007
6.1688232 -1.6260043 -0.76662099
6.1663918 -1.6658963 -0.76762229
6.147449 -1.701318 -0.76649582
6.142621 -1.74063 -0.76724678
6.1451645 -1.782159 -0.76899904
6.0979719 -1.8091018 -0.76424295
6.1323256 -1.8603172 -0.77025062
6.0923686 -1.8890892 -0.76649582
6.1080894 -1.9351304 -0.77012551
6.1414075 -1.987242 -0.77613318
6.0801144 -2.0086946 -0.76962483
6.0573339 -2.042475 -0.76824808
6.0174823 -2.0702384 -0.76461846
6.0299411 -2.1159966 -0.76799774
6.0345917 -2.1593099 -0.77037579
6.0147047 -2.1939156 -0.76949966
5.9843917 -2.2245543 -0.76724678
6.0031009 -2.2735367 -0.77162743
5.9677496 -2.3021116 -0.7687487
5.9627452 -2.3423147 -0.77000034
5.9519453 -2.3803318 -0.77050096
5.9528484 -2.4231691 -0.77262866
5.983695 -2.4786422 -0.77888668
5.9610605 -2.5122271 -0.77788544
5.9500923 -2.5507116 -0.77851123
5.9170508 -2.5796361 -0.77613318
5.9047389 -2.6175027 -0.7766338
5.8795228 -2.6496065 -0.77538222
5.8162537 -2.6641393 -0.76887387
5.8033948 -2.7014525 -0.76937455
5.8001618 -2.743376 -0.77125192
5.8136215 -2.793529 -0.77550739
5.7919135 -2.8269713 -0.77488154
5.7895689 -2.8699503 -0.77700931
5.7683058 -2.9036355 -0.77650863
5.7371302 -2.9321992 -0.77463126
5.7207918 -2.9682605 -0.77488154
5.7121267 -3.0083942 -0.77625835
5.6865606 -3.0396435 -0.77525705
5.6538506 -3.0669069 -0.77325451
5.6410098 -3.1048906 -0.77413058
5.6157894 -3.1360574 -0.77325451
5.6171565 -3.1821969 -0.77625835
5.6035461 -3.2200646 -0.77713442
5.5802546 -3.2523875 -0.7766338
5.5781269 -3.2971711 -0.77926219
5.5654488 -3.335928 -0.78038859
5.5169001 -3.3530045 -0.77625835
5.4734192 -3.3727355 -0.772879
5.4761796 -3.4209788 -0.77638346
5.4358091 -3.4423037 -0.77350479
5.4037323 -3.4686232 -0.77187771
5.3948207 -3.5098324 -0.77375513
5.4170771 -3.5718219 -0.78038859
5.4049568 -3.6116097 -0.78189051
5.3753018 -3.639698 -0.7807641
5.36023 -3.6776648 -0.78189051
5.3310471 -3.7059536 -0.78088927
5.3065853 -3.7374518 -0.78063893
5.2722473 -3.7618723 -0.77888668
5.2643414 -3.805197 -0.78126472
5.2480974 -3.8427031 -0.78239119
5.2363715 -3.8837001 -0.78426856
5.2092705 -3.9133725 -0.78376794
5.1756873 -3.9380515 -0.78226602
5.1506405 -3.9691291 -0.78214085
5.1496501 -4.0189748 -0.78589565
5.1186671 -4.0455737 -0.78489435
5.0805817 -4.0663638 -0.78276664
5.0447459 -4.0887132 -0.78101438
5.0464015 -4.1416245 -0.78539503
5.0537 -4.1997833 -0.79077691
5.0331488 -4.2351856 -0.79165304
5.0002713 -4.2601967 -0.79052657
4.9875574 -4.302465 -0.79277945
4.95434 -4.3271122 -0.79165304
4.9120908 -4.3436255 -0.78902465
4.8809118 -4.3697124 -0.78827369
4.8451877 -4.3915815 -0.78677177
4.8247285 -4.4272666 -0.78789824
4.8112807 -4.4696198 -0.79027623
4.8126693 -4.5262508 -0.79528266
4.7855244 -4.5563798 -0.79540783
4.7367649 -4.5656867 -0.79177815
4.7157612 -4.6015949 -0.79302979
4.7086086 -4.6513648 -0.79678458
4.6933064 -4.6935005 -0.79916263
4.6679049 -4.72574 -0.79978842
4.6152668 -4.7301445 -0.795533
4.5737658 -4.7455134 -0.79328012
4.5507174 -4.7799563 -0.79440653
4.5430484 -4.8309212 -0.79841167
4.5362744 -4.8834248 -0.80266708
4.4948239 -4.898737 -0.80053937
4.442699 -4.9019613 -0.79640907
4.4363556 -4.9557447 -0.80091488
4.4170341 -4.9955096 -0.80304259
4.3889089 -5.0255075 -0.80354321
4.3534551 -5.0470834 -0.80266708
4.3140426 -5.0638809 -0.80103999
4.2886376 -5.0970898 -0.80216646
4.2306557 -5.0912547 -0.79690975
2.8986683 -3.5316141 -0.53820384
2.8507137 -3.5169554 -0.53294712
2.8086271 -3.5088153 -0.52881688
2.7513731 -3.480829 -0.52155757
2.7122662 -3.4749599 -0.51792794
2.6769683 -3.4734588 -0.51504928
2.6297798 -3.455862 -0.5096674
2.596015 -3.4552722 -0.50703901
2.5635386 -3.4559929 -0.50466096
2.5334954 -3.4596481 -0.50278354
2.4936266 -3.4493937 -0.49877843
2.455708 -3.4412048 -0.49514881
2.4242668 -3.4416051 -0.49289593
2.3991411 -3.4507122 -0.4920198
2.3363996 -3.40482 -0.48275796
2.2865472 -3.3763664 -0.47624964
2.2608278 -3.3829074 -0.4751232
2.2422121 -3.4000297 -0.47562382
2.2267163 -3.4220409 -0.47687542
2.212642 -3.4464951 -0.47850251
2.1808405 -3.4432404 -0.4759993
2.153892 -3.4472997 -0.47462255
2.1290572 -3.4545376 -0.47374642
2.0928824 -3.442946 -0.47011679
2.0676384 -3.4489141 -0.4691155
2.0418954 -3.4538484 -0.46798906
2.0141721 -3.4551675 -0.46636197
1.9914513 -3.4648802 -0.46598649
1.955977 -3.4519973 -0.46235687
1.9246045 -3.4457412 -0.45972851
1.8991216 -3.449662 -0.45860207
1.8722447 -3.4507835 -0.45710012
1.8454256 -3.4517055 -0.45559821
1.8172795 -3.449795 -0.45372081
1.7924237 -3.4538345 -0.45271954
1.7684897 -3.4594665 -0.45196858
1.7427706 -3.4613898 -0.45071697
1.7148921 -3.458683 -0.44883958
1.6888529 -3.4593315 -0.4474628
1.665877 -3.4660516 -0.44696218
1.6450024 -3.4771049 -0.44708732
1.6219623 -3.4835348 -0.4465867
1.6017962 -3.4961278 -0.44696218
1.5831661 -3.5122228 -0.44783828
1.5567633 -3.5109856 -0.44633636
1.5363798 -3.5232003 -0.44671184
1.5186402 -3.5416806 -0.44796345
1.5038122 -3.5673902 -0.45021632
1.4830333 -3.5793004 -0.4505918
0 -0 -0
0 -0 -0
1.4368395 -3.6567852 -0.4574756
1.4193711 -3.678493 -0.45922786
1.4073095 -3.7149699 -0.46298265
1.3972718 -3.7579463 -0.46761358
0 -0 -0
1.364079 -3.811244 -0.47249484
0 -0 -0
0 -0 -0
1.3101692 -3.8845968 -0.47900316
1.296262 -3.9227107 -0.48300827
0 -0 -0
1.2659935 -3.9950745 -0.49051788
1.2837399 -4.1392345 -0.50854093
1.2617717 -4.1584268 -0.51004285
1.2655587 -4.2650175 -0.52305949
1.1493428 -3.9620469 -0.48225731
0 -0 -0
1.2362872 -4.4664087 -0.54646444
1.7595814 -6.5141392 -0.8130554
1.6960797 -6.4355869 -0.8014155
1.6573001 -6.4487553 -0.80179101
1.6169775 -6.4559155 -0.8014155
1.5780392 -6.4686074 -0.80179101
1.5376316 -6.4752722 -0.8014155
1.4949706 -6.4720178 -0.79978842
1.4632668 -6.5168877 -0.80441934
1.4251536 -6.5344677 -0.80554581
1.3838003 -6.5372653 -0.80479485
1.342267 -6.5388298 -0.80391872
1.2994131 -6.533319 -0.80216646
1.2568649 -6.5285034 -0.80053937
1.215876 -6.5312157 -0.79991359
1.1747259 -6.5326943 -0.79916263
1.1347893 -6.5407567 -0.7992878
1.0934906 -6.5407462 -0.79841167
1.0552257 -6.5590878 -0.79991359
1.0149601 -6.5654387 -0.79991359
0.97465622 -6.5715432 -0.79991359
0.9337582 -6.5734706 -0.79941297
0.89233994 -6.5712109 -0.79841167
0.85467613 -6.5972252 -0.80103999
0.81260395 -6.5895443 -0.79941297
0.77227116 -6.5953918 -0.79953808
0.73211557 -6.6029644 -0.79991359
0.689937 -6.5915442 -0.79791105
0.64782917 -6.5788679 -0.79578328
0.60690385 -6.5767913 -0.79503232
0.56747216 -6.5912647 -0.79640907
0.52559876 -6.5768209 -0.79415619
0.48436072 -6.5680485 -0.79265428
0.44458458 -6.5788159 -0.79365557
0.40366358 -6.5725074 -0.79252917
0.36338237 -6.5758514 -0.79265428
0.32220259 -6.561111 -0.79052657
0.28075093 -6.5352101 -0.78702211
0.24155444 -6.5615964 -0.79015112
0.14954998 -4.8661981 -0.57600218
0.12002688 -4.8809099 -0.57775444
0.090274654 -4.8924661 -0.57913119
0.060421072 -4.906817 -0.58088344
0.030483166 -4.9358668 -0.58451307
0.00016765691 -5.0837889 -0.60316193
-0.030969348 -5.0747652 -0.60203552
-0.062280118 -5.0883689 -0.60378772
-0.094054289 -5.1176496 -0.60754257
-0.1581451 -6.438098 -0.77425575
-0.19828874 -6.4578309 -0.77688414
-0.23581691 -6.3999796 -0.76975
-0.273413 -6.359755 -0.76486874
-0.23642775 -4.8170586 -0.57024485
-0.26641986 -4.823442 -0.57124615
-0.29601094 -4.8217168 -0.57124615
-0.32532242 -4.8158503 -0.57074547
-0.35428035 -4.8058476 -0.56974423
-0.38185981 -4.7798481 -0.56674033
-0.41101059 -4.7754383 -0.56649005
-0.56714016 -6.1440587 -0.7402122
-0.62022424 -6.2964625 -0.75998753
-0.65874344 -6.2915521 -0.75986236
-0.69623983 -6.2775307 -0.75861079
-0.72850263 -6.2199302 -0.7518521
-0.7751686 -6.2842684 -0.76061332
-0.81575644 -6.295136 -0.76261586
-0.8569079 -6.308691 -0.76499391
-0.89867556 -6.3249235 -0.76774746
-0.93615574 -6.3104582 -0.76662099
-0.9740994 -6.2996926 -0.7659952
-0.82274252 -5.1142712 -0.61530244
-0.85574567 -5.1189117 -0.61655408
-0.85945964 -4.9542327 -0.59615296
-0.88579857 -4.9264078 -0.5932743
-0.91419184 -4.9111266 -0.59202272
-0.94111663 -4.8888631 -0.58989495
-0.9678027 -4.8664551 -0.58776724
-1.2906251 -6.2860966 -0.77137709
-1.3304056 -6.2838826 -0.77212805
-1.3729585 -6.2940178 -0.77450609
-1.4165561 -6.3077388 -0.77738476
-1.453445 -6.2911949 -0.77638346
-1.4807776 -6.2348614 -0.77025062
-1.5077094 -6.1793947 -0.76424295
-1.5407718 -6.1507802 -0.76173973
-1.5886168 -6.1806054 -0.76687133
-1.6328367 -6.1947246 -0.77000034
-1.6702982 -6.1826739 -0.76975
-1.7111157 -6.182826 -0.77112675
-1.7089622 -6.0309443 -0.75260305
-1.7583785 -6.0632219 -0.75823528
-1.7938545 -6.0466118 -0.75748432
-1.8430259 -6.0753641 -0.76274103
-1.9076117 -6.1520653 -0.77438092
-1.9453242 -6.140245 -0.77438092
-1.9820465 -6.1253614 -0.77400547
-2.0239534 -6.1262722 -0.77575767
-2.0567477 -6.099637 -0.7738803
-2.0886457 -6.0709543 -0.77175254
-2.1215842 -6.045855 -0.77012551
-2.149946 -6.0084376 -0.76687133
-2.1847317 -5.9895406 -0.76612037
-2.2273211 -5.9918308 -0.76824808
-2.254904 -5.9539299 -0.76499391
-2.2913942 -5.9399819 -0.76499391
-2.3263464 -5.9221168 -0.76449329
-2.348634 -5.8727279 -0.75973719
-2.380882 -5.8490181 -0.75848562
-2.396214 -5.7848058 -0.75172693
-2.4251106 -5.7544527 -0.74959922
-2.440429 -5.6929622 -0.7432161
-2.4622245 -5.6478705 -0.73908579
-2.5064864 -5.6544232 -0.74208963
-2.5448043 -5.6470771 -0.7432161
-2.5682464 -5.6070042 -0.73983675
-2.5887794 -5.5614605 -0.73570645
-2.6156411 -5.5302258 -0.73357874
-2.6336195 -5.4809875 -0.72894782
-2.6476104 -5.4246063 -0.7233156
-2.6711476 -5.3887043 -0.7205621
-2.7041619 -5.3722134 -0.7205621
-2.7208138 -5.323719 -0.71605635
-2.7278311 -5.2576122 -0.70904738
-2.7572651 -5.2355089 -0.70829642
-2.7898054 -5.219367 -0.70842159
-2.7971709 -5.1568065 -0.70191324
-2.804353 -5.0952229 -0.69553006
-2.8283057 -5.0649276 -0.69365269
-2.8441653 -5.0207205 -0.68977273
-2.8536558 -4.9661889 -0.68439084
-2.8870726 -4.9537282 -0.6851418
-2.9093337 -4.9222565 -0.6831392
-2.9221337 -4.8753824 -0.67888379
-2.9401383 -4.8378625 -0.67600513
-2.9609168 -4.8053737 -0.67387736
-2.9666851 -4.7492547 -0.6682452
-2.9915226 -4.7242575 -0.6672439
-3.016165 -4.6991339 -0.6662426
-3.0384471 -4.6705604 -0.66474068
-3.0572147 -4.6369214 -0.6624878
-3.064657 -4.5867324 -0.65773171
-3.0916302 -4.5661988 -0.65748143
-3.1195896 -4.547143 -0.65748143
-3.1310046 -4.5042944 -0.65385175
-3.1425831 -4.4622889 -0.65034729
-3.188349 -4.4687629 -0.65435243
-3.1994309 -4.4266043 -0.65084791
-3.2212555 -4.3996863 -0.6497215
-3.2422791 -4.3718705 -0.64846987
-3.2481816 -4.3241339 -0.64408928
-3.2596302 -4.2843857 -0.64096028
-3.2737427 -4.248589 -0.63845706
-3.2881494 -4.2135634 -0.63607907
-3.3071728 -4.1847472 -0.63470227
-3.3296871 -4.1605039 -0.63407648
-3.3470299 -4.1299763 -0.63244939
-3.360976 -4.0955591 -0.63019651
-3.3797002 -4.0672302 -0.62894493
-3.3892586 -4.0281997 -0.6259411
-3.3933172 -3.9831648 -0.62193596
-3.4099154 -3.9532552 -0.62043405
-3.4112606 -3.9061081 -0.6160534
-3.4456816 -3.8969934 -0.618056
-3.4417284 -3.8447368 -0.61279929
-3.4385974 -3.7941465 -0.60779285
-3.4416857 -3.7510495 -0.60403806
-3.4524798 -3.7167795 -0.60178518
-3.4725013 -3.6926351 -0.60128456
-3.4677231 -3.6425221 -0.59627813
-3.4824326 -3.6133196 -0.59490138
-3.4802821 -3.567035 -0.5905208
-3.5000114 -3.5434961 -0.59014529
-3.5167763 -3.5170438 -0.58926916
-3.5171111 -3.4744866 -0.58551437
-3.5277102 -3.4424493 -0.583637
-3.5294755 -3.4021528 -0.58025765
-3.5438161 -3.3742764 -0.57913119
-3.5405989 -3.3300433 -0.57500094
-3.5558758 -3.30353 -0.57412481
-3.5556066 -3.2628717 -0.5706203
-3.5615904 -3.228337 -0.56824231
-3.5731995 -3.1991451 -0.5668655
-3.5897882 -3.1745317 -0.56636488
-3.6047149 -3.1485305 -0.56561393
-3.605933 -3.1108038 -0.56261009
-3.6128671 -3.0783274 -0.56060749
-3.5960014 -3.0260863 -0.55472499
-3.6061063 -2.9969912 -0.55334824
-3.5945125 -2.9502671 -0.54846698
-3.5979002 -2.91629 -0.54608893
-3.6257977 -2.9022162 -0.54771602
-3.6077259 -2.8516226 -0.54195869
-3.6204617 -2.8257709 -0.54120773
-3.6408761 -2.8059247 -0.54170835
-3.6532862 -2.7799284 -0.54095739
-3.6552007 -2.746141 -0.53857934
-3.6568387 -2.712435 -0.5362013
-3.6517963 -2.6741252 -0.53282195
-3.6560729 -2.6429522 -0.53094459
