# .PCD v0.7 - Point Cloud Data file format
VERSION 0.7
FIELDS x y z
SIZE 4 4 4
TYPE F F F
COUNT 1 1 1
WIDTH 1567
HEIGHT 1
VIEWPOINT 0 0 0 1 0 0 0
POINTS 1567
DATA ascii
3.2657707 -0.52505964 -0.74442124
3.2615275 -0.54492795 -0.74419051
3.26771 -0.5665912 -0.74649781
3.2565103 -0.58525485 -0.74465197
3.2605109 -0.60664839 -0.74649781
3.2567272 -0.62664306 -0.74649781
3.2442317 -0.64490783 -0.74442124
3.2535582 -0.66753823 -0.74765146
3.2589207 -0.68950206 -0.74995875
3.2574806 -0.71010679 -0.75065094
3.2597082 -0.73157173 -0.75226605
3.2617948 -0.75309062 -0.75388116
3.2466984 -0.77061987 -0.75134313
3.2456901 -0.79144835 -0.75226605
0 -0 -0
3.2263091 -0.82879847 -0.74995875
3.215517 -0.84709257 -0.74857438
3.214956 -0.86807436 -0.74972802
3.209569 -0.8877846 -0.74972802
3.2049975 -0.90772647 -0.74995875
3.2049749 -0.92899954 -0.75134313
3.2076106 -0.95113599 -0.7534197
3.1886775 -0.96684843 -0.75018948
3.1882615 -0.98812324 -0.75157386
3.1895597 -1.0100164 -0.7534197
3.1768215 -1.027473 -0.75180459
3.1760011 -1.0487763 -0.75318897
3.1713505 -1.0688654 -0.75365043
3.1776147 -1.0927327 -0.75688064
3.1791139 -1.1151072 -0.75895721
3.1722119 -1.1345929 -0.75895721
3.1688471 -1.1553686 -0.75988013
3.1580498 -1.1734353 -0.75895721
3.1517003 -1.193135 -0.75918794
3.1334252 -1.2082515 -0.75641918
3.1196125 -1.2249664 -0.75480407
3.1102302 -1.2433627 -0.75434262
3.0962334 -1.2598569 -0.75272751
3.0830505 -1.2765986 -0.75134313
3.0733659 -1.2947365 -0.75088167
3.0617862 -1.3120373 -0.74995875
3.0572462 -1.3323539 -0.75088167
3.0516825 -1.35227 -0.75157386
3.0397787 -1.3693712 -0.75065094
3.0366275 -1.390427 -0.75203532
3.0227456 -1.4065708 -0.75065094
3.0096595 -1.4230125 -0.74949729
2.9991174 -1.4406103 -0.74903584
2.9867232 -1.4572791 -0.74811292
2.9742377 -1.4738501 -0.74719
2.9651384 -1.492072 -0.74719
2.9576604 -1.5111228 -0.74765146
2.9509242 -1.5305859 -0.74834365
2.9475043 -1.551836 -0.74995875
2.9465094 -1.5744771 -0.75226605
2.9350822 -1.5915995 -0.75180459
2.9235559 -1.6086408 -0.75134313
2.9136305 -1.6265491 -0.75134313
2.8959749 -1.6400816 -0.74926656
2.8934507 -1.6621814 -0.75134313
2.8831973 -1.679904 -0.75134313
2.8678088 -1.6945939 -0.74995875
2.857357 -1.7121586 -0.74995875
2.8501241 -1.7316793 -0.75088167
2.8444161 -1.7521962 -0.75226605
2.8336112 -1.7696162 -0.75226605
2.8218777 -1.7864493 -0.75203532
2.8231478 -1.8116113 -0.75549626
2.8119788 -1.8288997 -0.75549626
2.7958291 -1.8429068 -0.75411189
2.7860868 -1.8611078 -0.75457335
2.7560809 -1.865625 -0.74926656
2.7461865 -1.8836014 -0.74972802
2.7353764 -1.9009715 -0.74995875
2.7204781 -1.9154793 -0.74903584
2.7070894 -1.931006 -0.74857438
2.7046547 -1.9544176 -0.75134313
2.6910412 -1.9698269 -0.75088167
2.6867206 -1.9920962 -0.75318897
2.6775591 -2.0108809 -0.75411189
2.6667192 -2.0284503 -0.75457335
2.658848 -2.0483372 -0.75595772
2.6492984 -2.0670068 -0.75688064
2.6319845 -2.0796049 -0.75549626
2.6214542 -2.0975387 -0.75618845
2.6039982 -2.1099093 -0.75480407
2.6037922 -2.136338 -0.75872648
2.5936289 -2.1547613 -0.7596494
2.5781245 -2.168756 -0.75895721
2.551434 -2.1731791 -0.75480407
2.5380516 -2.1887937 -0.75480407
2.5187097 -2.1992066 -0.75295824
2.5029809 -2.2126865 -0.75226605
2.4864566 -2.2254076 -0.75134313
2.4749181 -2.2425821 -0.75203532
2.4582431 -2.255095 -0.7511124
2.4536293 -2.2787428 -0.75411189
2.4438548 -2.2977538 -0.75549626
2.4311199 -2.3140471 -0.75595772
2.4224813 -2.3343213 -0.75780356
2.4095056 -2.3505001 -0.75826502
2.3964226 -2.3666077 -0.75872648
2.3825445 -2.3819551 -0.75895721
2.3665164 -2.3951452 -0.75849575
2.3449786 -2.4026582 -0.75618845
2.3322182 -2.4191027 -0.75688064
2.3173308 -2.4333675 -0.75688064
2.3070238 -2.4525011 -0.75849575
2.2945819 -2.4694614 -0.75941867
2.2616196 -2.4641411 -0.75318897
2.2510326 -2.4830174 -0.75480407
2.2377024 -2.4989572 -0.75549626
2.210722 -2.4995227 -0.75134313
2.1934228 -2.5108421 -0.75065094
2.1824255 -2.5294099 -0.75226605
2.1580274 -2.5323861 -0.74903584
2.1505947 -2.5552566 -0.75203532
2.1386077 -2.5728936 -0.7534197
2.1172235 -2.5791993 -0.75134313
2.1068735 -2.5989439 -0.7534197
2.0969687 -2.6194177 -0.75572699
2.0838745 -2.6360514 -0.75688064
2.0724511 -2.6549237 -0.75872648
2.0513692 -2.6614254 -0.75688064
2.0403044 -2.6809301 -0.75895721
2.0203087 -2.6887319 -0.75757283
2.0107305 -2.7104542 -0.76034158
1.9888866 -2.7156765 -0.75826502
1.9636334 -2.7160022 -0.75480407
1.9458007 -2.7264156 -0.75434262
0 -0 -0
1.9077523 -2.7436979 -0.75249678
1.886476 -2.7489343 -0.75065094
0 -0 -0
1.8482742 -2.7654061 -0.74880511
1.8307354 -2.7758827 -0.74857438
1.8115453 -2.7838016 -0.74765146
1.7986363 -2.8014145 -0.74949729
1.7767265 -2.8050005 -0.74742073
1.7656704 -2.8257508 -0.75018948
1.753405 -2.8448143 -0.75249678
1.7434996 -2.86799 -0.75595772
1.7303731 -2.8861442 -0.75803429
1.710155 -2.8925195 -0.75688064
1.6874731 -2.8945529 -0.75457335
1.6793804 -2.9217234 -0.75918794
1.6571032 -2.9243543 -0.75711137
1.6272635 -2.9132316 -0.75134313
1.6121739 -2.9282753 -0.75272751
1.5969609 -2.9432435 -0.75411189
1.5857546 -2.965857 -0.75757283
1.570702 -2.9815569 -0.75918794
1.5622408 -3.0101373 -0.76426399
1.5326663 -2.9980085 -0.75849575
1.5124912 -3.00388 -0.75757283
1.4858167 -2.996542 -0.75318897
1.4682562 -3.0073509 -0.75365043
1.4577867 -3.0329652 -0.75803429
1.4408143 -3.0453708 -0.75895721
1.4319608 -3.0753231 -0.76449472
1.4179289 -3.094666 -0.76726347
1.4001136 -3.105969 -0.76795566
1.3798459 -3.1118331 -0.76726347
1.3560574 -3.1095388 -0.76449472
1.3308148 -3.1034935 -0.76080304
1.3109909 -3.1098075 -0.76034158
1.287414 -3.1070068 -0.75757283
1.2705278 -3.1202545 -0.75895721
1.2502738 -3.1252813 -0.75826502
1.2324978 -3.1365163 -0.75918794
1.2097253 -3.1349425 -0.75688064
1.1863289 -3.1313877 -0.75411189
1.1670928 -3.138608 -0.75411189
1.1478126 -3.14571 -0.75411189
1.1307855 -3.1591063 -0.75572699
1.1149266 -3.1760836 -0.75826502
1.0938338 -3.1782649 -0.75711137
1.0730673 -3.1812289 -0.75618845
1.0510839 -3.1803625 -0.75434262
1.0297512 -3.1811979 -0.75295824
1.0081538 -3.1809638 -0.75134313
0.98457944 -3.1740797 -0.74811292
0.96480244 -3.1791301 -0.74788219
0.94500053 -3.1840575 -0.74765146
0.92815804 -3.1991403 -0.74995875
0.90691805 -3.1991587 -0.74857438
0.89038819 -3.2159157 -0.75134313
0.87216288 -3.2269542 -0.75272751
0.85184979 -3.2303634 -0.75226605
0.83395213 -3.243068 -0.75411189
0.81427395 -3.2490678 -0.75434262
0.79270673 -3.2473862 -0.75272751
0.77411658 -3.2578688 -0.75411189
0.75433129 -3.2635055 -0.75434262
0.73407918 -3.2671232 -0.75411189
0.7125656 -3.2649117 -0.75249678
0.69009805 -3.2577999 -0.74972802
0.66989964 -3.2610197 -0.74949729
0.64911759 -3.2612517 -0.74857438
0.62706852 -3.2546635 -0.74603635
0.60886979 -3.2680154 -0.74834365
0.58708155 -3.2621136 -0.74603635
0.56805402 -3.2714064 -0.74742073
0.54893452 -3.2805882 -0.74880511
0.5283305 -3.2810128 -0.74811292
0.50908208 -3.2899621 -0.74949729
0.48931465 -3.2959113 -0.75018948
0.46949339 -3.3017416 -0.75088167
0.44909427 -3.303596 -0.75065094
0.42869008 -3.3053246 -0.75042021
0.40840092 -3.3078926 -0.75042021
0.38786954 -3.3084035 -0.74995875
0.36659494 -3.3020175 -0.74788219
0.34663188 -3.3071079 -0.74857438
0 -0 -0
0.30656046 -3.3169258 -0.74995875
0.28720698 -3.3303773 -0.75272751
0.26622242 -3.3252876 -0.7511124
0.24631649 -3.3336511 -0.75272751
0.22625211 -3.3409245 -0.75411189
0.20520923 -3.3335092 -0.75203532
0.18512891 -3.3415062 -0.75365043
0.16471829 -3.344523 -0.75411189
0.14419357 -3.3454707 -0.75411189
0.12405996 -3.3569882 -0.75664991
0.10348962 -3.3586588 -0.75688064
0.082806982 -3.3563125 -0.75618845
0.062229622 -3.3577302 -0.75641918
0.041516241 -3.3492925 -0.75434262
0.020952178 -3.347538 -0.75388116
0.00041120953 -3.3456576 -0.7534197
-0.020048525 -3.3339212 -0.75065094
-0.040528119 -3.3356812 -0.7511124
-0.060924005 -3.3314784 -0.75018948
-0.081388071 -3.3320146 -0.75042021
-0.10183139 -3.3314524 -0.75042021
-0.12230647 -3.3317373 -0.75065094
-0.14299659 -3.3367569 -0.75203532
-0.1631828 -3.3299856 -0.75065094
-0.18409339 -3.3376656 -0.75272751
-0.20492606 -3.3423002 -0.75411189
-0.22431852 -3.324476 -0.75018948
-0.24592578 -3.3395338 -0.75411189
-0.26618025 -3.3350523 -0.7534197
-0.28638899 -3.3304479 -0.75272751
-0.3076216 -3.3373482 -0.75480407
-0.3276177 -3.3305559 -0.75365043
-0.34794638 -3.3275154 -0.7534197
-0.36889213 -3.3301532 -0.75457335
-0.38920569 -3.3268607 -0.75434262
-0.41044372 -3.3311701 -0.75595772
-0.43137488 -3.332449 -0.75688064
-0.4505071 -3.3200972 -0.75457335
-0.47100699 -3.318234 -0.75480407
-0.49150094 -3.3162439 -0.7550348
-0.51020694 -3.3025877 -0.75249678
-0.53107899 -3.3032379 -0.7534197
-0.55181795 -3.3027961 -0.75411189
-0.57174093 -3.2974308 -0.75365043
-0.59230679 -3.2957759 -0.75411189
-0.61429685 -3.3016458 -0.75641918
-0.63454384 -3.2978144 -0.75641918
-0.65571487 -3.2986305 -0.75757283
-0.67398804 -3.2850132 -0.75526553
-0.69614476 -3.2903357 -0.75757283
-0.71632075 -3.2860022 -0.75757283
-0.73710871 -3.2843933 -0.75826502
-0.75856018 -3.2854972 -0.7596494
-0.77106905 -3.2485917 -0.75180459
-0.79260033 -3.2504168 -0.7534197
-0.81182098 -3.2426605 -0.75272751
-0.82904047 -3.2272515 -0.75018948
-0.85279113 -3.2371588 -0.75388116
-0.87593383 -3.2440777 -0.75688064
-0.8942669 -3.2330148 -0.75549626
-0.91647279 -3.235893 -0.75757283
-0.9354983 -3.2274048 -0.75688064
-0.95196557 -3.2104092 -0.75411189
-0.96995294 -3.1989205 -0.75272751
-0.98783529 -3.1873322 -0.75134313
-1.0053183 -3.1747174 -0.74972802
-1.0229832 -3.1629341 -0.74834365
-1.0445063 -3.1630654 -0.74995875
-1.0586137 -3.1409214 -0.74603635
-1.0813454 -3.1444886 -0.74857438
-1.0986876 -3.1322851 -0.74719
-1.108714 -3.0998306 -0.74072963
-1.1397084 -3.1258802 -0.74903584
-1.1581894 -3.1170039 -0.74857438
-1.1772932 -3.1098387 -0.74857438
-1.2019521 -3.1170828 -0.75226605
-1.2217666 -3.1114607 -0.75272751
-1.2419184 -3.106616 -0.7534197
-1.2613235 -3.0998387 -0.75365043
-1.2788314 -3.0884449 -0.75272751
-1.2992682 -3.0841269 -0.75365043
-1.3181677 -3.0760968 -0.75365043
-1.34479 -3.0857913 -0.75826502
-1.3668514 -3.084599 -0.76011086
-1.3845538 -3.0734925 -0.75941867
-1.3989316 -3.055207 -0.75688064
-1.4213452 -3.0545058 -0.75895721
-1.4342393 -3.0334115 -0.75572699
-1.4553522 -3.0298169 -0.75711137
-1.4773279 -3.0278261 -0.75895721
-1.505381 -3.0378861 -0.76403326
-1.5183082 -3.017292 -0.76103377
-1.5412194 -3.0165844 -0.76334107
-1.5592519 -3.006207 -0.76311034
-1.5772151 -2.9957221 -0.76287961
-1.5900651 -2.9756892 -0.76011086
-1.6087574 -2.9667323 -0.76034158
-1.6255237 -2.9542475 -0.7596494
-1.6407748 -2.9391201 -0.75826502
-1.6525459 -2.9179897 -0.75526553
-1.6733268 -2.9128575 -0.75664991
-1.6960658 -2.910943 -0.75895721
-1.7109257 -2.8954549 -0.75757283
-1.7326598 -2.8915801 -0.75941867
-1.7579467 -2.8933685 -0.76287961
-1.7838309 -2.8957837 -0.76657128
-1.8077492 -2.8946879 -0.76933998
-1.8301599 -2.8909409 -0.77141654
-1.8489147 -2.881295 -0.771878
-1.8692113 -2.8739746 -0.77303165
-1.8862751 -2.8616388 -0.77280092
-1.900556 -2.845156 -0.77141654
-1.9196137 -2.8358583 -0.77210873
-1.9336765 -2.8192115 -0.77072436
-1.9476073 -2.8024991 -0.76933998
-1.9642063 -2.7897005 -0.76910925
-1.9835465 -2.7807646 -0.77003217
-2.0068395 -2.7772174 -0.77257019
-2.0037303 -2.7373688 -0.76449472
-2.0204887 -2.7250228 -0.76449472
-2.0348341 -2.7094615 -0.7635718
-2.0537767 -2.7000229 -0.76449472
-2.0780237 -2.6973917 -0.7674942
-2.0921416 -2.6815217 -0.76657128
-2.1145871 -2.6762693 -0.76887858
-2.1321843 -2.6647637 -0.76933998
-2.1405327 -2.6418018 -0.76634055
-2.1610219 -2.6338842 -0.76795566
-2.1771424 -2.6205747 -0.76795566
-2.1894233 -2.6026988 -0.76657128
-2.2034595 -2.5869932 -0.76587909
-2.2173853 -2.5712135 -0.76518691
-2.2273612 -2.5509624 -0.76311034
-2.2391055 -2.5328732 -0.76172596
-2.2494142 -2.5132856 -0.75988013
-2.2589138 -2.4929461 -0.75780356
-2.2748253 -2.4797559 -0.75803429
-2.2899981 -2.4657512 -0.75803429
-2.3077502 -2.4544895 -0.75895721
-2.3308163 -2.4487414 -0.76172596
-2.3376968 -2.4259849 -0.75895721
-2.3443859 -2.4032364 -0.75618845
-2.3522515 -2.3818824 -0.75388116
-2.3613193 -2.3618989 -0.75203532
-2.3716147 -2.3432617 -0.75065094
-2.377593 -2.3205094 -0.74788219
-2.3875842 -2.3018246 -0.74649781
-2.3953221 -2.2810912 -0.74442124
-2.4021869 -2.2596834 -0.74211395
-2.4167197 -2.2455635 -0.74234468
-2.4218512 -2.2227964 -0.73957598
-2.4347236 -2.2072406 -0.73934525
-2.448946 -2.1929092 -0.73957598
-2.4601691 -2.1759071 -0.73888379
-2.4668794 -2.1550088 -0.73680723
-2.4719532 -2.1328387 -0.7342692
-2.4746263 -2.1087945 -0.73103899
-2.4785864 -2.086051 -0.72827023
-2.4823611 -2.0633388 -0.72550148
-2.4851987 -2.0400414 -0.72250199
-2.4961579 -2.0235283 -0.72204053
-2.5070081 -2.0069578 -0.72157907
-2.518512 -1.9909339 -0.72134835
-2.5322146 -1.9766407 -0.7218098
-2.5435247 -1.960472 -0.72157907
-2.5508609 -1.9412922 -0.7201947
-2.5557239 -1.9203424 -0.71811813
-2.5588634 -1.8982468 -0.71558011
-2.5626132 -1.87676 -0.71327281
-2.5646193 -1.8541586 -0.71050411
-2.549022 -1.8191662 -0.70265931
-2.5744534 -1.8135798 -0.70681244
-2.5871303 -1.7988603 -0.7072739
-2.6045368 -1.7873573 -0.70911974
-2.6202884 -1.774617 -0.71050411
-2.6351724 -1.7612096 -0.71165776
-2.644305 -1.7439357 -0.7111963
-2.6533248 -1.7266161 -0.71073484
-2.6556818 -1.7050452 -0.70842755
-2.6562307 -1.682469 -0.70565879
-2.6623785 -1.6635605 -0.70450515
-2.6617684 -1.6405549 -0.70150566
-2.6659648 -1.6206529 -0.69989055
-2.67419 -1.6032635 -0.69942909
-2.6839771 -1.5868248 -0.69942909
-2.6903009 -1.5683657 -0.69850618
-2.6981866 -1.5508589 -0.69804472
-2.7042656 -1.5323547 -0.6971218
-2.7085207 -1.5128852 -0.69573742
-2.7092292 -1.4915438 -0.69343013
-2.7106335 -1.4707149 -0.69135356
-2.7144585 -1.4513018 -0.68996918
-2.7224517 -1.4341652 -0.68973845
-2.7286096 -1.4160887 -0.68904626
-2.7372472 -1.3993195 -0.68904626
-2.7423055 -1.3807471 -0.68812335
-2.7463677 -1.3617328 -0.6869697
-2.7476768 -1.3414398 -0.68512392
-2.7567329 -1.3249768 -0.68535459
-2.747221 -1.2997123 -0.68074006
-2.7613184 -1.285707 -0.68235517
-2.7611945 -1.2650909 -0.6802786
-2.768018 -1.2477248 -0.68004787
-0 -0 -0
-2.7733107 -1.2093834 -0.67750984
-2.784256 -1.1938782 -0.67843276
-0.27578431 -0.11587406 -0.031006927
-0.26480493 -0.10933624 -0.028007448
-0.2627674 -0.10660822 -0.027315261
-0.27516037 -0.10969359 -0.030314738
-0.27763939 -0.10871511 -0.030776197
-0.2728548 -0.10490709 -0.029391823
-0.28441179 -0.10736882 -0.032160573
-0.28506523 -0.10562168 -0.032160573
-0 -0 -0
-0 -0 -0
-0 -0 -0
-0 -0 -0
-0 -0 -0
-0 -0 -0
-0 -0 -0
-0 -0 -0
-0 -0 -0
-0 -0 -0
-0 -0 -0
-0 -0 -0
-0 -0 -0
-0 -0 -0
-0 -0 -0
-0 -0 -0
-0 -0 -0
-0 -0 -0
-0 -0 -0
-0 -0 -0
-0 -0 -0
-0 -0 -0
-0 -0 -0
-0 -0 -0
-0 -0 -0
-0 -0 -0
-0 -0 -0
-0 -0 -0
-0 -0 -0
-0 -0 -0
-0 -0 -0
-0 -0 -0
-0 -0 -0
-0 -0 -0
-0 -0 -0
-0 -0 -0
-0 -0 -0
-0 -0 -0
-0 -0 -0
-0 -0 -0
-0 -0 -0
-0.27352142 -0.026612192 -0.025238698
-0.27464843 -0.025023056 -0.025469428
-0.27576622 -0.02342109 -0.025700158
-0.27881446 -0.021961875 -0.026392344
-0 -0 -0
-0.28294611 -0.018802168 -0.027315261
-0.28208497 -0.01700579 -0.027084531
-0 -0 -0
-0.28032875 -0.013446938 -0.026623074
-0 -0 -0
-0 -0 -0
-0 -0 -0
-0.28010187 0.019594193 -0.030142911
-0.2790094 0.021234838 -0.029900141
-0.27887383 0.022946408 -0.029900141
-0.27969375 0.024746632 -0.030142911
-0.27374437 0.025889678 -0.028686298
-0.27358034 0.027568854 -0.028686298
-0 0 -0
-0.27225798 0.030810833 -0.02844353
-0.27591479 0.032957219 -0.029414605
-0 0 -0
-0.27933443 0.036864281 -0.030385679
-0.28390491 0.039261583 -0.031599522
-0.28173959 0.04071746 -0.031113984
-0 0 -0
-0.28026101 0.044017311 -0.030871216
-0.27807218 0.045415461 -0.030385679
-0.27492103 0.04662222 -0.029657373
-0 0 -0
-0.26956007 0.049102824 -0.02844353
-0.2692537 0.050755892 -0.02844353
-0 0 -0
-0.26576 0.053469904 -0.027715225
-0 0 -0
-0.26792699 0.057348419 -0.02844353
-0.27040938 0.059630003 -0.029171836
-0.26720306 0.060631979 -0.02844353
-0.26776975 0.062494859 -0.028686298
-0.27209303 0.065288097 -0.029900141
-0.27356917 0.067428522 -0.030385679
-0.27315027 0.069105841 -0.030385679
-0.2708452 0.07028538 -0.029900141
-0.26759958 0.071185917 -0.029171836
-0.26715776 0.072826535 -0.029171836
-0.26670587 0.074464411 -0.029171836
-0.26624393 0.076099485 -0.029171836
-0.27135152 0.079389162 -0.030628446
-0.27550033 0.08246237 -0.031842291
-0.27962145 0.085589431 -0.033056132
-0.28001571 0.087596864 -0.033298902
-0 0 -0
-0.27431464 0.089503296 -0.032085057
-0.26916468 0.089633346 -0.030871216
-0.26860961 0.091283225 -0.030871216
-0.27170545 0.094215825 -0.031842291
-0.27294874 0.096535504 -0.032327827
-0.27508497 0.099206716 -0.033056132
-0.27447107 0.10089274 -0.033056132
-0.27203268 0.10188715 -0.032570597
-0 0 -0
-0.2689563 0.10450771 -0.032085057
-0.26650882 0.10543495 -0.031599522
-0.26675522 0.1074343 -0.031842291
-0.26519489 0.10869748 -0.031599522
-0.26452294 0.11032264 -0.031599522
-0.26562399 0.11270872 -0.032085057
-0.26403829 0.11394843 -0.031842291
-0.26333416 0.1155664 -0.031842291
-0.26615724 0.11877553 -0.032813363
-0.26718706 0.12121501 -0.033298902
-0.27259353 0.12572007 -0.034998283
-0.27707776 0.12988085 -0.036454894
-0.27452713 0.13073759 -0.035969354
-0.27807796 0.13454868 -0.037183199
-0.27898514 0.13711472 -0.037668735
-0.2764059 0.137951 -0.037183199
-0.2746906 0.13920261 -0.036940429
-0.27210945 0.1399913 -0.036454894
-0.26867089 0.14030123 -0.035726588
-0.26523885 0.14057428 -0.034998283
-0.26351875 0.14173625 -0.034755513
-0.26009506 0.14194629 -0.034027208
-0.2583724 0.14306626 -0.033784438
-0.25748968 0.14464891 -0.033784438
-0.25407451 0.1447752 -0.033056132
-0.25569522 0.14779781 -0.033784438
-0.25895819 0.15183353 -0.034998283
-0.25718981 0.15292057 -0.034755513
-0.25790429 0.15550403 -0.035241049
-0.25859666 0.15810199 -0.035726588
-0.25762171 0.15968573 -0.035726588
-0.25909519 0.16282135 -0.036454894
-0.25727507 0.16388375 -0.036212124
-0.25707763 0.16598859 -0.036454894
-0.26091242 0.1707686 -0.037911505
-0.26227888 0.17398407 -0.03863981
-0.26441869 0.17776686 -0.039610885
-0.26412266 0.17993505 -0.039853651
-0.26221731 0.1809983 -0.039610885
-0.26110178 0.18260382 -0.039610885
-0.25839749 0.18307501 -0.039125346
-0.25648329 0.1840885 -0.03888258
-0.2592614 0.18852566 -0.040096421
-0.25809976 0.19011292 -0.040096421
-0.26235619 0.19577356 -0.041795801
-0.2657809 0.20090576 -0.043252412
-0.26915228 0.20608723 -0.044709023
-0.26941177 0.20892906 -0.045194559
-0.26660302 0.20937462 -0.044709023
-0.2653133 0.21100652 -0.044709023
-0.26552042 0.21385264 -0.045194559
-0.26645222 0.2173249 -0.045922864
-0.26511374 0.21895574 -0.045922864
-0.26599139 0.22245286 -0.04665117
-0.26905063 0.22785708 -0.048107784
-0.2698504 0.23140538 -0.04883609
-0.27280796 0.23688719 -0.050292701
-0.27134931 0.23855664 -0.050292701
-0.27204806 0.24215907 -0.051021006
-0.27486831 0.24773417 -0.052477617
-0 0 -0
-0 0 -0
-0 0 -0
-0 0 -0
-0 0 -0
-0 0 -0
-0 0 -0
-0 0 -0
-0 0 -0
-0 0 -0
-0 0 -0
-0 0 -0
-0 0 -0
-0 0 -0
-0 0 -0
-0 0 -0
-0 0 -0
-0 0 -0
-0 0 -0
-0 0 -0
-0 0 -0
-0 0 -0
-0 0 -0
-0 0 -0
-0 0 -0
-0 0 -0
-0 0 -0
-0 0 -0
-0 0 -0
-0 0 -0
-0 0 -0
-1.9598006 2.6425719 -0.78321093
-1.9464132 2.6584618 -0.78442478
-0 0 -0
-0 0 -0
-1.8938001 2.6890786 -0.78296816
-1.8739442 2.6958675 -0.78151155
-1.8557218 2.7049148 -0.78078324
-0 0 -0
-1.8191566 2.7226429 -0.77932662
-1.8029503 2.7345638 -0.77956939
-1.7856086 2.7447617 -0.77932662
-1.7666386 2.7523999 -0.7783556
-1.7507544 2.7648277 -0.77884108
-1.736325 2.7796328 -0.78005493
-1.7192369 2.7902343 -0.78005493
-1.706112 2.8073642 -0.78199708
-1.6893526 2.8186121 -0.78223985
-1.6730127 2.8305953 -0.78272539
-1.6570776 2.8433225 -0.7834537
-1.633804 2.8433411 -0.78054047
-1.6177603 2.8558452 -0.78126878
-1.6002067 2.8657176 -0.78126878
-1.5867999 2.8831327 -0.7834537
-1.5741638 2.9021966 -0.78612417
-1.5618104 2.9220695 -0.78903741
-1.5452067 2.9341731 -0.78976572
-1.5258344 2.9410152 -0.78903741
-1.5095246 2.953778 -0.79000849
-1.4865779 2.9534514 -0.78733802
-1.4641228 2.953824 -0.78491032
-1.4463961 2.9636242 -0.78515309
-1.4239862 2.9636979 -0.78272539
-1.4032879 2.9671168 -0.78126878
-1.3858737 2.9774306 -0.78175431
-1.362331 2.9744108 -0.77859831
-1.3452494 2.9853675 -0.77932662
-1.3257278 2.9909046 -0.77859831
-1.3058017 2.9954252 -0.77762729
-1.2889251 3.006948 -0.77859831
-1.2689449 3.0112238 -0.77762729
-1.2497027 3.0171604 -0.77714175
-1.23007 3.0220759 -0.77641344
-1.2079051 3.0205579 -0.77398574
-1.1900572 3.0297186 -0.77447128
-1.1665616 3.0242908 -0.77107251
-1.1445507 3.0223184 -0.76864481
-1.1246339 3.0256467 -0.76767373
-1.1033912 3.0251985 -0.76573163
-1.0864404 3.0364792 -0.76694542
-1.0700345 3.0494969 -0.76864481
-1.0509878 3.0550876 -0.76840204
-1.03408 3.0669949 -0.76985866
-1.0167615 3.0778883 -0.77107251
-0.99457562 3.0739152 -0.76840204
-0.97832936 3.088284 -0.77058697
-0.95563126 3.0821819 -0.76743096
-0.93810761 3.0926297 -0.76864481
-0.91966504 3.1001878 -0.76913035
-0.90062535 3.1057725 -0.76913035
-0.87996703 3.1056395 -0.76767373
-0.8632201 3.1193957 -0.76985866
-0.84406358 3.1246338 -0.76985866
-0.82339394 3.124125 -0.76840204
-0.80710274 3.1403942 -0.77131528
-0.78805381 3.1462286 -0.77155805
-0.77057076 3.1585448 -0.7735002
-0.75453275 3.1773722 -0.77714175
-0.73284256 3.1724894 -0.77471405
-0.71718222 3.193965 -0.77908385
-0 0 -0
-0 0 -0
-0 0 -0
-0 0 -0
-0 0 -0
-0 0 -0
-0.5968557 3.3192067 -0.80384624
-0 0 -0
-0 0 -0
-0 0 -0
-0 0 -0
-0 0 -0
-0 0 -0
-0 0 -0
-0 0 -0
-0 0 -0
-0 0 -0
-0 0 -0
-0.32942298 3.146678 -0.75165105
-0.31048805 3.1525018 -0.75262213
-0.29078361 3.1504836 -0.75165105
-0.27144712 3.1522086 -0.75165105
-0.25202349 3.1528478 -0.75140828
-0.23281525 3.1562698 -0.75189382
-0.21350943 3.1586068 -0.75213659
-0.1937698 3.1540477 -0.75067997
-0.17388143 3.1454909 -0.74825227
-0.15467227 3.1484365 -0.74873781
-0.13485537 3.1376958 -0.74582458
-0.1156003 3.1384642 -0.74582458
-0.096340872 3.1391144 -0.74582458
-0.077218495 3.1454654 -0.74728119
-0.058231767 3.1633387 -0.75165105
-0.038809244 3.1626663 -0.75140828
-0.019369204 3.1570246 -0.74995166
3.0189219e-06 3.159024 -0.7504372
0.019386426 3.1589646 -0.7504372
0.03875684 3.1578162 -0.75019443
0.057986379 3.1497595 -0.74825227
0.077432685 3.1541934 -0.74946612
0.096694641 3.1507502 -0.74873781
0.11638612 3.1597917 -0.75116551
0.13551997 3.153203 -0.74970889
0.15457734 3.1464987 -0.74825227
0.17371929 3.1425853 -0.74752396
0.19234025 3.1308095 -0.7448535
0.21128377 3.125699 -0.74388242
0.23010011 3.1195066 -0.74266857
0.24978031 3.1248047 -0.74436796
0.26853111 3.118381 -0.74315411
0.28739154 3.1137767 -0.7424258
0.30754176 3.1225739 -0.74509627
0.3271012 3.1244872 -0.74606735
0.34594467 3.119529 -0.74533904
0.36519244 3.1183109 -0.74558181
0.3832472 3.1073468 -0.74339688
0.40505654 3.1261005 -0.74873781
0.42187393 3.1062546 -0.74436796
0.44051516 3.1007264 -0.74363965
0.45724943 3.0826125 -0.73975539
0.47481814 3.0711212 -0.73757046
0.49241757 3.0604882 -0.73562831
0.51038539 3.0526254 -0.73441446
0.52694577 3.0370119 -0.73125845
0.54557061 3.0337212 -0.73125845
0.56470865 3.0331776 -0.73198676
0.58092028 3.0172727 -0.72883081
0.59961259 3.0146029 -0.72907358
0.61985749 3.0194187 -0.73125845
0.63958025 3.0212524 -0.73271507
0.65934879 3.0229573 -0.73417169
0.68043965 3.0302119 -0.73708493
0.69901991 3.0259798 -0.73708493
0.72004324 3.0320151 -0.73975539
0.74047607 3.0350788 -0.74169749
0.75837684 3.0276554 -0.74096924
0.7752471 3.0163689 -0.73926985
0.79299784 3.0087414 -0.73854154
0.81093752 3.001946 -0.738056
0.82908273 2.9959788 -0.73781323
0.84745014 2.9908354 -0.73781323
0.86551505 2.9846475 -0.73757046
0.88270724 2.9755611 -0.73659939
0.90151221 2.9719453 -0.73708493
0.92030603 2.9682107 -0.73757046
0.93703473 2.9578846 -0.73635662
0.95337242 2.946542 -0.7349
0.9705202 2.9378738 -0.73417169
0.98790783 2.9300253 -0.73368615
1.0027083 2.9147365 -0.73125845
1.0225031 2.9140205 -0.73271507
1.0390555 2.9040387 -0.73174399
1.0581857 2.9012535 -0.73271507
1.0752909 2.8928876 -0.73222953
1.0950845 2.8916776 -0.73368615
1.1145542 2.8894286 -0.7349
1.1354575 2.8906608 -0.73708493
1.1553361 2.8890429 -0.73854154
1.1712109 2.8774076 -0.73732769
1.1888443 2.870167 -0.73732769
1.2079412 2.8663936 -0.73829877
1.2235936 2.8544705 -0.73708493
1.2375933 2.8389068 -0.7349
1.2565629 2.8348064 -0.73587108
1.2711413 2.820853 -0.73417169
1.28883 2.8138821 -0.73441446
1.3056617 2.8050418 -0.73417169
1.319943 2.7908401 -0.7324723
1.3399856 2.7888081 -0.73417169
1.362182 2.7909932 -0.73708493
1.3818685 2.7877965 -0.73854154
1.3980751 2.7775323 -0.738056
1.413766 2.7663107 -0.73732769
1.4342898 2.7644713 -0.73926985
1.4480588 2.7496114 -0.73757046
1.4653605 2.7415299 -0.73781323
1.4835432 2.7350447 -0.73854154
1.4974887 2.7207923 -0.73708493
1.5136818 2.7107058 -0.73684216
1.5312427 2.7030547 -0.73732769
1.544414 2.6877217 -0.73562831
1.5647869 2.6848984 -0.73757046
1.5743167 2.6635575 -0.73417169
1.5926266 2.6571751 -0.73514277
1.6104131 2.6498394 -0.73587108
1.632243 2.6489909 -0.73854154
1.6489805 2.6397483 -0.73878431
1.6667045 2.6320388 -0.73951262
1.6822988 2.6209464 -0.73926985
1.6994076 2.6122005 -0.73975539
1.7191437 2.6073918 -0.74145478
1.7334923 2.5943751 -0.74072647
1.753732 2.5901144 -0.74266857
1.7712389 2.5817039 -0.74339688
1.7853845 2.5683982 -0.74266857
1.8033459 2.5605667 -0.74363965
1.8178958 2.5478745 -0.74315411
1.8329265 2.535886 -0.74291134
1.8484519 2.5245917 -0.74291134
1.8604387 2.5085285 -0.74145478
1.8775445 2.499392 -0.74218303
1.8899068 2.4839654 -0.74096924
1.9009656 2.4669452 -0.73926985
1.9142754 2.4529409 -0.73854154
1.9335029 2.446475 -0.74024093
1.9527229 2.4398654 -0.74194026
1.9701012 2.4308515 -0.74291134
1.9911364 2.426214 -0.74533904
2.008467 2.4169343 -0.74631011
2.0238841 2.4053071 -0.74655288
2.0386047 2.3928435 -0.74655288
2.0456417 2.3714781 -0.74363965
2.0524936 2.3501165 -0.74072647
2.0604463 2.3302135 -0.73829877
2.067585 2.3095791 -0.73562831
2.079762 2.2946937 -0.7349
2.0938029 2.2818892 -0.7349
2.1097465 2.2711306 -0.73562831
2.1269665 2.2616746 -0.73684216
2.146157 2.2542 -0.73878431
2.1646624 2.2458763 -0.7404837
2.1756911 2.2297757 -0.73951262
2.189332 2.2163839 -0.73951262
2.202204 2.2022231 -0.73926985
2.2156751 2.1886692 -0.73926985
2.2318411 2.1777418 -0.74024093
2.2409692 2.1599686 -0.73878431
2.2499633 2.1421659 -0.73732769
2.2729619 2.1376204 -0.74072647
2.2888792 2.1262736 -0.74169749
2.2997377 2.1102223 -0.74096924
2.3198328 2.1025839 -0.74339688
2.3290751 2.0850761 -0.74218303
2.3410981 2.0701036 -0.74194026
2.3596032 2.0608027 -0.74388242
2.3677948 2.0424855 -0.7424258
2.383976 2.0310628 -0.74363965
2.3986211 2.0182695 -0.74436796
2.4102135 2.0028942 -0.74412519
2.4307089 1.9948343 -0.74679565
2.4474263 1.9835453 -0.74825227
2.4550054 1.9648556 -0.74679565
2.4677768 1.9503561 -0.74703842
2.4865823 1.9405463 -0.74922335
2.4899876 1.9187422 -0.74655288
2.5001693 1.9022536 -0.74606735
2.5055876 1.8822181 -0.74412519
2.5131927 1.8639208 -0.74291134
2.5277138 1.8507562 -0.74388242
2.5453136 1.8397554 -0.74582458
2.5526047 1.8212874 -0.74461073
2.5653186 1.8067071 -0.74509627
2.5843234 1.7964667 -0.74752396
2.5960977 1.7811244 -0.74776673
2.6029603 1.7624434 -0.74655288
2.6161458 1.7480547 -0.74728119
2.6195316 1.7271663 -0.74509627
2.6325202 1.7126467 -0.74582458
2.6437957 1.6969854 -0.74606735
2.6484201 1.6771007 -0.74436796
2.6611295 1.6623596 -0.74509627
2.6721056 1.6465085 -0.74533904
2.6838164 1.6310887 -0.74582458
2.7020967 1.6195747 -0.74825227
2.7153244 1.6049376 -0.74922335
2.7226062 1.586782 -0.74849504
2.7339737 1.5710125 -0.74898058
2.7503157 1.5580304 -0.75092274
2.7649066 1.5439613 -0.75237936
2.7802784 1.5302391 -0.75407869
2.7836454 1.5099154 -0.75237936
2.7902906 1.4914359 -0.75165105
2.8011062 1.4751903 -0.75213659
2.8066602 1.4561895 -0.75116551
2.8112223 1.436735 -0.74995166
2.8095851 1.4142286 -0.74703842
2.821687 1.3986847 -0.7480095
2.8223686 1.3775183 -0.74582458
2.8237715 1.3568162 -0.74388242
2.8232725 1.3353199 -0.74145478
2.8331721 1.3187896 -0.74194026
2.843857 1.3025917 -0.74266857
2.8606417 1.2890998 -0.74509627
2.8676107 1.2711302 -0.7448535
2.8789139 1.2550603 -0.74582458
2.891911 1.2396632 -0.74728119
2.8914163 1.2185079 -0.74509627
2.8961494 1.1996309 -0.74436796
2.9088476 1.1840302 -0.74582458
2.9133551 1.16508 -0.74509627
2.9222553 1.1478907 -0.74558181
2.9373906 1.1330775 -0.74776673
2.9461024 1.1157192 -0.74825227
2.9528928 1.0976212 -0.74825227
2.9604836 1.0798141 -0.74849504
2.96614 1.0613021 -0.74825227
2.9716806 1.0427613 -0.7480095
2.9734359 1.0229316 -0.74679565
2.9842532 1.0062157 -0.7480095
2.9912922 0.9881897 -0.74825227
2.9991455 0.97041345 -0.74873781
3.0142922 0.9549191 -0.75116551
3.0265815 0.93841439 -0.7528649
3.0248554 0.9175759 -0.75092274
3.0322888 0.8995496 -0.75140828
3.0358875 0.88038719 -0.75092274
3.0384321 0.86095041 -0.75019443
3.0445926 0.84254915 -0.7504372
3.049705 0.823852 -0.7504372
3.0556409 0.80537075 -0.75067997
3.0614645 0.78684765 -0.75092274
3.0605884 0.76663584 -0.74946612
3.0774877 0.7508266 -0.75262213
3.0754292 0.73036277 -0.75092274
3.0855246 0.71278656 -0.75237936
3.080374 0.69171876 -0.74995166
3.0817168 0.67218578 -0.74922335
3.0867324 0.65346462 -0.74946612
3.0963857 0.63568091 -0.75092274
3.0992765 0.61648095 -0.75067997
3.1191959 0.60056454 -0.754807
3.1228223 0.58141422 -0.754807
3.1339695 0.56361288 -0.75674915
3.1450157 0.5456965 -0.75869131
3.1483047 0.52638876 -0.75869131
3.1553068 0.50767624 -0.75966239
3.1564448 0.48801035 -0.75917685
3.1536219 0.46778166 -0.75772023
3.1612353 0.44910306 -0.75893408
3.1591249 0.42904666 -0.75772023
3.1568875 0.40903306 -0.75650638
3.1516352 0.38870794 -0.75456423
3.1481798 0.36868766 -0.75310767
3.1552038 0.34989667 -0.75432146
3.1611507 0.33093274 -0.75529253
3.1573291 0.31096169 -0.75383592
3.1630418 0.29193804 -0.754807
3.1754055 0.27343607 -0.75747746
3.1828256 0.25440863 -0.75893408
3.1727169 0.23402233 -0.75602084
3.1711893 0.2143553 -0.75529253
3.1676035 0.19459757 -0.75407869
3.1590517 0.17462602 -0.75165105
3.1687841 0.15566431 -0.75383592
3.1493263 0.13535091 -0.74873781
3.1559141 0.11623654 -0.75019443
3.1507502 0.096693642 -0.74873781
3.1522539 0.077382632 -0.74898058
3.1516995 0.05802181 -0.74873781
3.1607263 0.038786154 -0.75092274
3.1706054 0.0194475 -0.75335044
3.1745455 -8.7755179e-06 -0.75432146
3.1725454 -0.019474795 -0.75383592
3.1675162 -0.03887948 -0.75262213
3.1662481 -0.058296047 -0.75237936
3.1541934 -0.077432685 -0.74946612
3.1410539 -0.096393473 -0.74631011
3.1471891 -0.11591727 -0.7480095
3.1328504 -0.13463768 -0.74461073
3.1406853 -0.15428959 -0.74679565
3.1358051 -0.17334196 -0.74582458
3.1433966 -0.19311824 -0.7480095
3.1334419 -0.21181005 -0.74582458
3.1320832 -0.23103251 -0.74582458
3.1354415 -0.25063455 -0.74703842
3.1396434 -0.27037007 -0.74849504
3.1591761 -0.29159886 -0.75383592
3.1795311 -0.31317291 -0.75941962
3.1843033 -0.3333858 -0.76111901
3.191839 -0.35399085 -0.76354671
3.1857531 -0.37311617 -0.76257563
3.1843665 -0.39277565 -0.7628184
3.1616945 -0.40968195 -0.75772023
3.1495092 -0.42776492 -0.75529253
3.1381817 -0.44585064 -0.75310767
3.137306 -0.46538314 -0.75359321
3.1468537 -0.48655608 -0.75674915
3.1399782 -0.50523782 -0.75577807
3.1454296 -0.52593786 -0.757963
3.1478777 -0.54622519 -0.75941962
3.1444669 -0.56552988 -0.75941962
3.1437986 -0.58534712 -0.76014793
3.1344326 -0.60352349 -0.75869131
0 -0 -0
3.0935338 -0.63510191 -0.75019443
3.0810378 -0.65226012 -0.7480095
3.0684481 -0.66928893 -0.74582458
3.0690157 -0.68916845 -0.74703842
3.0694549 -0.70908016 -0.74825227
3.0754275 -0.73037004 -0.75092274
3.0755999 -0.75037819 -0.75213659
3.0728197 -0.76970774 -0.75262213
3.0633416 -0.78733855 -0.75140828
3.0584531 -0.80612004 -0.75140828
3.0478306 -0.82335114 -0.74995166
3.0464606 -0.84307307 -0.75092274
3.0449634 -0.86280918 -0.75189382
3.0386803 -0.88120598 -0.75165105
3.0387957 -0.90149182 -0.75310767
3.0304224 -0.91927475 -0.75237936
3.029357 -0.93928993 -0.75359321
3.0207627 -0.95698011 -0.7528649
3.0176024 -0.97639406 -0.75359321
3.0198436 -0.9976331 -0.75577807
3.0118272 -1.0155232 -0.75529253
3.0165458 -1.0377753 -0.75820577
3.0073757 -1.0553004 -0.75747746
2.9981041 -1.0727519 -0.75674915
2.9859979 -1.0891312 -0.75529253
2.9774406 -1.1067559 -0.754807
2.9606156 -1.1212213 -0.75213659
2.9536803 -1.1393661 -0.75213659
2.9412169 -1.155338 -0.75067997
2.9313707 -1.1722816 -0.74995166
2.9304111 -1.1928086 -0.75165105
2.9176605 -1.2085375 -0.75019443
2.9101901 -1.2264171 -0.75019443
2.9150908 -1.2496061 -0.75359321
2.9082575 -1.2678572 -0.75383592
2.8951032 -1.2833174 -0.75237936
2.8915958 -1.3030517 -0.75359321
2.8835459 -1.3207697 -0.75359321
2.870991 -1.3363894 -0.75237936
2.8609834 -1.3531501 -0.75189382
2.8543751 -1.3715203 -0.75237936
2.8563657 -1.3941183 -0.75529253
2.8399367 -1.407738 -0.75310767
2.8355772 -1.4273194 -0.75432146
2.8224478 -1.4424824 -0.75310767
2.8092391 -1.457538 -0.75189382
2.7968102 -1.4729383 -0.75092274
2.7825875 -1.4873259 -0.74946612
2.7751143 -1.5052972 -0.74995166
2.764976 -1.5218285 -0.74970889
2.7581265 -1.5401853 -0.7504372
2.7486243 -1.5570799 -0.7504372
2.7440641 -1.5768176 -0.75189382
2.737689 -1.5955803 -0.7528649
2.7203329 -1.6079032 -0.75067997
2.7129114 -1.6260617 -0.75140828
2.7078557 -1.6457019 -0.7528649
2.6927528 -1.6592308 -0.75140828
2.6833439 -1.6762363 -0.75165105
2.6598978 -1.6843606 -0.74776673
2.6625717 -1.7090389 -0.75165105
2.6609776 -1.7311664 -0.75432146
2.6543539 -1.7501327 -0.7555353
2.6387267 -1.763151 -0.75407869
2.6222372 -1.7754995 -0.75237936
2.6088943 -1.7899084 -0.75165105
2.5938809 -1.8031126 -0.7504372
2.5740464 -1.8128468 -0.74776673
2.5565586 -1.8240968 -0.74582458
2.5453181 -1.8397492 -0.74582458
2.539459 -1.859346 -0.74752396
2.5318973 -1.8777837 -0.74873781
2.5226541 -1.8950326 -0.74946612
2.5140662 -1.9128264 -0.7504372
2.5007455 -1.9270315 -0.74995166
2.4942262 -1.9465194 -0.75165105
2.4822357 -1.961787 -0.75165105
2.4731803 -1.9794066 -0.75262213
2.4640019 -1.9969888 -0.75359321
2.4509525 -2.0114543 -0.75335044
2.4303598 -2.0196321 -0.75067997
2.4268265 -2.0420046 -0.75359321
2.4083457 -2.0518219 -0.75165105
2.3957107 -2.0665605 -0.75165105
2.380794 -2.0793064 -0.75092274
2.367991 -2.0938754 -0.75092274
2.3543761 -2.1077185 -0.75067997
2.3378062 -2.1188662 -0.74946612
2.3247612 -2.1331708 -0.74946612
2.3187335 -2.1540003 -0.75189382
2.3054731 -2.1681871 -0.75189382
2.3033633 -2.1929991 -0.75577807
2.2898638 -2.2070911 -0.75577807
2.2762783 -2.2210999 -0.75577807
2.2605374 -2.2329791 -0.75504977
2.2419937 -2.2420039 -0.75335044
2.2275133 -2.255028 -0.75310767
2.2088943 -2.2637913 -0.75140828
2.1936164 -2.2759049 -0.75092274
2.1735923 -2.2829962 -0.74873781
2.1562216 -2.2927556 -0.74752396
2.1480527 -2.3123417 -0.74970889
2.1331685 -2.3247633 -0.74946612
2.1214688 -2.3406844 -0.7504372
2.1109471 -2.3579955 -0.75189382
2.0957968 -2.3701768 -0.75165105
2.0805764 -2.3822608 -0.75140828
2.0646532 -2.3935125 -0.75092274
2.0530722 -2.4098294 -0.75213659
2.0413685 -2.4260938 -0.75335044
2.0276835 -2.4400663 -0.75383592
2.0175943 -2.458463 -0.75577807
2.004303 -2.4730582 -0.75650638
1.9945439 -2.4921281 -0.75869131
1.9834236 -2.5096488 -0.7603907
1.9679873 -2.5217714 -0.7603907
1.9512932 -2.5322621 -0.75990516
1.9310219 -2.5380094 -0.757963
1.9125009 -2.5459311 -0.75674915
1.8962657 -2.5568385 -0.75650638
1.8725225 -2.5574648 -0.75310767
1.8522511 -2.5626149 -0.75116551
1.8364923 -2.5739317 -0.75116551
1.8240141 -2.5899119 -0.75262213
1.7992338 -2.5883071 -0.74873781
1.790449 -2.6097 -0.75189382
1.7695101 -2.6134055 -0.74970889
1.7545186 -2.6258273 -0.75019443
1.7362391 -2.6333032 -0.74922335
1.7226923 -2.6479738 -0.7504372
1.7069359 -2.6593106 -0.75067997
1.6822875 -2.6566179 -0.74679565
1.6674961 -2.669359 -0.74752396
1.6490514 -2.6762359 -0.74655288
1.6381379 -2.695425 -0.74922335
1.6305398 -2.7204063 -0.75359321
1.6054308 -2.7161598 -0.74946612
1.5916636 -2.7309892 -0.75092274
1.5806727 -2.7507994 -0.75383592
1.5599416 -2.7536926 -0.75189382
1.5425433 -2.7623653 -0.75165105
1.5293043 -2.7785785 -0.75359321
1.5108398 -2.785351 -0.7528649
1.4960057 -2.7988474 -0.75407869
1.4819661 -2.8139837 -0.75577807
1.4602075 -2.8144114 -0.75335044
1.4459991 -2.8293657 -0.75504977
1.432098 -2.8451183 -0.75699192
1.4120306 -2.8486362 -0.7555353
1.4026034 -2.8738136 -0.76014793
1.3803257 -2.8727458 -0.75747746
1.3655739 -2.8873007 -0.75917685
1.3449687 -2.8894682 -0.75747746
1.3243885 -2.8914914 -0.75577807
1.3034359 -2.8924866 -0.75383592
1.2829138 -2.8942208 -0.75213659
1.2600957 -2.890476 -0.74898058
1.2442456 -2.9026122 -0.75019443
1.221519 -2.8985691 -0.74703842
1.2040817 -2.9069059 -0.74728119
1.1935304 -2.9322121 -0.75213659
1.1747966 -2.9376786 -0.75165105
1.1613556 -2.9565713 -0.754807
1.1438901 -2.965452 -0.75529253
1.1256729 -2.972415 -0.75529253
1.1070757 -2.9783566 -0.75504977
1.0911045 -2.9914737 -0.75674915
1.0720757 -2.9962854 -0.75626361
1.0520663 -2.9982297 -0.75504977
1.0342802 -3.0064635 -0.7555353
1.0136462 -3.0063176 -0.75383592
0.99153322 -3.0014257 -0.75092274
0.97787094 -3.0222225 -0.754807
0.95726007 -3.0216916 -0.75310767
0.93525797 -3.0163882 -0.75019443
0.91813844 -3.0267122 -0.75140828
0.89762068 -3.0257778 -0.74970889
0.87849832 -3.0293651 -0.74922335
0.85962981 -3.0337648 -0.74898058
0.83841491 -3.0296321 -0.74655288
0.81854641 -3.0300362 -0.74533904
0.80142045 -3.0406306 -0.74679565
0.78250724 -3.0445511 -0.74655288
0.76804805 -3.0662351 -0.75092274
0.74830121 -3.0671198 -0.74995166
0.73013902 -3.0744853 -0.75067997
0.71256858 -3.0845792 -0.75213659
0.69150656 -3.0794275 -0.74970889
0.67197937 -3.0807688 -0.74898058
0.65246183 -3.0819867 -0.74825227
0.63159144 -3.0764287 -0.74582458
0.61326963 -3.0831008 -0.74655288
0.59379137 -3.0839477 -0.74582458
0.57485747 -3.087533 -0.74582458
0.55761546 -3.1005504 -0.74825227
0.53841484 -3.1029577 -0.7480095
0.51952493 -3.1071599 -0.74825227
0.50075746 -3.1122048 -0.74873781
0.48209551 -3.1180949 -0.74946612
0.46281219 -3.1200347 -0.74922335
0.44365931 -3.1228156 -0.74922335
0.42383873 -3.1206727 -0.7480095
0.40493125 -3.1251388 -0.74849504
0.38586652 -3.1285274 -0.74873781
0.36598811 -3.1250548 -0.74728119
0.34669966 -3.1262774 -0.74703842
0.32791325 -3.1322052 -0.7480095
0.30887768 -3.1360893 -0.74849504
0.28962919 -3.1379254 -0.74849504
0.27053553 -3.1415765 -0.74898058
0.25171572 -3.1489797 -0.7504372
0.23274425 -3.1553023 -0.75165105
0.21389984 -3.1644142 -0.75359321
0.19459757 -3.1676035 -0.75407869
0.17547697 -3.1745498 -0.7555353
0.15571156 -3.1697531 -0.75407869
0.13646586 -3.1754949 -0.75529253
0.11687278 -3.1733642 -0.75456423
0.097222798 -3.1682036 -0.75310767
0.07792192 -3.1745594 -0.75456423
0.058389235 -3.1720679 -0.75383592
0.03892469 -3.1723664 -0.75383592
0.019520203 -3.1832163 -0.75650638
-8.055943e-06 -3.1726053 -0.75383592
-0.019462172 -3.1706054 -0.75335044
-0.03887948 -3.1675162 -0.75262213
-0.058204968 -3.1613986 -0.75116551
-0.077408515 -3.1532238 -0.74922335
-0.096544057 -3.1459019 -0.74752396
-0.11584514 -3.1452503 -0.74752396
-0.13484776 -3.1376963 -0.74582458
-0.15438551 -3.1426232 -0.74728119
-0.17366537 -3.1416166 -0.74728119
-0.19347732 -3.1492059 -0.74946612
-0.21345469 -3.1576381 -0.75189382
-0.23332763 -3.1630409 -0.75359321
-0.25148878 -3.1460781 -0.74970889
-0.27120596 -3.1493082 -0.75092274
-0.29133031 -3.1562784 -0.75310767
-0.30983239 -3.1457429 -0.75092274
-0.3302435 -3.1543951 -0.75359321
-0.3489486 -3.1465247 -0.75213659
-0.3691543 -3.1520319 -0.75407869
-0.38920248 -3.155484 -0.7555353
-0.40768176 -3.1463025 -0.75383592
-0.42697945 -3.1437418 -0.75383592
-0.44680828 -3.1449044 -0.754807
-0.46466967 -3.1325083 -0.75237936
-0.48373306 -3.1286395 -0.75213659
-0.50214863 -3.1208239 -0.75092274
-0.52064681 -3.113857 -0.74995166
-0.53941089 -3.1086924 -0.74946612
-0.55795914 -3.1024599 -0.74873781
-0.57805246 -3.1046999 -0.75019443
-0.59819424 -3.1068096 -0.75165105
-0.61762524 -3.1049833 -0.75213659
-0.63568825 -3.0963843 -0.75092274
-0.65648675 -3.1009662 -0.75310767
-0.67488027 -3.0940366 -0.75237936
-0.69406509 -3.0907838 -0.75262213
-0.71454763 -3.0930827 -0.75432146
-0.734411 -3.0924151 -0.75529253
-0.75222045 -3.0831387 -0.75407869
-0.77348465 -3.0878744 -0.75650638
-0.79096597 -3.0774336 -0.75504977
-0.80760556 -3.0640807 -0.7528649
-0.82816458 -3.0656226 -0.75456423
-0.84462756 -3.0520699 -0.75237936
-0.86280918 -3.0449634 -0.75189382
-0.88364077 -3.0470648 -0.75383592
-0.90149182 -3.0387957 -0.75310767
-0.91983861 -3.0322788 -0.7528649
-0.93900228 -3.0284307 -0.75335044
-0.95874 -3.0263107 -0.75432146
-0.97489917 -3.0129881 -0.75237936
-0.99275887 -3.0051074 -0.75189382
-1.0108689 -2.9980404 -0.75165105
-1.0245067 -2.9780233 -0.7480095
-1.0427603 -2.9716811 -0.7480095
-1.0580301 -2.9570074 -0.74582458
-1.0751559 -2.9477262 -0.74509627
-1.0945759 -2.9447103 -0.74606735
-1.1122798 -2.9370317 -0.74582458
-1.1393661 -2.9536803 -0.75213659
-1.150013 -2.927675 -0.74703842
-1.1704789 -2.9268677 -0.74873781
-1.1928086 -2.9304111 -0.75165105
-1.2081659 -2.9167643 -0.74995166
-1.2252859 -2.9075086 -0.74946612
-1.243103 -2.8999357 -0.74946612
-1.2624252 -2.8958101 -0.7504372
-1.2813501 -2.8906696 -0.75116551
-1.3034506 -2.8924801 -0.75383592
-1.3215783 -2.8853097 -0.75407869
-1.339667 -2.8780255 -0.75432146
-1.3593764 -2.8741353 -0.7555353
-1.3811909 -2.8744824 -0.757963
-1.3979506 -2.8642104 -0.75747746
-1.4142054 -2.8529718 -0.75674915
-1.4347396 -2.8503051 -0.75844854
-1.4561778 -2.8492208 -0.76063347
-1.4718447 -2.8367884 -0.75966239
-1.4887707 -2.8268459 -0.75941962
-1.5042576 -2.8142362 -0.75844854
-1.5233485 -2.8083634 -0.75941962
-1.543828 -2.8049114 -0.76111901
-1.5595897 -2.7928455 -0.7603907
-1.5786109 -2.7865989 -0.76136178
-1.5980976 -2.781065 -0.76257563
-1.6156205 -2.7720447 -0.7628184
-1.6311173 -2.7595744 -0.76209009
-1.6475201 -2.7486823 -0.76184732
-1.6643546 -2.7385216 -0.76184732
-1.6857094 -2.7356889 -0.76403224
-1.7029778 -2.7261169 -0.76427501
-1.7212307 -2.7180743 -0.76500332
-1.7404977 -2.7115428 -0.76621711
-1.7565733 -2.6999993 -0.7659744
-1.7715043 -2.6867414 -0.76524609
-1.7852602 -2.6717889 -0.76403224
-1.8016204 -2.6607845 -0.76403224
-1.8184619 -2.6504796 -0.76427501
-1.8407847 -2.6480315 -0.76694542
-1.8586746 -2.6390657 -0.76767373
-1.8765239 -2.6299798 -0.76840204
-1.8954686 -2.6223462 -0.76961589
-1.9120967 -2.6114488 -0.76985866
-1.9280843 -2.5996673 -0.76985866
-1.9422504 -2.5854616 -0.76913035
-1.9569026 -2.5719519 -0.76864481
-1.9750166 -2.562969 -0.76961589
-1.9913026 -2.5515668 -0.76985866
-2.0033104 -2.5347352 -0.76840204
-2.0242836 -2.5292099 -0.77058697
-2.0354869 -2.5114675 -0.76888758
-2.0527058 -2.5011797 -0.76961589
-2.0655329 -2.485554 -0.76864481
-2.0688729 -2.4587345 -0.76403224
-2.0870676 -2.4496846 -0.76524609
-2.1007915 -2.435364 -0.76476055
-2.1195254 -2.4268105 -0.76621711
-2.1350191 -2.4144862 -0.76645988
-2.1517358 -2.4035079 -0.76718819
-2.163836 -2.3873858 -0.76621711
-2.1758194 -2.3712056 -0.76524609
-2.1870253 -2.3542581 -0.76403224
-2.1987703 -2.3379686 -0.76306117
-2.211736 -2.3230286 -0.76257563
-2.2232544 -2.3066211 -0.76160455
-2.2346547 -2.2901597 -0.76063347
-2.2500288 -2.2777848 -0.76111901
-2.2591591 -2.259136 -0.75941962
-2.2798824 -2.2520463 -0.76184732
-2.2881012 -2.2325971 -0.75990516
-2.2912765 -2.2084212 -0.75626361
-2.3174348 -2.2063563 -0.76063347
-2.3174977 -2.1794732 -0.75602084
-2.3265612 -2.1612523 -0.75456423
-2.3369186 -2.1443138 -0.75359321
-2.3414035 -2.1221199 -0.75067997
-2.3500426 -2.1038327 -0.74922335
-2.3592722 -2.0861619 -0.7480095
-2.3632576 -2.063992 -0.74509627
-2.3699992 -2.0443857 -0.74315411
-2.379544 -2.0272899 -0.74218303
-2.3837709 -2.0057838 -0.73951262
-2.3915553 -1.9874011 -0.738056
-2.4029546 -1.9720743 -0.73781323
-2.4104867 -1.9536297 -0.73635662
-2.4224284 -1.9388025 -0.73635662
-2.4319952 -1.9220985 -0.73562831
-2.4383883 -1.9029641 -0.73392892
-2.4477129 -1.8861911 -0.73320061
-2.4561512 -1.8687882 -0.73222953
-2.4582617 -1.8466941 -0.72931629
-2.4672084 -1.8298429 -0.72858804
-2.4744749 -1.8118061 -0.7273742
-2.4800406 -1.792613 -0.72567481
-2.490993 -1.777362 -0.72567481
-2.5002651 -1.7609276 -0.72518927
-2.5070393 -1.7427859 -0.72397542
-2.5176857 -1.7273703 -0.72397542
-2.5290406 -1.7124331 -0.72421819
-2.5362732 -1.6947284 -0.72324711
-2.5425737 -1.6764657 -0.72203326
-2.5495589 -1.6587183 -0.72106218
-2.5523396 -1.63833 -0.71887726
-2.5574255 -1.6195261 -0.71742064
-2.5631998 -1.6012354 -0.71620685
-2.5647159 -1.5803918 -0.71377915
-2.571877 -1.5631148 -0.71305084
-2.578923 -1.5458093 -0.71232253
-2.5866888 -1.5289696 -0.71183699
-2.5943451 -1.5120929 -0.71135145
-2.5993679 -1.4937308 -0.71013761
-2.6051073 -1.4758419 -0.70916653
-2.6073368 -1.4560483 -0.70722437
-2.6051712 -1.4339458 -0.70406842
-2.612215 -1.4170094 -0.70358288
-2.6182933 -1.3995835 -0.70285457
-2.6268318 -1.3834915 -0.70285457
-2.6326873 -1.3660083 -0.70212626
-2.6401556 -1.3493875 -0.70188349
-2.639719 -1.328804 -0.6994558
-2.6426067 -1.309999 -0.69799918
-2.6392596 -1.2882323 -0.69484317
-2.6383688 -1.2678157 -0.69241548
-2.6373274 -1.2474587 -0.68998784
-2.644932 -1.2312529 -0.68998784
-2.6515551 -1.2145971 -0.68974507
-2.666919 -1.2018887 -0.69193
-2.6742435 -1.1855021 -0.69193
-2.6787989 -1.1679089 -0.69120169
-2.6832395 -1.1503046 -0.69047338
-2.6830943 -1.1308076 -0.68853122
-2.6863968 -1.1128396 -0.68756014
-2.6877828 -1.0941428 -0.68610352
-2.6890404 -1.075471 -0.6846469
-2.7091346 -1.0642663 -0.68828845
-2.6966043 -1.0402987 -0.68319029
-2.7092881 -1.0261357 -0.68488967
-2.7200804 -1.0111808 -0.68610352
-0.29349947 -0.10817216 -0.03815427
-0.28684968 -0.10375746 -0.036212124
-0.28748092 -0.10199543 -0.036212124
-0.28901878 -0.1005448 -0.036454894
-0.28227544 -0.096292697 -0.034512743
-0.27917603 -0.093343049 -0.033541668
-0.27235886 -0.089241922 -0.031599522
-0.26827684 -0.086105935 -0.030385679
-0.26787344 -0.08417125 -0.030142911
-0.26745644 -0.082244769 -0.029900141
-0.26888618 -0.080877699 -0.030142911
-0.27124098 -0.079766005 -0.030628446
-0.26985842 -0.077571958 -0.030142911
-0.27313444 -0.076689839 -0.030871216
-0.27359986 -0.075012475 -0.030871216
-0.27311686 -0.07308539 -0.030628446
-0.26980159 -0.070443675 -0.029657373
-0.26740545 -0.06808079 -0.028929068
-0 -0 -0
-0.26161337 -0.063227616 -0.027229687
-0.26199639 -0.061621197 -0.027229687
-0 -0 -0
-0.26273283 -0.058401458 -0.027229687
-0 -0 -0
-0.26723108 -0.055951867 -0.028200762
-0 -0 -0
-0 -0 -0
-0 -0 -0
-0.25897542 -0.04766329 -0.025773076
-0 -0 -0
-0 -0 -0
-0 -0 -0
-0 -0 -0
-0 -0 -0
-0 -0 -0
-0 -0 -0
-0 -0 -0
-0 -0 -0
-0 -0 -0
-0 -0 -0
-0 -0 -0
-0 -0 -0
-0 -0 -0
-0 -0 -0
-0 -0 -0
-0.29058754 -0.02249842 -0.032813363
-0 -0 -0
-0.29084176 -0.018930769 -0.032813363
-0.29579556 -0.017411765 -0.034027208
-0 -0 -0
-0 -0 -0
-0.2970354 -0.011999533 -0.034269974
-0.29807305 -0.010206128 -0.034512743
-0.29716027 -0.0083535472 -0.034269974
-0.29623601 -0.0065125525 -0.034027208
-0.29336035 -0.0046601263 -0.033298902
-0.28659293 -0.0028208655 -0.031599522
-0 0 -0
-0.28369579 0.00067734695 -0.030871216
-0.27980626 0.002369002 -0.029900141
-0.27978647 0.0040858164 -0.029900141
-0.27878633 0.0057783104 -0.029657373
-0.27777603 0.0074586854 -0.029414605
-0 0 -0
-0.28444779 0.011160955 -0.031113984
-0 0 -0
-0.28428942 0.014650727 -0.031113984
-0.28613064 0.016514508 -0.031599522
-0.28505605 0.018204078 -0.031356752
-0.26741529 -0.0063249632 -0.029802367
-0.26744908 -0.0046840147 -0.029802367
-0.27327618 -0.0031175308 -0.031323902
-0.27522475 -0.0014536913 -0.031831082
-0.28006503 0.00023223441 -0.033099025
-0.27618915 0.0019292147 -0.03208467
-0.2781066 0.0036464445 -0.03259185
-0.27421036 0.0052838642 -0.03157749
-0.27417278 0.0069662882 -0.03157749
-0 0 -0
-0 0 -0
-0 0 -0
-0 0 -0
-0 0 -0
-0 0 -0
-0 0 -0
-0 0 -0
-0 0 -0
-0 0 -0
-0 0 -0
-0 0 -0
-0 0 -0
-0 0 -0
-0 0 -0
-0 0 -0
-0 0 -0
-0 0 -0
-0 0 -0
-0 0 -0
-0 0 -0
-0 0 -0
-0 0 -0
-0 0 -0
-0 0 -0
-0 0 -0
-0 0 -0
-0 0 -0
-0 0 -0
-0 0 -0
-0 0 -0
-0 0 -0
-0 0 -0
-0 0 -0
-0 0 -0
-0 0 -0
-0 0 -0
-0 0 -0
-0 0 -0
-0 0 -0
-0 0 -0
-0 0 -0
-0 0 -0
-0 0 -0
-0 0 -0
-0 0 -0
-0 0 -0
-0 0 -0
-0 0 -0
-0 0 -0
-0 0 -0
-0 0 -0
