# .PCD v0.7 - Point Cloud Data file format
VERSION 0.7
FIELDS x y z
SIZE 4 4 4
TYPE F F F
COUNT 1 1 1
WIDTH 1555
HEIGHT 1
VIEWPOINT 0 0 0 1 0 0 0
POINTS 1555
DATA ascii
-2.7831032 4.710299 -0.7878834
-2.7506659 4.7213058 -0.78683782
-2.7216449 4.7380948 -0.78683782
-2.7032363 4.7736363 -0.79012382
-2.6763036 4.7944508 -0.79087067
-2.6596994 4.8341751 -0.79490346
-2.6285739 4.847796 -0.79445535
-2.5917923 4.8507504 -0.79221493
-2.5684257 4.8788123 -0.79430598
-2.5270653 4.8725338 -0.79057193
-2.5128584 4.9187698 -0.79579961
-2.4839628 4.9367461 -0.79624772
-2.4580128 4.9607553 -0.79774135
-2.4331617 4.9872975 -0.79968303
-2.4080772 5.0137215 -0.80162477
-2.3734663 5.0203567 -0.80028051
-2.3426173 5.0348258 -0.80028051
-2.3125029 5.0509033 -0.80057919
-2.2863386 5.0758166 -0.80237156
-2.2631581 5.107832 -0.80535883
-2.2349329 5.1288748 -0.80655372
-2.1968036 5.1270394 -0.80401456
-2.1768129 5.1677618 -0.80849546
-2.1488435 5.1901579 -0.80998909
-2.1124876 5.1922536 -0.80819672
-2.0721521 5.1839986 -0.80476135
-2.0449998 5.2085814 -0.80670309
-2.0222456 5.2450204 -0.81058651
-1.9928235 5.2647285 -0.81178141
-1.9587613 5.2722225 -0.81103462
-1.9226515 5.2739224 -0.80939162
-1.8885913 5.2809649 -0.80864483
-1.8512467 5.2784567 -0.80640435
-1.8230009 5.3018727 -0.80834609
-1.7898037 5.3110847 -0.80804735
-1.7574917 5.3229055 -0.80819672
-1.7214533 5.3232393 -0.80655372
-1.6980045 5.3629265 -0.81118399
-1.6674061 5.3808002 -0.81237888
-1.6334987 5.3880911 -0.81193078
-1.5992837 5.3942204 -0.81133336
-1.570281 5.4181786 -0.81357378
-1.5394289 5.4362745 -0.81491804
-1.5060437 5.4456177 -0.81491804
-1.4651337 5.4270711 -0.81058651
-1.4232501 5.4034472 -0.8055082
-1.3858901 5.3957968 -0.80296904
-1.352756 5.4041986 -0.80296904
-1.319571 5.4123974 -0.80296904
-1.2883893 5.4290509 -0.8043133
-1.2561641 5.4416718 -0.80506009
-1.2218858 5.4454179 -0.80446267
-1.1882399 5.4518466 -0.8043133
-1.1535391 5.4532304 -0.80341709
-1.1230344 5.4747353 -0.80565757
-1.092309 5.4960709 -0.80789798
-1.0524077 5.4706259 -0.80296904
-1.0186402 5.4760084 -0.80281967
-0.98868871 5.5025935 -0.8059563
-0.95844913 5.5290165 -0.80909288
-0.92792243 5.5552745 -0.81222951
-0.88990057 5.5364566 -0.80849546
-0.85455626 5.5330176 -0.8071512
-0.82174802 5.5459819 -0.80834609
-0.78728688 5.5479827 -0.80789798
-0.75203592 5.5438905 -0.80655372
-0.71838516 5.5513425 -0.80700183
-0.68298185 5.5448508 -0.80535883
-0.64711201 5.5332232 -0.80296904
-0.6104331 5.5125198 -0.79923493
-0.57454562 5.4964924 -0.79624772
-0.54544348 5.5471492 -0.80341709
-0.51112503 5.5474377 -0.80296904
-0.47471181 5.5228848 -0.79878688
-0.43916821 5.5049944 -0.79565024
-0.40480295 5.4996963 -0.79445535
-0.36952442 5.4793859 -0.79101998
-0.33505285 5.4677329 -0.78892893
-0.30095509 5.4598131 -0.78743529
-0.26826718 5.4783459 -0.78997445
-0.2352369 5.4937196 -0.79206556
-0.20076707 5.474309 -0.78892893
-0.16681398 5.4635777 -0.78713655
-0.13309577 5.4565902 -0.78594166
-0.099558756 5.4543386 -0.78549355
-0.065972015 5.4449596 -0.78399998
-0.032618135 5.4551497 -0.78549355
0.0008484135 5.4384375 -0.78295439
0.034095783 5.4195437 -0.7801165
0.066911317 5.3846278 -0.77488881
0.10048795 5.4127855 -0.77922034
0.13342732 5.4011936 -0.77757734
0.16717987 5.4200397 -0.78056461
0.20054373 5.421876 -0.78101271
0.2335082 5.4136286 -0.77996713
0.26647678 5.407156 -0.77922034
0.29937476 5.4004827 -0.77847356
0.33195686 5.3896623 -0.77712923
0.36394811 5.3717399 -0.77473944
0.39426985 5.3339067 -0.76936239
0.42770305 5.3402576 -0.77070665
0.46259221 5.3621602 -0.77444071
0.49457267 5.3493752 -0.77294713
0.5257327 5.3295121 -0.77040792
0.5595606 5.3370032 -0.77205092
0.5914225 5.3256073 -0.77085602
0.62051195 5.2914352 -0.76622576
0.65211809 5.2806592 -0.76518023
0.6842525 5.2745976 -0.76488149
0.71620363 5.2673607 -0.76443344
0.7469762 5.252099 -0.76279044
0.77831572 5.2415485 -0.76189429
0.81015968 5.2347202 -0.76159555
0.84116203 5.2228174 -0.76055002
0.87400991 5.2224336 -0.76129681
0.90417427 5.2062569 -0.75965381
0.93171775 5.1762829 -0.75591975
0.95638871 5.1325603 -0.75009459
0.98692697 5.1217408 -0.74934781
1.0094448 5.0709825 -0.74247712
1.0180303 4.9552517 -0.72559911
1.027491 4.8502507 -0.7103641
1.0310585 4.724072 -0.69184309
1.0424484 4.6395178 -0.67974472
1.0483817 4.535738 -0.66465908
1.0773369 4.5340295 -0.66540593
1.0882369 4.4581766 -0.65465176
1.1095561 4.4274387 -0.65091771
1.135469 4.4157596 -0.65017092
1.191059 4.5167413 -0.66704887
1.2040322 4.4549432 -0.65853524
1.225799 4.4274611 -0.65539861
1.2524024 4.417954 -0.65509987
1.2819686 4.4187326 -0.65644413
1.3084942 4.4088874 -0.65614539
1.331786 4.3884764 -0.65420371
1.3349407 4.3037324 -0.64210534
1.3951061 4.4019632 -0.65898329
1.4019766 4.3312373 -0.6491254
1.4456043 4.3741851 -0.65734035
1.4547057 4.3127699 -0.64897603
1.4663286 4.2607579 -0.64210534
1.4921168 4.2507477 -0.64195597
1.5338432 4.2852626 -0.64897603
1.5536642 4.2581234 -0.64613813
1.5725204 4.2290497 -0.6430015
1.5970376 4.2156229 -0.64240402
1.6235864 4.2075891 -0.64270276
1.6584195 4.2205524 -0.64643681
1.6868576 4.216723 -0.6474824
1.7145647 4.2108717 -0.64822918
1.7407486 4.2011852 -0.64837855
1.7634192 4.1831369 -0.64718366
1.7800853 4.1513391 -0.64374828
1.8067104 4.1430569 -0.64419639
1.822874 4.1111059 -0.64076108
1.8500978 4.1043501 -0.64150786
1.8867854 4.1180878 -0.64569002
1.9174467 4.1180844 -0.64763176
1.9481789 4.1178598 -0.64957345
1.9699804 4.0987 -0.64837855
1.9955266 4.0874233 -0.64852792
2.0104611 4.0547299 -0.64509255
2.037972 4.047616 -0.64598876
2.0632195 4.0359154 -0.64613813
2.0874891 4.0223022 -0.64598876
2.1139743 4.0129166 -0.64658618
2.1394904 4.0016136 -0.64688492
2.1786284 4.0153489 -0.65151519
2.2051334 4.0053697 -0.6521126
2.23401 3.999532 -0.65345687
2.2541194 3.9780078 -0.6521126
2.2839081 3.9735305 -0.65375561
2.3132284 3.9679828 -0.65524924
2.3370285 3.9528635 -0.65509987
2.377007 3.9647348 -0.65973014
2.3971786 3.9433167 -0.65853524
2.4234052 3.9319003 -0.65913266
2.455348 3.9295325 -0.66137314
2.4847059 3.9227448 -0.66286677
2.5151417 3.917408 -0.66465908
2.5520794 3.9217885 -0.66824383
2.5886207 3.9250374 -0.67167914
2.616503 3.9148335 -0.67272466
2.6515682 3.9150763 -0.67571193
2.7040849 3.9403045 -0.68332946
2.6858602 3.8627622 -0.67212725
2.716347 3.8559079 -0.67391956
2.7382314 3.8367541 -0.67347151
2.7628808 3.8214827 -0.67377025
2.7932901 3.814029 -0.67556256
2.8213544 3.8031697 -0.67675745
2.8529556 3.7968514 -0.67884856
2.8827879 3.7879281 -0.68049157
2.9283175 3.7991393 -0.68601799
2.9643545 3.7974646 -0.68915457
2.9986405 3.7931638 -0.69184309
3.0311306 3.7862694 -0.69408357
3.0723686 3.7898698 -0.6984151
3.1175296 3.7976904 -0.70364279
3.1534178 3.793695 -0.70663005
3.1900108 3.7901578 -0.70976663
3.2356598 3.7968478 -0.71499437
3.2776337 3.7986286 -0.71932584
3.3392713 3.822371 -0.72813827
3.367249 3.8069932 -0.72918379
3.4004416 3.7973073 -0.73142427
3.4349706 3.7888217 -0.73396343
3.4862425 3.7982626 -0.74023664
3.5236204 3.7920079 -0.74337327
3.5522428 3.7760763 -0.74456817
3.5937614 3.7735376 -0.74860096
3.6470516 3.7827291 -0.75517291
3.6791737 3.7694769 -0.75711465
3.6966724 3.7412052 -0.75591975
3.7153618 3.7142591 -0.7550236
3.7190821 3.6726377 -0.75099075
3.7139366 3.6228278 -0.74516565
3.7296863 3.5937979 -0.74382138
3.7710094 3.589247 -0.74785417
3.8066518 3.5789063 -0.75069207
3.8285401 3.5554819 -0.75069207
3.8517416 3.5332599 -0.75099075
3.8689513 3.5055771 -0.75009459
3.883019 3.4751792 -0.74860096
3.9183476 3.4637275 -0.75143886
3.9186676 3.4214156 -0.7472567
3.9463277 3.4031167 -0.74860096
3.9535823 3.3673012 -0.74591243
3.9741693 3.342979 -0.74591243
4.0235138 3.3425345 -0.75158823
4.0691781 3.3384748 -0.75651717
4.1018806 3.3234005 -0.75890702
4.1252842 3.3006394 -0.75950444
4.1229553 3.2574935 -0.75517291
4.1561208 3.242471 -0.75771213
4.1688871 3.2114792 -0.75636786
4.1814294 3.1804531 -0.7550236
4.2087736 3.1606722 -0.75651717
4.2304711 3.1365545 -0.75696528
4.242455 3.105283 -0.75562102
4.2678413 3.0838249 -0.75681591
4.2866831 3.0575798 -0.75681591
4.2908082 3.0209768 -0.75412738
4.3263178 3.0064375 -0.75726402
4.3373437 2.9748034 -0.75591975
4.3374977 2.9359446 -0.75263375
4.3809233 2.926295 -0.75726402
4.380631 2.8873916 -0.75397801
4.4115295 2.8690805 -0.75636786
4.4099078 2.8296804 -0.75293249
4.4188313 2.7972815 -0.75143886
4.4560432 2.7826807 -0.7550236
4.4477739 2.7397346 -0.7505427
4.48563 2.7252226 -0.75427675
4.4963288 2.6940918 -0.75323123
4.5255461 2.6739943 -0.75547165
4.5615206 2.65762 -0.75890702
4.589747 2.6364734 -0.76099807
4.5722775 2.5892665 -0.75517291
4.6070757 2.5717616 -0.75845891
4.6253681 2.5448742 -0.75890702
4.6322026 2.5117342 -0.75741339
4.6640992 2.4921141 -0.76025128
4.6898031 2.4689739 -0.7620436
4.6899409 2.4324155 -0.75950444
4.7083001 2.4053915 -0.76010191
4.7176704 2.3737912 -0.75920576
4.7206278 2.3390949 -0.75726402
4.7402239 2.3126857 -0.75816017
4.7694788 2.2908311 -0.76069933
4.7762933 2.2581437 -0.75950444
4.7846794 2.2262928 -0.75860828
4.7766709 2.1870184 -0.7550236
4.8197541 2.1710629 -0.75995255
4.8492584 2.1486549 -0.76264107
4.8677902 2.1212289 -0.76353723
4.8752608 2.0889854 -0.76264107
4.857913 2.0463715 -0.75771213
4.8639822 2.0138791 -0.75666654
4.896399 1.9921899 -0.75995255
4.8837385 1.9522048 -0.75591975
4.9121933 1.9287031 -0.75860828
4.9017911 1.8899937 -0.7550236
4.9188447 1.8619804 -0.75591975
4.9134917 1.8255689 -0.75323123
4.9515433 1.8052016 -0.75756276
4.9196959 1.7594783 -0.75069207
4.9350648 1.7308937 -0.75143886
4.9577489 1.7047572 -0.7533806
4.98592 1.6803008 -0.75621849
5.0139771 1.6555626 -0.75905639
5.004283 1.6183813 -0.75591975
5.0395722 1.5956984 -0.75995255
5.0521021 1.5656235 -0.76040065
5.0332241 1.5259947 -0.75591975
5.0804148 1.5063173 -0.76189429
5.0848131 1.4737408 -0.76114744
5.0928087 1.4422441 -0.76099807
5.0939374 1.408861 -0.75980318
5.1015315 1.3773212 -0.75965381
5.0831127 1.3389466 -0.75547165
5.0749507 1.3035538 -0.75293249
5.1164269 1.2807864 -0.75816017
5.1068969 1.2451563 -0.75547165
5.0980849 1.2099197 -0.75293249
5.1256466 1.1832819 -0.75606912
5.0971112 1.1438067 -0.7505427
5.1446118 1.121345 -0.75681591
5.1156011 1.0821933 -0.75128949
5.1366749 1.0537615 -0.75352997
5.1595311 1.0254968 -0.75606912
5.1560163 0.99195337 -0.75457549
5.1415906 0.95650482 -0.75143886
5.1950512 0.93349683 -0.75875765
5.1461215 0.89215678 -0.75039333
5.1856341 0.86625856 -0.75562102
5.1371565 0.82580453 -0.74740607
5.1773067 0.79969394 -0.75278312
5.1547284 0.76385933 -0.74860096
5.2014155 0.73818094 -0.7550236
5.1705728 0.70147431 -0.74964648
5.1894894 0.67163545 -0.75188696
5.2082334 0.64159077 -0.75412738
5.1914477 0.60721397 -0.75099075
5.2117834 0.57719499 -0.75352997
5.2014585 0.54376894 -0.75143886
5.231267 0.51445007 -0.75547165
5.2353096 0.48243245 -0.75562102
5.2568893 0.45190504 -0.75845891
5.2536492 0.41917035 -0.75756276
5.2531638 0.38670954 -0.75711465
5.2238679 0.35234717 -0.75233507
5.2279053 0.32040802 -0.75263375
5.228786 0.28826994 -0.75248438
5.2235427 0.25584424 -0.75143886
5.2635422 0.22542989 -0.75726402
5.2470398 0.19248065 -0.75457549
5.2580051 0.16058144 -0.75606912
5.2401104 0.12786181 -0.75323123
5.2842956 0.096491374 -0.75980318
5.2660027 0.063842155 -0.75696528
5.2415762 0.03138686 -0.75323123
5.2495804 -0.00077836955 -0.75442612
5.2445326 -0.032957006 -0.75367934
5.2531304 -0.065248735 -0.7550236
5.2289042 -0.097034506 -0.75143886
5.2440262 -0.12951076 -0.75382864
5.2816768 -0.16288225 -0.75965381
5.220304 -0.19304453 -0.7505427
5.2200089 -0.2251149 -0.75069207
5.2580323 -0.25909537 -0.75666654
5.2395601 -0.29041916 -0.75412738
5.2643256 -0.32420999 -0.75816017
5.2592778 -0.35630405 -0.75771213
5.2668533 -0.38929871 -0.75920576
5.2338119 -0.41915441 -0.75457549
5.26759 -0.454413 -0.76010191
5.2804556 -0.48818564 -0.7624917
5.2970405 -0.52252239 -0.76547897
5.3163524 -0.55739087 -0.76891428
5.3098841 -0.58967286 -0.76846623
5.2501903 -0.61566603 -0.75995255
5.2286506 -0.64568383 -0.75726402
5.2500839 -0.68106699 -0.76114744
5.2820568 -0.71820515 -0.76667386
5.2491622 -0.74655783 -0.76234233
5.2523069 -0.77991563 -0.76353723
5.2503538 -0.81258285 -0.76398534
5.2306266 -0.84242153 -0.76174492
5.2477884 -0.87825894 -0.76518023
5.2004118 -0.90315783 -0.75875765
5.2434273 -0.94381893 -0.76622576
5.2229571 -0.97325402 -0.76398534
5.2518387 -1.0120262 -0.76936239
5.2018933 -1.0355351 -0.76264107
5.1731658 -1.062852 -0.75920576
5.1858921 -1.0986769 -0.76219296
5.2167268 -1.1387084 -0.76801813
5.2125359 -1.1713471 -0.76846623
5.2100668 -1.2044232 -0.76921302
5.2083502 -1.2377418 -0.77010924
5.1468687 -1.256532 -0.76174492
5.2052369 -1.304691 -0.77205092
5.1942606 -1.3358657 -0.77160287
5.1591973 -1.3606458 -0.76742071
5.1669774 -1.3966663 -0.76995987
5.1087613 -1.4146121 -0.76219296
5.1056924 -1.4475517 -0.76308918
5.092916 -1.4777493 -0.7624917
5.0951271 -1.51235 -0.76428407
5.1094041 -1.5507691 -0.76801813
5.074296 -1.5741748 -0.76398534
5.0871615 -1.6124556 -0.76757002
5.0668249 -1.6402873 -0.76592708
5.0613585 -1.6728984 -0.76667386
5.0257039 -1.6953837 -0.76264107
4.9955745 -1.7194268 -0.75950444
5.0063863 -1.7575847 -0.76293981
4.9573426 -1.7745985 -0.75681591
4.9881563 -1.820245 -0.76353723
4.9518728 -1.8415065 -0.75950444
4.974689 -1.8848256 -0.76503086
4.9584184 -1.9135333 -0.76428407
4.9419827 -1.9421123 -0.76353723
4.9180398 -1.9676218 -0.76159555
4.9305978 -2.0078354 -0.76562834
4.9419327 -2.0478981 -0.76951176
4.9128757 -2.071265 -0.76682323
4.8782663 -2.0920129 -0.76323855
4.8843694 -2.1302111 -0.76637512
4.859457 -2.1549275 -0.76443344
4.8497486 -2.1863303 -0.76503086
4.8542185 -2.2242885 -0.76801813
4.8189688 -2.244009 -0.76443344
4.7952781 -2.2688816 -0.76279044
4.7901773 -2.3025477 -0.76428407
4.7857318 -2.3366706 -0.76592708
4.7863617 -2.3734622 -0.76846623
4.8034978 -2.4188025 -0.77384329
4.7595162 -2.4333706 -0.76891428
4.7304554 -2.4552374 -0.76652449
4.7249231 -2.4892886 -0.7681675
4.6929951 -2.509371 -0.7653296
4.6948891 -2.547555 -0.76831686
4.662714 -2.5672493 -0.76547897
4.6667256 -2.6069062 -0.76891428
4.6162362 -2.615984 -0.76293981
4.6095262 -2.649682 -0.76458281
4.6034307 -2.6838942 -0.76637512
4.6353841 -2.7407858 -0.77488881
4.5930424 -2.7539167 -0.77040792
4.6098495 -2.8026011 -0.77638245
4.581625 -2.8240867 -0.77444071
4.5558267 -2.846904 -0.77294713
4.5649981 -2.8917422 -0.77772671
4.5371861 -2.913285 -0.77593434
4.5009952 -2.9292006 -0.77264839
4.4722085 -2.9496834 -0.77070665
4.4425182 -2.9693737 -0.7686156
4.411118 -2.9877019 -0.76622576
4.4147115 -3.0298233 -0.77025855
4.412271 -3.0681479 -0.77324581
4.3868966 -3.0906062 -0.77205092
4.3702645 -3.1191893 -0.77249902
4.3262076 -3.1279807 -0.76786876
4.3101234 -3.1568048 -0.76846623
4.3025823 -3.1920314 -0.77070665
4.2805443 -3.216589 -0.77025855
4.2630873 -3.2445903 -0.77070665
4.2430987 -3.2706871 -0.77070665
4.2050266 -3.2826624 -0.76727134
4.1607642 -3.2893872 -0.76264107
4.1304698 -3.3068194 -0.76069933
4.148499 -3.3632443 -0.7681675
4.1338973 -3.3936563 -0.76936239
4.1183181 -3.423383 -0.77040792
4.0926971 -3.4447668 -0.76951176
4.0632067 -3.4627576 -0.76786876
4.0254164 -3.4734089 -0.76458281
4.0137067 -3.5065024 -0.76652449
4.0128493 -3.5494113 -0.77070665
4.0020418 -3.5838637 -0.77294713
3.9799764 -3.6083522 -0.77294713
3.9796102 -3.6527684 -0.77742797
3.9448111 -3.665673 -0.77488881
3.9193645 -3.6870983 -0.7742914
3.9009624 -3.7151701 -0.77518755
3.8852098 -3.7459004 -0.77668118
3.8635671 -3.7710507 -0.77697992
3.8319173 -3.7863445 -0.77518755
3.8058169 -3.8069878 -0.77459008
3.7914159 -3.8394163 -0.77653182
3.8154156 -3.9114568 -0.78683782
3.7597911 -3.9020338 -0.77996713
3.7753074 -3.9665799 -0.78863019
3.7197497 -3.9565251 -0.7817595
3.6920395 -3.975651 -0.78101271
3.6789358 -4.0106196 -0.78355187
3.6350091 -4.0118642 -0.77922034
3.6261461 -4.0517793 -0.78280503
3.5894318 -4.0606151 -0.7801165
3.5455945 -4.0609584 -0.77578497
3.5277114 -4.0908761 -0.77742797
3.5243363 -4.1380434 -0.78250635
3.4823351 -4.1399131 -0.77862287
3.4543407 -4.1581593 -0.77802545
3.4387937 -4.1915097 -0.78041524
3.4154994 -4.2156043 -0.78101271
3.3840106 -4.2295322 -0.77966845
3.340836 -4.2284889 -0.77548629
3.2078125 -4.1116762 -0.74919844
3.1668389 -4.1109118 -0.74531502
3.1283898 -4.1129489 -0.74202901
3.0971587 -4.1241593 -0.74053538
3.0712061 -4.1422911 -0.74038601
3.0579922 -4.1778159 -0.74352264
3.050247 -4.2213497 -0.74815291
3.0328979 -4.2520628 -0.75039333
3.0278053 -4.3005114 -0.75591975
3.0352056 -4.3677349 -0.76488149
3.0530751 -4.45152 -0.77683055
3.0484204 -4.503747 -0.78295439
3.0179834 -4.5182552 -0.78220761
2.9874833 -4.5325599 -0.78146076
2.9563823 -4.5458312 -0.78056461
2.9284341 -4.5638857 -0.78056461
2.91465 -4.6043286 -0.7845974
2.8863435 -4.6221261 -0.7845974
2.8346007 -4.6018591 -0.77787608
2.8027182 -4.6132493 -0.77683055
2.7794394 -4.6388426 -0.77832419
2.7132132 -4.5919547 -0.76712197
2.0192337 -3.4652412 -0.56727457
1.9979333 -3.4775658 -0.56727457
1.9551275 -3.4518969 -0.56070262
1.9305379 -3.4577839 -0.5596571
1.9035677 -3.4591675 -0.55786473
1.87948 -3.4655664 -0.55696851
1.8502619 -3.4622061 -0.55442935
1.8239187 -3.4638684 -0.55278641
1.79808 -3.4662161 -0.55129278
1.7718316 -3.4674966 -0.54964978
1.7469683 -3.4712362 -0.54845488
1.721687 -3.4739153 -0.54711062
1.6999056 -3.4835253 -0.54696125
1.6819223 -3.5010214 -0.54815614
1.6604089 -3.5112755 -0.54815614
1.6359142 -3.5151215 -0.54711062
1.6159608 -3.5286896 -0.54770803
1.5950905 -3.5403416 -0.54800677
1.5721363 -3.5473502 -0.54755867
1.5546834 -3.5669017 -0.54920167
1.5389959 -3.5909171 -0.55159146
1.519619 -3.6066718 -0.55263704
1.5038871 -3.6314602 -0.5551762
0 -0 -0
0 -0 -0
1.4617097 -3.7220385 -0.5654822
1.4395553 -3.7327826 -0.56578094
1.8987144 -5.0159512 -0.77160287
1.8758172 -5.0488267 -0.77503818
0 -0 -0
1.376798 -3.8489242 -0.57892489
1.3511933 -3.8517008 -0.57802868
0 -0 -0
1.3104522 -3.8876705 -0.58116531
1.2887419 -3.902211 -0.58221084
1.2720714 -3.932626 -0.58579558
1.2664099 -3.9988062 -0.59505606
1.246237 -4.0206695 -0.59729648
1.2745785 -4.2033081 -0.62492859
1.2482017 -4.2091537 -0.62462986
1.1728436 -4.0457768 -0.59774458
1.2411439 -4.3820915 -0.64942408
1.3685658 -4.9481192 -0.7369507
1.426249 -5.282917 -0.78803277
1.3930519 -5.2887006 -0.78758466
1.3637699 -5.3095994 -0.78952634
1.3309252 -5.3169079 -0.78937703
1.2802576 -5.2510009 -0.77787608
1.2630692 -5.322257 -0.78773403
1.2261668 -5.3116002 -0.78489614
1.1939849 -5.3209538 -0.78519487
1.1699386 -5.3677917 -0.79131871
1.1333007 -5.3574557 -0.78863019
1.0980247 -5.352685 -0.78683782
1.0647755 -5.3573818 -0.78653914
1.0350552 -5.3803215 -0.7890783
0.99281067 -5.3369918 -0.78146076
0.95952088 -5.3400636 -0.78101271
0.92420655 -5.3312359 -0.77877223
0.89684641 -5.3689914 -0.78370124
0.86749047 -5.3968477 -0.78713655
0.83255106 -5.3903422 -0.78534424
0.79830307 -5.3875241 -0.78414929
0.76675671 -5.4030905 -0.78579229
0.7377035 -5.4380684 -0.79042256
0.69976127 -5.4071894 -0.7850455
0.66608751 -5.4074559 -0.78444803
0.63060248 -5.391799 -0.78146076
0.5982675 -5.4024463 -0.78250635
0.56592816 -5.4138832 -0.78370124
0.53125024 -5.4024925 -0.78146076
0.49474221 -5.3692193 -0.77593434
0.46465996 -5.4056497 -0.78101271
0.43289438 -5.4261408 -0.78370124
0.39937493 -5.4257364 -0.78325313
0.36627468 -5.4310446 -0.78370124
0.33426937 -5.4549026 -0.78698719
0.29959983 -5.4351306 -0.78370124
0.26407805 -5.3924241 -0.77697992
0.23136461 -5.4028339 -0.77832419
0.19619152 -5.3488169 -0.76995987
0.15863377 -5.1937642 -0.74636054
0.12267566 -5.0256071 -0.72081947
0.091640644 -5.0153904 -0.71917653
0.06098273 -5.0257454 -0.72067016
0.030201191 -5.0359125 -0.72216374
-0.00076663448 -5.2179394 -0.74964648
-0.033606816 -5.3443975 -0.76876497
-0.066636302 -5.3628764 -0.77160287
-0.09941107 -5.3554463 -0.77055728
-0.13160452 -5.3280468 -0.76652449
-0.16478547 -5.3429518 -0.76891428
-0.19888949 -5.3774114 -0.7742914
-0.23021084 -5.3375635 -0.76846623
-0.26207727 -5.318274 -0.76577771
-0.29569361 -5.3343368 -0.76846623
-0.32494199 -5.2761688 -0.75995255
-0.35469475 -5.2356019 -0.75412738
-0.39609748 -5.3585587 -0.77309644
-0.4296819 -5.3648977 -0.77444071
-0.46361461 -5.3739815 -0.77623308
-0.49265656 -5.3286996 -0.7698105
-0.52417618 -5.3137684 -0.76801813
-0.55646104 -5.3075018 -0.76757002
-0.58847004 -5.2990742 -0.76682323
-0.61878127 -5.2767053 -0.76398534
-0.65211809 -5.2806592 -0.76518023
-0.68476218 -5.2785196 -0.76547897
-0.71927261 -5.2898946 -0.76786876
-0.75227505 -5.2892971 -0.76846623
-0.78122467 -5.2611089 -0.76488149
-0.81106836 -5.2405825 -0.7624917
-0.84100461 -5.2218409 -0.76040065
-0.84737164 -5.0634785 -0.7369507
-0.86842972 -5.0007086 -0.72813827
-0.90050018 -5.0030704 -0.72933316
-0.93118149 -4.9974508 -0.72933316
-0.96707237 -5.0188279 -0.73351532
-1.0154359 -5.1010432 -0.74710733
-1.0544853 -5.1324883 -0.75293249
-1.0832909 -5.1133471 -0.75099075
-1.1146454 -5.1066041 -0.75099075
-1.1440049 -5.0909863 -0.74964648
-1.1683108 -5.054008 -0.74501628
-1.2125713 -5.1025367 -0.75367934
-1.246439 -5.105566 -0.75532228
-1.2770208 -5.094945 -0.75487423
-1.3067799 -5.0812678 -0.75397801
-1.3449994 -5.0999231 -0.75816017
-1.389436 -5.1402521 -0.76577771
-1.4246469 -5.1449704 -0.76786876
-1.4750831 -5.2027178 -0.77832419
-1.4970517 -5.1593852 -0.77294713
-1.4602597 -4.919776 -0.73665196
-1.4935806 -4.9211302 -0.73829496
-1.5328366 -4.9411473 -0.74292517
-1.5673115 -4.9448438 -0.74501628
-1.6171267 -4.9953356 -0.75457549
-1.6384317 -4.9571562 -0.75009459
-1.6726125 -4.9582515 -0.75188696
-1.7033263 -4.9488301 -0.75203633
-1.7500467 -4.98493 -0.75950444
-1.7902709 -5.0010929 -0.76383597
-1.8148184 -4.9732957 -0.76114744
-1.8380579 -4.942606 -0.7580108
-1.8806193 -4.9635944 -0.76323855
-1.9092588 -4.9473495 -0.7624917
-1.9540534 -4.9723492 -0.76846623
-1.9779116 -4.9437428 -0.76577771
-1.9925376 -4.8930545 -0.75950444
-2.0255532 -4.8880434 -0.76069933
-2.0585821 -4.8828115 -0.76189429
-2.0939624 -4.8828096 -0.76398534
-2.1187422 -4.858088 -0.7620436
-2.1605418 -4.8721104 -0.76652449
-2.1891761 -4.8560576 -0.76607645
-2.2143981 -4.8326468 -0.76443344
-2.2402506 -4.8109021 -0.76308918
-2.2684584 -4.7943845 -0.76264107
-2.2798338 -4.74295 -0.75636786
-2.3062887 -4.7235413 -0.75547165
-2.3299549 -4.6986723 -0.75367934
-2.3467293 -4.6604452 -0.74964648
-2.3734798 -4.6424375 -0.74904907
-2.3832371 -4.5918083 -0.74292517
-2.4113669 -4.5770988 -0.74292517
-2.4324098 -4.549139 -0.74068475
-2.4621639 -4.5376043 -0.74128222
-2.4880514 -4.5189466 -0.74068475
-2.5113907 -4.4958272 -0.73934048
-2.5150325 -4.4381857 -0.73202169
-2.5308795 -4.4029565 -0.72858638
-2.565321 -4.4001555 -0.7308268
-2.5897543 -4.3800774 -0.73008001
-2.6145465 -4.3607125 -0.72948253
-2.6407404 -4.3437433 -0.72933316
-2.6611152 -4.317359 -0.72754085
-2.6770725 -4.2841811 -0.72455359
-2.6948404 -4.2543111 -0.72216374
-2.7192905 -4.2351999 -0.72171569
-2.7387516 -4.2084918 -0.71992332
-2.7536311 -4.1751018 -0.71693605
-2.7649066 -4.1367569 -0.71305263
-2.7819171 -4.1074357 -0.71081221
-2.7981124 -4.0772467 -0.70842236
-2.8004901 -4.027534 -0.70244789
-2.8126175 -3.9924941 -0.69916189
-2.8347638 -3.9719422 -0.69856447
-2.8596613 -3.9552748 -0.69871378
-2.8768635 -3.9280829 -0.69692147
-2.8950183 -3.9024169 -0.69542783
-2.9076195 -3.8695633 -0.69258994
-2.9175305 -3.8335559 -0.68915457
-2.9337521 -3.8061862 -0.68736225
-2.9485304 -3.7772036 -0.68527114
-2.963064 -3.7481833 -0.68318009
-2.9798253 -3.722214 -0.68168646
-2.9739568 -3.6685348 -0.67481577
-2.9888797 -3.6410487 -0.6730234
-3.004842 -3.6150382 -0.67152977
-3.0135922 -3.5806494 -0.66839319
-3.0188265 -3.5425279 -0.66450971
-3.0353372 -3.5179503 -0.66331482
-3.0601194 -3.5029821 -0.66406167
-3.0625532 -3.4626653 -0.65973014
-3.0797832 -3.4393899 -0.65883392
-3.0822287 -3.3999209 -0.65465176
-3.0963445 -3.3736618 -0.65315819
-3.1156399 -3.3531511 -0.65285945
-3.1246357 -3.3217301 -0.65032029
-3.1292708 -3.2860301 -0.64688492
-3.1260355 -3.2425706 -0.6418066
-3.1493266 -3.2268658 -0.64255339
-3.1648962 -3.2032621 -0.64165723
-3.1670055 -3.1663094 -0.63792318
-3.1715963 -3.1322305 -0.63478655
-3.165977 -3.0885513 -0.62955886
-3.1862926 -3.0704389 -0.6298576
-3.188596 -3.0351548 -0.62642223
-3.201395 -3.0101159 -0.62522733
-3.1995132 -2.9715803 -0.62104517
-3.2045679 -2.9398642 -0.61835665
-3.2159503 -2.9141722 -0.61701238
-3.2337708 -2.8943846 -0.61701238
-3.232945 -2.8581204 -0.61327833
-3.2452064 -2.8336785 -0.61223274
-3.2393148 -2.7937005 -0.60760254
-3.2496197 -2.768003 -0.60625827
-3.2468653 -2.7314672 -0.60237479
-3.2338965 -2.6868582 -0.59654969
-3.2633195 -2.6776235 -0.59908885
-3.2835298 -2.6606612 -0.59983563
-3.2882104 -2.6312003 -0.59759521
-3.2996373 -2.6072979 -0.59669906
-3.3210313 -2.591259 -0.59774458
-3.3102312 -2.5503223 -0.59266627
-3.3407731 -2.5413332 -0.59550411
-3.3262534 -2.4982305 -0.58982837
-3.328809 -2.4683545 -0.58743852
-3.3414979 -2.4461312 -0.58699048
-3.3444204 -2.4168983 -0.58475
-3.3495259 -2.3894436 -0.58295768
-3.36655 -2.3705535 -0.58340573
-3.3688507 -2.3413911 -0.58116531
-3.3586874 -2.3039036 -0.57668442
-3.3629329 -2.276603 -0.57489204
-3.3645034 -2.24769 -0.57265162
-3.3674977 -2.2199318 -0.57070988
-3.3818846 -2.1997664 -0.57085925
-3.3953183 -2.1789739 -0.57085925
-3.405282 -2.1559849 -0.57026184
-3.4075425 -2.1282439 -0.5683201
-3.4129589 -2.1026299 -0.56697583
-3.4257963 -2.0816488 -0.56697583
-3.4283249 -2.0544932 -0.56518352
-3.4391637 -2.032413 -0.56488478
-3.428499 -1.997838 -0.56085199
-3.4261155 -1.968394 -0.55831277
-3.4389894 -1.9478217 -0.55846214
-3.4405146 -1.9209027 -0.55666983
-3.4652324 -1.9069028 -0.55891025
-3.4620891 -1.8775954 -0.55637109
-3.4569728 -1.8474672 -0.5535332
-3.4647434 -1.8243791 -0.55293572
-3.4741168 -1.8021754 -0.55263704
-3.4798255 -1.7781268 -0.55174083
-3.4968541 -1.7598512 -0.55278641
-3.5084724 -1.7388006 -0.55293572
-3.4941905 -1.705106 -0.54875356
-3.4921074 -1.6776433 -0.54666251
-3.4844553 -1.647736 -0.54367524
-3.5106385 -1.6338296 -0.54636377
-3.5295887 -1.6163722 -0.5478574
-3.5430467 -1.5963082 -0.54845488
-3.5500624 -1.5733373 -0.54800677
-3.540612 -1.5432341 -0.54487014
-3.5354712 -1.5152525 -0.54248035
-3.5319436 -1.4881595 -0.5403893
-3.5273035 -1.4607892 -0.53814882
-3.5343683 -1.4383737 -0.53785008
-3.5422094 -1.4162934 -0.53770071
-3.5563557 -1.3966991 -0.53859693
-0.28941977 -0.11277059 -0.008359082
-0.26606089 -0.10189658 -0.0044756499
-0 -0 -0
-0.26450413 -0.097608514 -0.0040275618
-0.26509807 -0.095983714 -0.0040275618
-0.26568204 -0.094355293 -0.0040275618
-0.26625597 -0.092723325 -0.0040275618
-0.26681992 -0.091087863 -0.0040275618
-0.2673738 -0.089448974 -0.0040275618
-0.2679176 -0.087806717 -0.0040275618
-0.26656589 -0.085564613 -0.0037288361
-0.26614136 -0.083634906 -0.0035794734
-0.26664951 -0.082000315 -0.0035794734
-0.2680957 -0.080643512 -0.0037288361
-0 -0 -0
-0.27382228 -0.078693539 -0.0044756499
-0.27429998 -0.077011921 -0.0044756499
-0.27763131 -0.07609994 -0.0049237381
-0.27522436 -0.073640034 -0.0044756499
-0.27567104 -0.071949907 -0.0044756499
-0 -0 -0
-0.27653322 -0.068561584 -0.0044756499
-0.27887291 -0.067319736 -0.0047743754
-0.28120771 -0.066051736 -0.0050731013
-0.28160772 -0.064325035 -0.0050731013
-0.28296325 -0.062806271 -0.005222464
-0.28237587 -0.06086443 -0.0050731013
-0.28177536 -0.05893217 -0.0049237381
-0.28019196 -0.056817036 -0.0046250126
-0 -0 -0
-0 -0 -0
-0.27145794 -0.049903415 -0.003131385
-0.27078477 -0.048068158 -0.0029820222
-0.26814869 -0.045917645 -0.0025339341
-0.27233052 -0.044898309 -0.003131385
-0.27260089 -0.043226473 -0.003131385
-0.27383912 -0.041697733 -0.0032807479
-0.28192183 -0.041126441 -0.0044756499
-0 -0 -0
-0.28632784 -0.038170502 -0.0050731013
-0.28655666 -0.03641291 -0.0050731013
-0.28284621 -0.034195349 -0.0044756499
-0.28305072 -0.032459192 -0.0044756499
-0.28324455 -0.030721815 -0.0044756499
-0 -0 -0
-0 -0 -0
-0.28671756 -0.025756411 -0.0049237381
-0 -0 -0
-0.28997043 -0.022453127 -0.0053718267
-0.2891162 -0.020607159 -0.005222464
-0.28430247 -0.018531453 -0.0044756499
-0 -0 -0
-0 -0 -0
-0.28261963 -0.013211054 -0.0041769245
-0.28071913 -0.011404628 -0.0038781988
-0.28177214 -0.0097119175 -0.0040275618
-0.28281492 -0.0080067124 -0.0041769245
-0.2818701 -0.0062534087 -0.0040275618
-0.28091446 -0.0045120013 -0.0038781988
-0 -0 -0
-0.27798232 -0.001065509 -0.0034301106
-0.28094992 0.00065947988 -0.0038781988
-0.27896318 0.0023583425 -0.0035794734
-0.27795485 0.0040514171 -0.0034301106
-0.27792475 0.0057568396 -0.0034301106
-0.27491927 0.0073699541 -0.0029820222
-0.27289268 0.0089831669 -0.0026832968
-0 0 -0
-0.26881161 0.012135769 -0.0020858457
-0 0 -0
-0.27653763 0.015921578 -0.0032807479
-0.27544823 0.017551029 -0.003131385
-0 -0 -0
-0 -0 -0
-0 -0 -0
-0 -0 -0
-0 -0 -0
-0 0 -0
-0 0 -0
-0 0 -0
-0 0 -0
-0 0 -0
-0 0 -0
-0 0 -0
-0 0 -0
-0 0 -0
-0 0 -0
-0 0 -0
-0 0 -0
-0 0 -0
-0 0 -0
-0 0 -0
-0 0 -0
-0 0 -0
-0 0 -0
-0 0 -0
-0 0 -0
-0 0 -0
-0 0 -0
-0 0 -0
-0 0 -0
-0 0 -0
-0 0 -0
-0 0 -0
-0 0 -0
-0 0 -0
-0 0 -0
-0 0 -0
-0 0 -0
-0 0 -0
-0 0 -0
-0 0 -0
-0 0 -0
-0 0 -0
-0 0 -0
-0 0 -0
-0 0 -0
-0 0 -0
-0 0 -0
-0 0 -0
-0 0 -0
-0 0 -0
-0 0 -0
-0 0 -0
-0 0 -0
-0 0 -0
-0 0 -0
-0 0 -0
-0 0 -0
-0 0 -0
-0 0 -0
-0 0 -0
-0 0 -0
-0 0 -0
-0 0 -0
-0 0 -0
-0 0 -0
-0 0 -0
-0 0 -0
-0 0 -0
-0 0 -0
-0 0 -0
-0 0 -0
-0 0 -0
-0 0 -0
-0 0 -0
-0 0 -0
-0 0 -0
-0 0 -0
-0 0 -0
-0 0 -0
-0 0 -0
-0 0 -0
-0 0 -0
-0 0 -0
-0 0 -0
-0 0 -0
-0 0 -0
-0 0 -0
-0 0 -0
-0 0 -0
-0 0 -0
-0 0 -0
-0 0 -0
-0 0 -0
-0 0 -0
-0 0 -0
-0 0 -0
-0 0 -0
-0 0 -0
-0 0 -0
-0 0 -0
-0 0 -0
-0 0 -0
-0 0 -0
-0 0 -0
-0 0 -0
-0 0 -0
-0 0 -0
-0 0 -0
-0 0 -0
-0 0 -0
-0 0 -0
-0 0 -0
-0.26143306 0.20435023 -0.015343962
-0.26017427 0.20595051 -0.015343962
-0.23115622 0.18535274 -0.0095510278
-0 0 -0
-0 0 -0
-0.24592952 0.20470771 -0.013412984
-0.22653781 0.19096978 -0.0095510278
-0.25392058 0.21666676 -0.015665792
-0.23688661 0.20468932 -0.01228658
-0.25644812 0.22430892 -0.016792195
-0.23731549 0.21019478 -0.01293024
-0.25588307 0.22941305 -0.01727494
-0.25227588 0.22899128 -0.016792195
-0.26614338 0.24454151 -0.020171408
-0.23931943 0.22266981 -0.014539388
-0.24801816 0.23359607 -0.016792195
-0 0 -0
-0.27214724 0.26263809 -0.022906959
-0.27335736 0.26705894 -0.023550618
-0.27382091 0.27081114 -0.024033362
-0.24073595 0.24109405 -0.016792195
-0.27255869 0.27625656 -0.024516108
-0.27223763 0.27933598 -0.024837937
-0.27051851 0.28100115 -0.024837937
-0.26742753 0.28122666 -0.024516108
-0.26502046 0.28214359 -0.024355192
-0.23774709 0.25629696 -0.018240429
-0.24818651 0.27083579 -0.021136895
-0.26243466 0.28989804 -0.024998851
-0.23233062 0.25989461 -0.018079514
-0.26278195 0.29753131 -0.02596434
-0.24146512 0.27684504 -0.021136895
-0 0 -0
-0 0 -0
-0 0 -0
-0 0 -0
-0 0 -0
-0 0 -0
-0 0 -0
-0 0 -0
-0 0 -0
-2.9623389 3.8416412 -0.75217295
-2.9399071 3.861316 -0.75249481
-2.9321735 3.9005816 -0.75683945
-2.8923016 3.8971024 -0.75249481
-2.8689184 3.9155719 -0.75265568
-2.8459959 3.9347007 -0.75297755
-2.8344181 3.9697597 -0.75651765
-2.8185363 3.999177 -0.7589314
-2.826638 4.0633855 -0.76826441
-2.7737176 4.0399723 -0.76021868
-2.7870815 4.1132903 -0.77132183
-2.733808 4.0884733 -0.76311517
-2.698885 4.090343 -0.76021868
-2.7302852 4.1936693 -0.77711475
-2.6612904 4.1430836 -0.76408064
-2.6448011 4.1735063 -0.7668162
-2.6421661 4.2264776 -0.77389646
-2.6213641 4.2510104 -0.7755056
-2.5942051 4.2653284 -0.7751838
-2.5547831 4.259161 -0.77099997
-2.5456882 4.3036375 -0.77647108
-2.503319 4.2918963 -0.77132183
-2.5054786 4.3567972 -0.78065485
-2.46312 4.344615 -0.7755056
-2.4691613 4.4182301 -0.78644782
-2.4524827 4.4523153 -0.78998792
-2.3930933 4.408299 -0.7790457
-2.3669307 4.4246402 -0.77936757
-2.3452601 4.4495568 -0.78129852
-2.3306513 4.4883881 -0.78580415
-2.2954254 4.4876671 -0.7830686
-2.270067 4.506074 -0.7838732
-2.250272 4.5358319 -0.78676963
-2.2193656 4.5433464 -0.78564322
-2.2029974 4.5808935 -0.78998792
-2.1778045 4.6005688 -0.79111433
-2.1670437 4.6514182 -0.79787278
-2.1211846 4.6269474 -0.79111433
-2.0866663 4.6263809 -0.78870064
-2.0498331 4.6201525 -0.78532141
-2.032105 4.6570663 -0.78966612
-2.0015454 4.6649127 -0.78886151
-1.958689 4.6434603 -0.78290766
-1.9252454 4.6435394 -0.78081578
-1.895227 4.6516089 -0.78017211
-1.8714187 4.6750617 -0.78226405
-1.8437816 4.6892118 -0.78274679
-1.8188858 4.7105641 -0.78451681
-1.7829494 4.7031789 -0.78129852
-1.7578447 4.7242055 -0.7830686
-1.7234071 4.7200689 -0.78049397
-1.6944128 4.7305551 -0.78049397
-1.6663364 4.7436562 -0.78097671
-1.63752 4.7547245 -0.78113765
-1.6241009 4.8114376 -0.78918338
-1.6032275 4.8475494 -0.79368895
-1.5804505 4.87889 -0.79739004
-1.5382476 4.8499246 -0.79079252
-1.5353868 4.9459887 -0.80559665
-1.5110346 4.9751477 -0.80897588
-1.4883499 5.0108161 -0.81348151
-1.4501435 4.9942636 -0.80913681
-1.4095018 4.967937 -0.80318296
-1.3813653 4.9850521 -0.80463117
-1.3368309 4.941988 -0.79594177
-1.3016953 4.9319663 -0.79288441
-1.2723932 4.9436836 -0.79352808
-1.2391529 4.9399104 -0.79159707
-1.2137398 4.9675546 -0.79497629
-1.1818659 4.9691472 -0.79401082
-1.1495732 4.9686131 -0.79272348
-1.1051995 4.9139481 -0.78242493
-1.0756594 4.9235296 -0.78290766
-1.0509589 4.9561048 -0.78725237
-1.0215235 4.9672937 -0.78805697
-0.98600876 4.9483023 -0.7838732
-0.95749807 4.9639502 -0.78548235
-0.93064296 4.9891362 -0.78870064
-0.90088814 4.999609 -0.78950518
-0.86579663 4.9797611 -0.78532141
-0.83897793 5.0073676 -0.78902245
-0.80116391 4.9685745 -0.78178126
-0.76899886 4.9626684 -0.78001124
-0.73722702 4.9585075 -0.77856296
-0.70595294 4.9570751 -0.77759749
-0.67992032 4.9935851 -0.78290766
-0.65359324 5.0309401 -0.78837878
-0.61531717 4.9751067 -0.77856296
-0.58224428 4.9572234 -0.77502286
-0.55159795 4.9587407 -0.774701
-0.52487552 4.9973683 -0.78049397
-0.49614531 5.0201383 -0.78371227
-0.45895466 4.9542956 -0.77244824
-0.43058911 4.9806175 -0.77631021
-0.39638415 4.937911 -0.76890808
-0.36673534 4.9491086 -0.77035636
-0.33542368 4.93748 -0.76810354
-0.30926478 5.0064311 -0.7790457
-0.27722284 4.9845839 -0.7751838
-0.24946533 5.043365 -0.78451681
-0.21517771 4.9678893 -0.7719655
-0.18575662 4.9977183 -0.77663201
-0.15447402 4.9790344 -0.77341372
-0.1238957 4.9789019 -0.77325279
-0.093882106 5.0081854 -0.77791935
-0.063138172 5.0076804 -0.77775842
-0.03205486 4.953691 -0.76890808
-0.0016794329 5.0031433 -0.77695382
0.028945899 4.9902287 -0.77486193
0.05909672 4.9504814 -0.76842535
0.08753559 4.8424635 -0.75088561
0.12010423 4.960237 -0.77019542
0.14994009 4.9396763 -0.76697713
0.18031839 4.9406357 -0.76729894
0.20802802 4.8782997 -0.75732225
0.23651621 4.8473573 -0.75249481
0.26836321 4.8842487 -0.75877047
0.29664418 4.8549266 -0.75426483
0.32642785 4.8530149 -0.75426483
0.3615419 4.9237609 -0.76617253
0.39026022 4.9027562 -0.76311517
0.41924009 4.8874855 -0.76102328
0.45012429 4.8946495 -0.76263243
0.47581387 4.8475938 -0.75539124
0.50524211 4.8416381 -0.7549085
0.52713704 4.7678151 -0.74332261
0.55603868 4.7615499 -0.74283987
0.58741188 4.775681 -0.74573636
0.61404908 4.7514315 -0.74235713
0.63842458 4.7123647 -0.73656422
0.66774237 4.7112904 -0.73704696
0.69865954 4.7207732 -0.73929977
0.73423016 4.7593169 -0.74638003
0.7534104 4.6923542 -0.73608148
0.78170085 4.6847224 -0.73559874
0.80857939 4.6691399 -0.73382866
0.83581913 4.6563191 -0.73254132
0.86401355 4.6491623 -0.73221952
0.88935852 4.627296 -0.72948396
0.91677362 4.6169114 -0.72867936
0.9583568 4.675981 -0.73946071
0.99253833 4.696085 -0.74380541
1.0041198 4.6108274 -0.73061037
1.0196574 4.5477576 -0.72111636
1.0262545 4.4490891 -0.70566857
1.0300864 4.343792 -0.68909436
1.0513487 4.3153338 -0.68539327
1.0734978 4.2915668 -0.68249685
1.0971119 4.2743831 -0.68072677
1.114026 4.2322555 -0.67477292
1.1381747 4.2186699 -0.67364651
1.1579931 4.1897259 -0.66994548
1.184485 4.1853909 -0.67042822
1.2076733 4.1695123 -0.66898
1.2225825 4.1260629 -0.66286522
1.2395793 4.0910907 -0.65819871
1.2588204 4.0645514 -0.65498042
1.2852247 4.0614562 -0.65578496
1.3161901 4.0722766 -0.65900326
1.3355867 4.0472531 -0.65610683
1.3575604 4.0305634 -0.65465856
1.3784177 4.0109568 -0.6527276
1.3971273 3.9856577 -0.64983112
1.4145821 3.9574924 -0.64645189
1.444581 3.9645033 -0.64918745
1.4733449 3.9675934 -0.65127933
1.5228019 4.0249443 -0.66286522
1.5460504 4.0118413 -0.66222155
1.5713586 4.0041165 -0.66254342
1.5977283 3.9989824 -0.66334796
1.6237223 3.9927609 -0.66399163
1.6493227 3.9854589 -0.66447437
1.6752777 3.9789023 -0.66511804
1.6973294 3.9631042 -0.66415256
1.725161 3.9607592 -0.66560078
1.7294519 3.9049761 -0.65755504
1.7537849 3.895191 -0.65771598
1.7764205 3.881664 -0.65723318
1.801869 3.8742709 -0.65787685
1.8479527 3.9104383 -0.66640538
1.8774639 3.910593 -0.66849726
1.9040188 3.9043224 -0.66946274
1.9069169 3.8501112 -0.66173881
1.9336085 3.8445106 -0.66286522
1.958508 3.835211 -0.66334796
1.9810952 3.8213689 -0.66302615
2.0146153 3.8283575 -0.66656625
2.0385327 3.8167944 -0.66672719
2.0600328 3.8007433 -0.66608351
2.0909235 3.8018694 -0.66865814
2.1137311 3.7881062 -0.66849726
2.145685 3.7905264 -0.67139369
2.170377 3.7798572 -0.67187643
2.2004817 3.7784097 -0.67412925
2.2351665 3.7843835 -0.67783028
2.2786272 3.8044679 -0.68426692
2.312685 3.8081312 -0.68764609
2.347908 3.8132 -0.69134712
2.3790994 3.8112812 -0.69376087
2.4071894 3.8041179 -0.69520909
2.4384775 3.8017383 -0.69762284
2.4671373 3.7949798 -0.69923198
2.495806 3.7880123 -0.70084113
2.5255775 3.7824774 -0.70277208
2.5586932 3.7816243 -0.70566857
2.594125 3.7837629 -0.70920867
2.6336203 3.7912829 -0.71387523
2.6693289 3.7928095 -0.71741533
2.7005715 3.7876108 -0.71966815
2.7312729 3.7813709 -0.72176003
2.7666609 3.7812688 -0.72513926
2.7980368 3.7753236 -0.72739208
2.8371456 3.7793968 -0.73173678
2.8752143 3.7815602 -0.73575962
2.9049866 3.7724495 -0.7375297
2.946286 3.7779036 -0.74235713
2.9278188 3.7070825 -0.73141491
2.9387984 3.6744022 -0.72835755
2.9525931 3.6455626 -0.72610474
2.9648933 3.6151662 -0.72353011
2.9870198 3.5969059 -0.72353011
3.0071282 3.5762439 -0.72304738
3.0392511 3.5697498 -0.725622
3.0643194 3.5547721 -0.7264266
3.0860732 3.535903 -0.7264266
3.1044438 3.5132024 -0.725622
3.1154139 3.4823177 -0.72304738
3.1347346 3.4609418 -0.72256464
3.1845918 3.4729242 -0.72948396
3.1950984 3.4417446 -0.72690934
3.2107496 3.4163208 -0.725622
3.2309711 3.3958406 -0.72546107
3.2544851 3.3787956 -0.72610474
3.3185618 3.4032843 -0.73624241
3.2998631 3.3428183 -0.72707021
3.3719347 3.3741732 -0.73897791
3.3420398 3.3034599 -0.72739208
3.3707199 3.2911663 -0.72932303
3.3880093 3.2676811 -0.72867936
3.4201427 3.2584054 -0.73141491
3.4479771 3.2447996 -0.73318499
3.4743273 3.2296305 -0.73463321
3.4962595 3.2102542 -0.735116
3.5188155 3.1913936 -0.73575962
3.5780253 3.2053075 -0.74444902
3.5968862 3.1826389 -0.74428815
3.5695314 3.1195877 -0.73415047
3.6341772 3.1369698 -0.74396628
3.6188099 3.0851548 -0.73656422
3.6723988 3.0921369 -0.74396628
3.6632264 3.0461941 -0.73801243
3.6894753 3.0299239 -0.73962158
3.7325253 3.0271249 -0.74477088
3.7232981 2.9819522 -0.73897791
3.7361064 2.9547641 -0.73785156
3.7969463 2.9651988 -0.74670184
3.7939675 2.925571 -0.74235713
3.869168 2.9458866 -0.75410396
3.8627157 2.9037037 -0.74911559
3.828155 2.8411224 -0.73849517
3.898854 2.856667 -0.74927646
3.9115107 2.8292193 -0.74831098
3.9255841 2.8028712 -0.74766731
3.9209275 2.7633784 -0.74332261
3.9321384 2.7353222 -0.74219626
3.9496615 2.7117023 -0.74235713
3.9940047 2.7062421 -0.74782825
4.0170979 2.6860738 -0.74911559
4.0425653 2.6673546 -0.75088561
4.0133662 2.6128788 -0.74203533
4.0683503 2.6132774 -0.74959832
4.067636 2.577698 -0.74638003
4.0699863 2.5443189 -0.74380541
4.0846815 2.51878 -0.74364448
4.1261988 2.5095706 -0.74863285
4.1339025 2.4796357 -0.74718457
4.1388464 2.4481931 -0.74525362
4.1930056 2.4456286 -0.75265568
4.2181993 2.42576 -0.7545867
4.2184086 2.3915558 -0.75185114
4.2510953 2.3757398 -0.75523031
4.2145896 2.3215115 -0.74573636
4.2200813 2.2908981 -0.74412721
4.257555 2.2775328 -0.74847192
4.3116112 2.2725382 -0.75587398
4.2869349 2.2260242 -0.74879372
4.2987556 2.1987791 -0.74847192
4.3095217 2.1710289 -0.74798918
4.3245301 2.1454225 -0.74831098
4.3136697 2.1071491 -0.74396628
4.3336329 2.0840638 -0.74525362
4.3784523 2.0726388 -0.75104654
4.3982444 2.0490689 -0.75233388
4.4259858 2.0290365 -0.75506943
4.4158611 1.9916946 -0.75104654
4.4252925 1.9633608 -0.7505638
4.4526339 1.9428822 -0.75329936
4.4454246 1.9073509 -0.74992013
4.4952369 1.8961521 -0.75667858
4.4803481 1.8575701 -0.75201201
4.4898334 1.8292992 -0.75169021
4.5458698 1.8196918 -0.75957501
4.4797964 1.7614213 -0.74605817
4.5135374 1.7427903 -0.75008106
4.4770803 1.6972165 -0.7418744
4.5040598 1.6759104 -0.74477088
4.5096231 1.6465496 -0.74396628
4.5354362 1.6245071 -0.74670184
4.5564928 1.6005737 -0.74863285
4.5848908 1.5790147 -0.75185114
4.5963635 1.551484 -0.75217295
4.5851822 1.5164324 -0.74863285
4.5972171 1.4891824 -0.74911559
4.6401353 1.4716909 -0.7549085
4.6236286 1.4352895 -0.7505638
4.5483012 1.3813589 -0.73624241
4.5566912 1.353425 -0.73624241
4.6416817 1.3477381 -0.74927646
4.6251779 1.3122259 -0.74509269
4.6036582 1.2756491 -0.74010432
4.6371217 1.2543379 -0.74444902
4.6170568 1.2185552 -0.73978251
4.6359167 1.1931555 -0.74171346
4.6699548 1.1714135 -0.7462191
4.6914353 1.1462522 -0.74863285
4.7300658 1.1249831 -0.75394303
4.7282257 1.0939358 -0.75249481
4.7098136 1.0592706 -0.74831098
4.7065825 1.0282445 -0.74670184
4.7214923 1.0011895 -0.74815011
4.771049 0.98114985 -0.75539124
4.7256799 0.94163048 -0.74686277
4.7749777 0.92103177 -0.75410396
4.7640452 0.88863778 -0.7513684
4.7995186 0.86481756 -0.75635672
4.7726469 0.82977045 -0.75104654
4.7757015 0.80014408 -0.75072473
4.8087778 0.77538443 -0.75539124
4.8192968 0.74677098 -0.75635672
4.7622862 0.7080372 -0.7462191
4.7968311 0.68311918 -0.75120747
4.8185349 0.65607172 -0.75410396
4.7774482 0.62064081 -0.74670184
4.8232846 0.59652781 -0.75362116
0 0 -0
4.7978716 0.53369039 -0.74831098
4.8118534 0.5053761 -0.75008106
4.8364716 0.47797883 -0.75362116
4.7685552 0.44173324 -0.74203533
4.8645887 0.42054889 -0.75732225
4.8670774 0.39069241 -0.75732225
4.8506823 0.35943395 -0.75426483
4.8774137 0.33133829 -0.75828773
4.8645787 0.30049086 -0.75587398
4.8574619 0.27014276 -0.75442576
4.8590279 0.24033284 -0.75442576
4.8515368 0.2101288 -0.75297755
4.8695016 0.18098089 -0.75571311
4.8764391 0.15128289 -0.75667858
4.8565559 0.12084153 -0.75329936
4.852272 0.090947114 -0.75249481
4.8714895 0.061410315 -0.75555217
4.8510489 0.031382497 -0.75217295
4.842267 0.0016127474 -0.75072473
4.8382382 -0.028076289 -0.75008106
4.853765 -0.057949871 -0.75265568
4.8543053 -0.087748684 -0.75281662
4.8734088 -0.11800873 -0.75603491
4.860755 -0.14755079 -0.75410396
4.8765254 -0.17798367 -0.75683945
4.8457594 -0.20664302 -0.75201201
4.9035482 -0.23925333 -0.76166695
4.8674955 -0.26744407 -0.75603491
4.8352237 -0.2954419 -0.75104654
4.8668013 -0.32735404 -0.75651765
4.8647013 -0.35721001 -0.75651765
4.8643856 -0.38720903 -0.75683945
4.8560181 -0.41654339 -0.75587398
4.8366628 -0.44479635 -0.75313842
4.8554521 -0.47658452 -0.75667858
4.8524361 -0.50636804 -0.75667858
4.8394279 -0.53504872 -0.75506943
4.8497782 -0.56633437 -0.75732225
4.8481712 -0.59632218 -0.75764406
4.8346324 -0.6247946 -0.75603491
4.8219056 -0.65325582 -0.7545867
4.8138976 -0.68227649 -0.75394303
4.8008337 -0.71050143 -0.75249481
4.8149171 -0.74280304 -0.75555217
4.8122177 -0.77264559 -0.75587398
4.8258829 -0.80524313 -0.7589314
4.8023734 -0.83164072 -0.75587398
4.8350673 -0.8678894 -0.76214969
4.7995696 -0.89195263 -0.75716132
4.7949753 -0.92157167 -0.75732225
4.7718048 -0.9475171 -0.75442576
4.7426963 -0.9720245 -0.7505638
4.7511272 -1.0041671 -0.75297755
4.7468052 -1.0337204 -0.75329936
4.7740808 -1.0703814 -0.7589314
4.7626143 -1.0985457 -0.7581268
4.7836347 -1.1343497 -0.7627933
4.766036 -1.1611112 -0.76102328
4.7664819 -1.1922486 -0.76231056
4.7418685 -1.2170576 -0.75941414
4.701859 -1.2375911 -0.75394303
4.6827416 -1.2633339 -0.75201201
4.6920257 -1.296774 -0.7549085
4.7001257 -1.3301069 -0.75764406
4.6928239 -1.3591957 -0.75780499
4.6673617 -1.3829192 -0.7549085
4.6474533 -1.4080982 -0.75297755
4.663239 -1.4441774 -0.75716132
4.661818 -1.4751447 -0.75844866
4.6630096 -1.5070593 -0.76021868
4.6227446 -1.5254388 -0.7549085
4.6404233 -1.5629083 -0.75957501
4.6055436 -1.5826935 -0.75523031
4.6115804 -1.6164716 -0.75796586
4.5894923 -1.6404198 -0.75587398
4.5728493 -1.6661849 -0.75474757
4.5523615 -1.6904336 -0.75297755
4.5492887 -1.7211279 -0.75426483
4.5533781 -1.7546866 -0.75683945
4.5517139 -1.7861972 -0.75844866
4.5370021 -1.812628 -0.75780499
4.5367661 -1.844893 -0.75973594
4.5007367 -1.8625077 -0.75539124
4.4992299 -1.8943006 -0.75716132
4.4512305 -1.9063325 -0.75072473
4.4249711 -1.9273041 -0.74815011
4.4338188 -1.9636095 -0.75185114
4.4054871 -1.9834858 -0.74895465
4.4165683 -2.0211565 -0.75313842
4.413033 -2.0523791 -0.75474757
4.3896484 -2.0743592 -0.75281662
4.3812866 -2.1033897 -0.75362116
4.4321723 -2.1613758 -0.76520705
4.393177 -2.1758292 -0.76054054
4.3550544 -2.1903296 -0.75603491
4.3406534 -2.2165616 -0.75587398
4.3532591 -2.2567787 -0.76070142
4.3105059 -2.2682824 -0.75539124
4.3618035 -2.3295555 -0.76745987
4.2728004 -2.3158357 -0.75362116
4.2991586 -2.3643601 -0.76118416
4.2802606 -2.3882904 -0.76037961
4.2620897 -2.4125643 -0.75973594
4.2258077 -2.4263859 -0.75571311
4.2151046 -2.4547524 -0.75651765
4.1965637 -2.4785624 -0.75587398
4.1982117 -2.5144062 -0.75909227
4.2198248 -2.5626571 -0.76617253
4.2073832 -2.5905709 -0.7668162
4.1378222 -2.5828948 -0.75651765
4.166101 -2.6362023 -0.76504612
4.0908599 -2.6238875 -0.75362116
4.0862684 -2.6564696 -0.75587398
4.0781336 -2.6869218 -0.75748312
4.0632119 -2.71299 -0.75780499
4.0464888 -2.7378705 -0.75780499
3.9946082 -2.7386527 -0.75088561
4.0174503 -2.790699 -0.75877047
3.9824934 -2.8028018 -0.75523031
3.9901345 -2.8449454 -0.76021868
3.9638016 -2.8630188 -0.75844866
3.9405837 -2.8832071 -0.75732225
3.900615 -2.8908787 -0.75281662
3.9088526 -2.9343092 -0.7581268
3.8585601 -2.9337492 -0.75152928
3.8264098 -2.9465318 -0.74863285
3.8495092 -3.00212 -0.75716132
3.7907376 -2.9938776 -0.74879372
3.8108373 -3.0479007 -0.75683945
3.792064 -3.0712261 -0.75683945
3.7845957 -3.1038232 -0.7592532
3.7518117 -3.1156378 -0.75635672
3.7515104 -3.1544781 -0.76037961
3.738848 -3.1831954 -0.76182783
3.7244792 -3.210587 -0.76295424
3.7114022 -3.2392199 -0.76440251
3.6655693 -3.2390599 -0.75877047
3.6522462 -3.2674124 -0.76021868
3.6540761 -3.3096359 -0.76504612
3.6198776 -3.3193219 -0.76198876
3.570507 -3.3146133 -0.75555217
3.5975723 -3.3810658 -0.76617253
3.5731833 -3.3996751 -0.76536798
3.5479906 -3.417428 -0.76440251
3.5205946 -3.4329329 -0.76295424
3.4861178 -3.4412973 -0.75989687
3.4474821 -3.445183 -0.75587398
3.4339108 -3.4739921 -0.75764406
3.3966701 -3.478756 -0.75394303
3.366353 -3.4902978 -0.75185114
3.3455544 -3.5116022 -0.75201201
3.3523557 -3.5622489 -0.75877047
3.3828535 -3.6391323 -0.77132183
3.3664689 -3.666363 -0.77277005
3.3253419 -3.6664815 -0.76826441
3.2955375 -3.6787307 -0.76649439
3.2774818 -3.704056 -0.7676208
3.255342 -3.7248397 -0.76778167
3.2266209 -3.7380204 -0.76633346
3.1978607 -3.750989 -0.76488525
3.1639769 -3.7577062 -0.76214969
3.1780961 -3.8218195 -0.77164364
3.1808965 -3.8732805 -0.77840209
3.1576924 -3.8934917 -0.77856296
3.1392963 -3.9197266 -0.78001124
3.0986543 -3.918015 -0.77566653
3.0593669 -3.9175086 -0.77164364
3.0183949 -3.9143238 -0.767138
2.9799695 -3.9139254 -0.7632761
2.9475944 -3.9210923 -0.76102328
2.9246562 -3.9406896 -0.76134509
2.8922539 -3.9474156 -0.75909227
2.869714 -3.9674866 -0.75957501
2.8665385 -4.0147381 -0.76552886
2.8463995 -4.0387049 -0.7668162
2.8018363 -4.0277381 -0.76118416
2.7720416 -4.0375319 -0.75973594
2.7477691 -4.0552816 -0.75989687
2.7288702 -4.08109 -0.76166695
2.7287843 -4.1356497 -0.76906902
2.7243612 -4.1845717 -0.77534467
2.682096 -4.175468 -0.77035636
2.6558969 -4.1910124 -0.77019542
2.6290848 -4.2055564 -0.76987356
2.615665 -4.2417698 -0.77373552
2.588563 -4.256053 -0.77341372
2.5532598 -4.2566218 -0.77051723
2.5135248 -4.2492733 -0.76617253
2.4879017 -4.2654686 -0.76633346
2.4518406 -4.2635431 -0.76311517
