# .PCD v0.7 - Point Cloud Data file format
VERSION 0.7
FIELDS x y z
SIZE 4 4 4
TYPE F F F
COUNT 1 1 1
WIDTH 1623
HEIGHT 1
VIEWPOINT 0 0 0 1 0 0 0
POINTS 1623
DATA ascii
1.7260386 -3.3761504 -0.76574045
1.7079306 -3.3919194 -0.76698691
1.6831741 -3.3944483 -0.76511723
1.6618853 -3.4038332 -0.76490951
0 -0 -0
0 -0 -0
0 -0 -0
0 -0 -0
0 -0 -0
1.5275412 -3.4448128 -0.76075464
1.5075488 -3.4568105 -0.76137787
1.4855386 -3.4641976 -0.76096243
1.4547526 -3.4507146 -0.7557689
1.4414176 -3.4785521 -0.76013142
0 -0 -0
0 -0 -0
0 -0 -0
1.3517406 -3.5028405 -0.7578463
1.3298755 -3.510154 -0.75763851
1.3059253 -3.5118301 -0.75618434
1.2816693 -3.5124259 -0.75452244
1.2584445 -3.5156195 -0.75348371
1.2316637 -3.508508 -0.75015986
1.2101127 -3.5159993 -0.75015986
1.1888289 -3.5242851 -0.75036758
1.1638043 -3.5212972 -0.74808246
1.1491073 -3.5497758 -0.75286049
1.1252352 -3.5502326 -0.75140631
1.093863 -3.5262403 -0.74455088
1.07249 -3.5338218 -0.74475861
1.0608101 -3.5740941 -0.75223726
1.0418593 -3.5908692 -0.75452244
1.0227424 -3.6075461 -0.75680757
0.98935944 -3.5732181 -0.74787474
0.97711855 -3.6151037 -0.7557689
0.94942856 -3.6002231 -0.75119859
0.93048853 -3.6182964 -0.75389922
0.90160817 -3.5973709 -0.74808246
0.88926554 -3.642746 -0.75680757
0.86644483 -3.6462305 -0.75639212
0.84141088 -3.6400418 -0.75389922
0.81648552 -3.6336837 -0.75140631
0.80168718 -3.6730292 -0.75888497
0.77670091 -3.6663959 -0.75639212
0.75182635 -3.6595948 -0.75389922
0.73451608 -3.6900413 -0.75950819
0.7118606 -3.6944788 -0.75950819
0.68630987 -3.6833911 -0.75618434
0.66438955 -3.6913838 -0.75701535
0.64072239 -3.6896083 -0.7557689
0.61710203 -3.6876819 -0.75452244
0.59539694 -3.6971934 -0.7557689
0.57389778 -3.7085102 -0.75743079
0.55127573 -3.7129295 -0.75763851
0.52682936 -3.7046208 -0.75514567
0.50356084 -3.7039068 -0.75431466
0.48019496 -3.7020767 -0.75327599
0.45747042 -3.7049534 -0.75327599
0.43507069 -3.7106051 -0.75389922
0.41251075 -3.7151492 -0.75431466
0.39011559 -3.7215018 -0.75514567
0.36727354 -3.7238255 -0.75514567
0.34486836 -3.7308791 -0.75618434
0.32079139 -3.719281 -0.75327599
0.29827699 -3.7250795 -0.75410694
0.27541471 -3.7268395 -0.75410694
0.25267446 -3.7304113 -0.75452244
0.23002121 -3.7357967 -0.75535339
0.20704024 -3.7361612 -0.75514567
0.18493162 -3.7539701 -0.75867724
0.1621054 -3.7599204 -0.75971597
0.1385608 -3.7481368 -0.75701535
0.11540886 -3.7440279 -0.75597662
0.09267617 -3.7544441 -0.75805402
0.069509909 -3.748096 -0.75659984
0.046498477 -3.747474 -0.75639212
0.023584614 -3.7604048 -0.75909275
0.00050911622 -3.7536316 -0.75763851
-0.022516975 -3.7525859 -0.75743079
-0.045553755 -3.753355 -0.75763851
-0.068405345 -3.7432246 -0.75556111
-0.090991713 -3.7270882 -0.75223726
-0.11427578 -3.7401478 -0.75514567
-0.13711543 -3.7364438 -0.75452244
-0.15987217 -3.7316229 -0.75369149
-0.18329136 -3.7413189 -0.75597662
-0.20635173 -3.7420774 -0.75639212
-0.22847232 -3.7270715 -0.75348371
-0.25140265 -3.7265756 -0.75369149
-0.27498099 -3.7347183 -0.7557689
-0.30037835 -3.7641637 -0.7624166
-0.32213008 -3.7466562 -0.75909275
-0.34529242 -3.7465572 -0.75950819
-0.36846566 -3.746315 -0.7599237
-0.39114082 -3.741065 -0.75930047
-0 -0 -0
-0.43645227 -3.7311256 -0.75826174
-0.45874026 -3.7235231 -0.75722307
-0.48120233 -3.7177279 -0.75659984
-0.50387341 -3.7137361 -0.75639212
-0.52500272 -3.6989524 -0.75389922
-0.54854894 -3.7014673 -0.75514567
-0.56543034 -3.6603291 -0.74704373
-0.5902065 -3.6712778 -0.75015986
-0.61304408 -3.6695168 -0.75057536
-0.63822031 -3.6811075 -0.75389922
-0.66287005 -3.6886754 -0.75639212
-0.68727905 -3.6941557 -0.75846952
-0.71030241 -3.6917903 -0.75888497
-0.73217905 -3.6835246 -0.75805402
-0.75496346 -3.6799212 -0.75826174
-0.77651697 -3.6704342 -0.75722307
-0.7969414 -3.6560428 -0.75514567
-0.81700444 -3.6405849 -0.75286049
-0.83866745 -3.6326439 -0.75223726
-0.86139274 -3.6293333 -0.75265276
-0.88434052 -3.6268306 -0.75327599
-0.90681517 -3.6222851 -0.75348371
-0.92951053 -3.6185477 -0.75389922
-0.95020157 -3.6071005 -0.75265276
-0.97155184 -3.5983691 -0.75202954
-0.98918134 -3.5763123 -0.74849796
-1.0151032 -3.5842934 -0.75161403
-1.0321771 -3.5610855 -0.74787474
-1.0576217 -3.5668774 -0.75057536
-1.0775017 -3.5537677 -0.74912119
-1.0984185 -3.5442863 -0.74849796
-1.1160125 -3.5244236 -0.74558955
-1.1355106 -3.5109944 -0.74413538
-1.1600984 -3.5132499 -0.74621278
-1.1719519 -3.4773288 -0.7397728
-1.1904044 -3.4617469 -0.73790318
-1.2145358 -3.4626853 -0.7397728
-1.2416873 -3.4717474 -0.74351215
-1.2723452 -3.4897964 -0.74932891
-1.298162 -3.4938443 -0.75202954
-1.3181905 -3.4821537 -0.75119859
-1.3374208 -3.4685235 -0.74995214
-1.3511723 -3.4411306 -0.74558955
-1.3628234 -3.4091585 -0.7401883
-1.4047241 -3.4523795 -0.75202954
-1.4322411 -3.45906 -0.75556111
-1.4545774 -3.4529114 -0.75618434
-1.4772774 -3.4475179 -0.75701535
-1.4987938 -3.4392853 -0.75722307
-1.5170954 -3.4237635 -0.7557689
-1.532853 -3.4027956 -0.75306827
-1.5577747 -3.4022205 -0.75514567
-1.5786209 -3.3925979 -0.75514567
-1.601916 -3.388154 -0.75639212
-1.6239454 -3.3809066 -0.75701535
-1.6480904 -3.377912 -0.75867724
-1.6700885 -3.3703654 -0.75930047
-1.6929352 -3.3644238 -0.7603392
-1.7148819 -3.3565862 -0.76096243
-1.7390475 -3.3529477 -0.76262432
-1.7604992 -3.3439453 -0.76303983
-1.7823669 -3.3356683 -0.76366305
-1.803733 -3.3263891 -0.7640785
-1.8222235 -3.3118308 -0.76324755
-1.8434637 -3.3022957 -0.76366305
-1.8651373 -3.2934759 -0.76428628
-1.8828748 -3.2777283 -0.76324755
-1.9103364 -3.2787921 -0.76636368
-1.9304187 -3.267009 -0.76636368
-1.9529418 -3.2592983 -0.76740235
-1.9734116 -3.24809 -0.76761013
-2.0009985 -3.2484138 -0.7707262
-2.0177844 -3.2310963 -0.76947975
-2.0422802 -3.2260935 -0.77134943
-2.0630932 -3.2151482 -0.77176493
-2.0849149 -3.205709 -0.77259588
-2.1040072 -3.192039 -0.77238816
-2.1219239 -3.1766286 -0.77176493
-2.1402788 -3.1619289 -0.77134943
-2.1557674 -3.1430895 -0.76989526
-2.1660824 -3.1169498 -0.7665714
-2.1834776 -3.1012006 -0.76594818
-2.2013292 -3.0861518 -0.76553267
-2.2110589 -3.0599 -0.76220882
-2.2309477 -3.0478544 -0.76262432
-2.247277 -3.0309649 -0.76179338
-2.2664196 -3.0179009 -0.7620011
-2.281934 -3.0000446 -0.76096243
-2.2991052 -2.9844365 -0.76054692
-2.3161707 -2.9687307 -0.76013142
-2.3313112 -2.9506252 -0.75909275
-2.3469279 -2.9332094 -0.75826174
-2.3642659 -2.9179938 -0.75805402
-2.3753016 -2.8951128 -0.7557689
-2.3911462 -2.8782263 -0.75514567
-2.403095 -2.8567626 -0.75327599
-2.4161394 -2.8367505 -0.75182182
-2.4283898 -2.8159451 -0.75015986
-2.4391897 -2.7936227 -0.74808246
-2.4498072 -2.7712741 -0.74600506
-2.4602425 -2.7489007 -0.74392766
-2.4691823 -2.7250538 -0.74143475
-2.4785836 -2.7019219 -0.73914957
-2.4857974 -2.6766272 -0.73624122
-2.4988244 -2.6577604 -0.73520249
-2.5036213 -2.6303315 -0.73167092
-2.5149632 -2.6099889 -0.73021674
-2.5241005 -2.5875056 -0.72813934
-2.5309954 -2.5629203 -0.72543871
-2.5418329 -2.5424991 -0.72398448
-2.5504282 -2.519979 -0.72190708
-2.5546432 -2.4933496 -0.71858323
-2.5628526 -2.4708376 -0.71650583
-2.5694659 -2.4469697 -0.71401292
-2.5773077 -2.4244545 -0.71193552
-2.5957179 -2.4119246 -0.71297425
-2.5982182 -2.3847063 -0.70944262
-2.6142509 -2.3700333 -0.70985812
-2.6236434 -2.3493795 -0.70840394
-2.6321485 -2.3280518 -0.70674199
-2.6427007 -2.3086393 -0.70570332
-2.6516325 -2.2879066 -0.70424914
-2.6648767 -2.2709589 -0.70404136
-2.6757674 -2.2520449 -0.70321041
-2.6812615 -2.2287054 -0.70092523
-2.697154 -2.2140739 -0.70154846
-2.7038505 -2.1919379 -0.69967884
-2.7126677 -2.1716378 -0.69843239
-2.7228725 -2.1525254 -0.69760138
-2.7229216 -2.1255436 -0.6940698
-2.7266164 -2.101629 -0.6915769
-2.7410171 -2.0860443 -0.6919924
-2.7428179 -2.0609586 -0.68908405
-2.7601254 -2.0475876 -0.69033045
-2.763957 -2.0242546 -0.68804532
-2.7676065 -2.0009518 -0.68576014
-2.7734628 -1.9793857 -0.68409824
-2.7799587 -1.9583868 -0.68264407
-2.7871044 -1.9379413 -0.68139762
-2.7981365 -1.9202499 -0.68118989
-2.8066268 -1.9008502 -0.68035889
-2.8060393 -1.8754386 -0.67724282
-2.8150444 -1.8565699 -0.67661959
-2.8190048 -1.8344594 -0.67474991
-2.8211541 -1.8113134 -0.67246473
-2.8256047 -1.7897809 -0.67080283
-2.8265793 -1.7661883 -0.66830993
-2.8298693 -1.7441913 -0.66644025
-2.8363392 -1.7242537 -0.66540158
-2.8451879 -1.7058115 -0.66498607
-2.8539171 -1.6873258 -0.66457057
-2.8633716 -1.6692899 -0.66436285
-2.8752563 -1.6526643 -0.66477835
-2.8802369 -1.6320969 -0.6635319
-2.8850734 -1.6115307 -0.66228545
-2.8897662 -1.5909667 -0.66103899
-2.8917363 -1.569006 -0.65916932
-2.8969963 -1.5489265 -0.65813065
-2.9029841 -1.5292976 -0.65729964
-2.9131813 -1.5119072 -0.65750742
-2.9206614 -1.493113 -0.65709192
-2.9280207 -1.4742841 -0.65667641
-2.9317539 -1.4536824 -0.65542996
-2.9406183 -1.4356662 -0.65542996
-2.9493721 -1.4175959 -0.65542996
-2.9509413 -1.3961246 -0.65376806
-2.9612257 -1.3788178 -0.65418357
-2.961627 -1.356954 -0.65231389
-2.9698975 -1.3387563 -0.65231389
-2.9807384 -1.321698 -0.65293711
-2.9887922 -1.3033836 -0.65293711
-0.2881372 -0.12317002 -0.027013557
-0.28978884 -0.12177981 -0.027221298
-0.27697611 -0.11438113 -0.024105182
-0.2831082 -0.11489349 -0.025351629
-0.28380784 -0.11315421 -0.025351629
-0.26264781 -0.10282214 -0.020365845
-0.28517506 -0.10966293 -0.025351629
-0.27486619 -0.10375118 -0.022858737
-0 -0 -0
-0 -0 -0
-0 -0 -0
-0 -0 -0
-0 -0 -0
-0 -0 -0
-0 -0 -0
-0 -0 -0
-0 -0 -0
-0 -0 -0
-0 -0 -0
-0 -0 -0
-0 -0 -0
-0 -0 -0
-0 -0 -0
-0 -0 -0
-0 -0 -0
-0 -0 -0
-0 -0 -0
-0 -0 -0
-0 -0 -0
-0 -0 -0
-0 -0 -0
-0 -0 -0
-0 -0 -0
-0 -0 -0
-0 -0 -0
-0 -0 -0
-0 -0 -0
-0 -0 -0
-0 -0 -0
-0 -0 -0
-0 -0 -0
-0 -0 -0
-0 -0 -0
-0 -0 -0
-0 -0 -0
-0 -0 -0
-0 -0 -0
-0 -0 -0
-0 -0 -0
-0 -0 -0
-0 -0 -0
-0 -0 -0
-0 -0 -0
-0 -0 -0
-0 -0 -0
-0 -0 -0
-0 -0 -0
-0 -0 -0
-0 -0 -0
-0 -0 -0
-0 -0 -0
-0 -0 -0
-0.28354648 0.019802583 -0.0242735
-0 0 -0
-0.28814194 0.023700105 -0.025371879
-0 0 -0
-0.28394598 0.026851011 -0.024493176
-0 0 -0
-0.2845647 0.030441163 -0.024712851
-0 0 -0
-0 0 -0
-0 0 -0
-0 0 -0
-0 0 -0
-0.29483125 0.042614602 -0.027348964
-0.28974378 0.043676578 -0.026250584
-0.28754401 0.045143258 -0.025811231
-0.28533724 0.046584599 -0.025371879
-0.27735662 0.046998721 -0.023614472
-0.27418262 0.048181057 -0.022955444
-0.27196369 0.049504988 -0.022516092
-0.26782307 0.050434239 -0.021637389
-0.27037892 0.052648161 -0.022296418
-0.27196202 0.054698944 -0.022735769
-0.27353001 0.056771122 -0.02317512
-0.27794212 0.059488859 -0.0242735
-0.27757189 0.061193161 -0.0242735
-0 0 -0
-0 0 -0
-0.27924168 0.06698624 -0.024932528
-0.27598652 0.067986682 -0.0242735
-0.27556416 0.069678828 -0.0242735
-0.27230152 0.07062187 -0.023614472
-0.27280483 0.072545961 -0.023834148
-0.27235457 0.074218489 -0.023834148
-0.2728326 0.076154381 -0.024053825
-0.27610788 0.078914613 -0.024932528
-0.27842414 0.081440225 -0.025591556
-0.2769857 0.082863696 -0.025371879
-0 0 -0
-0.27222812 0.085077249 -0.024493176
-0 0 -0
-0.26653221 0.086880498 -0.023394797
-0.26784289 0.089138031 -0.023834148
-0.26913577 0.091414891 -0.0242735
-0.2694903 0.09338776 -0.024493176
-0.27258611 0.096354924 -0.025371879
-0.27290621 0.098360136 -0.025591556
-0.27138317 0.099692725 -0.025371879
-0.27441543 0.10273879 -0.026250584
-0.2737799 0.10442063 -0.026250584
-0.27313402 0.10609855 -0.026250584
-0.27519512 0.10885975 -0.026909612
-0.27452201 0.11054626 -0.026909612
-0.27383855 0.11222862 -0.026909612
-0.27224582 0.11352771 -0.026689935
-0.26795778 0.11365787 -0.025811231
-0.26636112 0.11490985 -0.025591556
-0.26386744 0.11575101 -0.025152205
-0.26137352 0.11656593 -0.024712851
-0.26154023 0.11857392 -0.024932528
-0.26169214 0.12058833 -0.025152205
-0.26359275 0.12344363 -0.025811231
-0.26546812 0.12632674 -0.026470259
-0.26819453 0.12966554 -0.027348964
-0.27001587 0.13260905 -0.028007992
-0.27006844 0.13470215 -0.028227666
-0.26663101 0.13502429 -0.027568638
-0.2683951 0.13800615 -0.028227666
-0.26495397 0.1382861 -0.027568638
-0.25893873 0.13714892 -0.026250584
-0.25723487 0.13826984 -0.026030907
-0.25381789 0.13843387 -0.025371879
-0.25381538 0.14046448 -0.025591556
-0.25634369 0.14394331 -0.026470259
-0.25714719 0.14648595 -0.026909612
-0.26130015 0.15100944 -0.028227666
-0.2670866 0.15658243 -0.029985074
-0.26612079 0.15821829 -0.029985074
-0.26597854 0.16035503 -0.030204751
-0.26166779 0.15993628 -0.029326046
-0.26068151 0.16153882 -0.029326046
-0.26050952 0.1636574 -0.029545723
-0.25950044 0.16525277 -0.029545723
-0.25766394 0.16630976 -0.029326046
-0.25745299 0.1684248 -0.029545723
-0.25641471 0.17000133 -0.029545723
-0.25455907 0.17102434 -0.029326046
-0.25270057 0.17203099 -0.029106371
-0.25244117 0.17413528 -0.029326046
-0.25376046 0.17736666 -0.029985074
-0.25584355 0.1811875 -0.030863779
-0.25709862 0.18446884 -0.031522807
-0.26068407 0.18950179 -0.032840863
-0.26108333 0.19226035 -0.033280212
-0.26145852 0.19503091 -0.033719566
-0.26258576 0.19840413 -0.034378592
-0.26136342 0.2000116 -0.034378592
-0.26090023 0.20221189 -0.034598269
-0.26041985 0.204414 -0.034817945
-0.25535294 0.20295933 -0.033719566
-0.25486058 0.20513673 -0.033939242
-0.25510511 0.20793475 -0.034378592
-0.25682524 0.21199077 -0.035257298
-0.25850505 0.21607563 -0.036136001
-0.26385674 0.22335309 -0.038113084
-0.26617423 0.2281547 -0.039211463
-0.2662386 0.23106739 -0.039650816
-0 0 -0
-0 0 -0
-0.26338574 0.23723941 -0.040090166
-0 0 -0
-0 0 -0
-0 0 -0
-0 0 -0
-0 0 -0
-0 0 -0
-0 0 -0
-0 0 -0
-0 0 -0
-0 0 -0
-0 0 -0
-0 0 -0
-0 0 -0
-0 0 -0
-0 0 -0
-0 0 -0
-0 0 -0
-0 0 -0
-0 0 -0
-0 0 -0
-0 0 -0
-0 0 -0
-0 0 -0
-0 0 -0
-0 0 -0
-0 0 -0
-0 0 -0
-0 0 -0
-0 0 -0
-0 0 -0
-2.206645 2.9367332 -0.78742772
-2.1833551 2.9431643 -0.78545064
-0 0 -0
-2.1436455 2.9649913 -0.78413254
-0 0 -0
-2.1121535 2.9982533 -0.78610963
-2.09483 3.0127592 -0.78654903
-0 0 -0
-2.0555141 3.0350075 -0.78567028
-2.0352273 3.0451288 -0.78501129
-2.0138202 3.0534866 -0.7839129
-1.9876007 3.0543358 -0.78083742
-1.9688221 3.066474 -0.78083742
-1.9499695 3.0784967 -0.78083742
-1.9274267 3.0846109 -0.77929968
-1.9089751 3.0972102 -0.77951938
-1.8889221 3.1071975 -0.77908003
-1.872328 3.1229136 -0.78017843
-1.851146 3.1309834 -0.77929968
-1.8304266 3.1397541 -0.77864069
-1.7984937 3.128931 -0.77292907
-1.7946433 3.1670732 -0.77995872
-1.777554 3.1822846 -0.78105712
-1.7518814 3.1820197 -0.77820134
-1.728139 3.1849904 -0.77622426
-1.7145401 3.2067204 -0.77908003
-1.6902875 3.2085474 -0.77688324
-1.676856 3.230983 -0.77995872
-1.6596624 3.246424 -0.78127676
-1.6375191 3.2521889 -0.78017843
-1.6214311 3.2700427 -0.78215551
-1.601336 3.2799301 -0.78215551
-1.5870934 3.3020058 -0.78523093
-1.5580471 3.29316 -0.78061777
-1.540692 3.3088498 -0.78215551
-1.5154872 3.3075964 -0.77951938
-1.4995706 3.3266177 -0.78193581
-1.4807113 3.3393242 -0.7828145
-1.4566865 3.3402975 -0.78083742
-1.4415421 3.361727 -0.7839129
-1.4178584 3.3633163 -0.78215551
-1.390851 3.3566291 -0.77842098
-1.3680233 3.3596783 -0.77710295
-1.3459346 3.3643854 -0.77622426
-1.3256223 3.3734887 -0.7764439
-1.3073545 3.3879309 -0.77798164
-1.287578 3.3986261 -0.77864069
-1.2650015 3.40189 -0.77754229
-1.2467769 3.4169204 -0.77929968
-1.2251307 3.4226689 -0.77886033
-1.1999097 3.418154 -0.77600455
-1.1808168 3.4309876 -0.77732259
-1.1572503 3.4307723 -0.77556521
-1.1352601 3.4350293 -0.77490616
-1.1129612 3.4382174 -0.77402747
-1.0912548 3.4431217 -0.77358812
-1.0701077 3.4497526 -0.77358812
-1.0489203 3.4562538 -0.77358812
-1.0301889 3.4710426 -0.77556521
-1.0064278 3.4688654 -0.77358812
-0.98459274 3.473098 -0.77314878
-0.96456373 3.4837754 -0.77424717
-0.93935591 3.4755003 -0.77095199
-0.91726762 3.4783685 -0.770293
-0.8939662 3.476372 -0.76853555
-0.8728556 3.4827383 -0.76875526
-0.85493523 3.5022457 -0.77205038
-0.8300513 3.4931872 -0.76875526
-0.80947948 3.5020168 -0.76963395
-0.78947121 3.5135813 -0.77117169
-0.76727426 3.5154996 -0.77051264
-0.74730408 3.527777 -0.77227008
-0.72662401 3.5370743 -0.77336848
-0.70433682 3.5385957 -0.77270943
-0.68445379 3.5524309 -0.77490616
-0.66157329 3.5508089 -0.77358812
-0.63977349 3.5548015 -0.77358812
-0.6179496 3.55866 -0.77358812
-0.59433478 3.5518 -0.77117169
-0.57113707 3.546711 -0.7691946
-0.55010849 3.5549695 -0.770293
-0 0 -0
-0.50561988 3.5556571 -0.76897496
-0.48235115 3.5480585 -0.76655847
-0 0 -0
-0.436867 3.5382185 -0.7630437
-0.41378924 3.5292046 -0.76040757
-0.3920193 3.5307076 -0.76018786
-0.36953682 3.5252843 -0.75843048
-0.3475174 3.5236018 -0.75755179
-0.32642728 3.5314965 -0.75886983
-0.30508631 3.5373209 -0.75974852
-0.28329843 3.5381536 -0.75952888
-0.26158342 3.5398254 -0.75952888
-0.23992412 3.5423372 -0.75974852
-0.21776682 3.5369265 -0.75821084
-0.19530936 3.5245588 -0.75513536
-0.17391779 3.5305629 -0.75623375
-0.15216799 3.5296142 -0.75579435
-0.13036495 3.5265818 -0.75491565
-0.10911035 3.5399919 -0.75777143
-0.087197311 3.5327923 -0.75601405
-0.065501094 3.5322855 -0.75579435
-0.043955751 3.5433514 -0.75821084
-0.022109026 3.5259943 -0.75425667
-0.0004731325 3.5280149 -0.75469601
0.021174368 3.5279512 -0.75469601
0.042735927 3.5209265 -0.75315827
0.064393565 3.5235243 -0.75381732
0.085867494 3.5172112 -0.75249922
0.10720614 3.5088172 -0.75074184
0.12876992 3.5090683 -0.75096148
0.1499621 3.5004146 -0.7492041
0.17129323 3.4965055 -0.74854505
0.19258204 3.4924664 -0.74788606
0.21352768 3.4834292 -0.74612862
0.23542547 3.4898403 -0.74788606
0.25661844 3.4854112 -0.74722701
0.2769087 3.4701567 -0.74415153
0.29853153 3.47228 -0.74503022
0.31956187 3.4674687 -0.74437124
0.34121507 3.469326 -0.74524993
0.36310667 3.4729886 -0.74656796
0.38311705 3.45906 -0.74393189
0.40456155 3.4585819 -0.74437124
0.42625386 3.4599073 -0.74524993
0.44596881 3.4456172 -0.74261379
0.46749678 3.4457159 -0.74327284
0.48835567 3.4408507 -0.7428335
0.50945914 3.4377897 -0.7428335
0.53054345 3.4345989 -0.7428335
0.55393523 3.4457262 -0.74612862
0.57377881 3.4345651 -0.74437124
0.59283841 3.4194455 -0.7417351
0.61432719 3.4186239 -0.74239415
0.6320743 3.3975272 -0.73843998
0.6553095 3.406038 -0.74129575
0.67524368 3.3971691 -0.74019736
0.69587922 3.3920064 -0.73997772
0.718297 3.3953078 -0.7417351
0.73828429 3.3870239 -0.74085641
0.75883889 3.3814783 -0.74063671
0.7808916 3.3824615 -0.7419548
0.80072886 3.3738098 -0.74107611
0.82118368 3.3678854 -0.74085641
0.8420704 3.3637297 -0.74107611
0.85977763 3.3471618 -0.73843998
0.88353395 3.3540862 -0.74129575
0.90282458 3.3438931 -0.74019736
0.9233253 3.3382905 -0.74019736
0.9443236 3.3344393 -0.74063671
0.96530938 3.330456 -0.74107611
0.98433828 3.3197942 -0.73997772
1.0015725 3.3034232 -0.73756129
1.0197994 3.2906933 -0.73602355
1.0399715 3.284374 -0.73602355
1.0546952 3.2612245 -0.73206937
1.0765231 3.2602494 -0.73338741
1.0940123 3.2461874 -0.73163003
1.1135924 3.2384913 -0.73141032
1.1360281 3.2389612 -0.73316777
1.154894 3.2291744 -0.73250872
1.1730137 3.2174449 -0.73141032
1.1917132 3.2074437 -0.73075134
1.2110256 3.1991589 -0.73053163
1.2306325 3.191668 -0.73053163
1.2473382 3.1767931 -0.72877425
1.2642702 3.1627395 -0.72723651
1.2821807 3.1513085 -0.72635782
1.3056012 3.1532955 -0.72877425
1.3207555 3.1353369 -0.72635782
1.347275 3.1442091 -0.73053163
1.3688824 3.1412485 -0.73184967
1.3853624 3.1265473 -0.73031199
1.4105351 3.1313286 -0.73360711
1.4285028 3.1199541 -0.73294806
1.4467958 3.1093614 -0.73250872
1.4666818 3.1021891 -0.73294806
1.4831527 3.0878558 -0.73163003
1.4999312 3.0743141 -0.73053163
1.5192001 3.0659268 -0.73075134
1.5388613 3.05829 -0.73119068
1.5549327 3.0435786 -0.72987258
1.5726796 3.0322487 -0.72943324
1.588527 3.0173633 -0.7281152
1.6070112 3.0075595 -0.7281152
1.6268311 3.0002148 -0.72877425
1.6470916 2.9935944 -0.72965294
1.6663806 2.9851351 -0.73009229
1.6880329 2.9807954 -0.73163003
1.7101806 2.9771478 -0.73338741
1.7338214 2.9758689 -0.73580384
1.7510552 2.9634948 -0.7353645
1.7707111 2.9552047 -0.73602355
1.7883036 2.9434507 -0.73580384
1.8083785 2.9357443 -0.73668259
1.8248067 2.922111 -0.73602355
1.8442683 2.9133317 -0.73668259
1.8631637 2.9036024 -0.73712194
1.8756232 2.883939 -0.73492515
1.8943578 2.8740051 -0.7353645
1.9157518 2.8680048 -0.73690224
1.9267479 2.8465033 -0.7342661
1.9496982 2.8426709 -0.73646289
1.9643189 2.8266494 -0.7353645
1.9788164 2.8105559 -0.7342661
1.9954575 2.7975671 -0.73404646
2.0120139 2.7844801 -0.73382676
2.0244493 2.7657859 -0.73206937
2.0413818 2.7533121 -0.73206937
2.0547209 2.7360554 -0.73075134
2.0649707 2.7148571 -0.7283349
2.0792074 2.6990452 -0.72745615
2.0885251 2.6770089 -0.72482008
2.1037014 2.6626129 -0.72438073
2.120609 2.6504164 -0.72460037
2.1319165 2.6312923 -0.72284299
2.1535931 2.6249475 -0.72482008
2.1752717 2.6184356 -0.72679716
2.1944385 2.6087711 -0.72789556
2.2129357 2.598227 -0.72877425
2.2447705 2.6030645 -0.7342661
2.2594166 2.5877724 -0.73382676
2.2791305 2.5782444 -0.73514485
2.2975109 2.5671184 -0.73602355
2.3132191 2.5529728 -0.73602355
2.3308196 2.5408871 -0.73668259
2.3463662 2.5265377 -0.73668259
2.3705149 2.5213301 -0.73953837
2.3798854 2.5003796 -0.73756129
2.3992455 2.4899435 -0.73887932
2.4172041 2.4779677 -0.73975801
2.4323633 2.4630892 -0.73975801
2.4515705 2.4522564 -0.74107611
2.4624059 2.4330549 -0.73975801
2.4737966 2.4144943 -0.73865968
2.4927804 2.4033313 -0.73997772
2.4891062 2.3705039 -0.7342661
2.5100017 2.3612003 -0.73624319
2.5294468 2.3504016 -0.73778093
2.5373504 2.3289022 -0.73580384
2.5494235 2.3113244 -0.73514485
2.5671926 2.2988906 -0.73624319
2.5849047 2.2863259 -0.73734158
2.6099083 2.280046 -0.74063671
2.6282823 2.2678115 -0.7419548
2.6466043 2.2554371 -0.74327284
2.6671131 2.244807 -0.74524993
2.6763341 2.2246594 -0.74393189
2.689934 2.2081959 -0.74393189
2.7004004 2.1891928 -0.7430532
2.7099733 2.1695349 -0.7419548
2.733186 2.160728 -0.74481058
2.7494693 2.146317 -0.74568927
2.7602684 2.1276202 -0.74503022
2.7756009 2.1124151 -0.74568927
2.7838295 2.0918298 -0.74437124
2.7958286 2.0741282 -0.74415153
2.8069279 2.0557821 -0.74371219
2.8123722 2.0333784 -0.7417351
2.8295615 2.0194824 -0.7430532
2.8307314 1.9942204 -0.73997772
2.8445168 1.9779272 -0.74041706
2.8638406 1.9654021 -0.74239415
2.8701906 1.9439652 -0.74085641
2.8942335 1.9344451 -0.74415153
2.9117506 1.9204079 -0.74568927
2.9267507 1.904633 -0.74656796
2.9359188 1.8850585 -0.74590898
2.949903 1.8685739 -0.74656796
2.9563477 1.8473382 -0.74524993
2.9618125 1.8255824 -0.74371219
2.9754598 1.8088942 -0.74437124
2.9890134 1.7921072 -0.74503022
3.0033131 1.7757181 -0.74590898
3.0183671 1.7597121 -0.74700731
3.0384133 1.7465035 -0.74942374
3.0456767 1.7259045 -0.74854505
3.0587647 1.7086104 -0.7492041
3.0709007 1.6907505 -0.74964345
3.0743561 1.6681561 -0.74788606
3.0776501 1.6455832 -0.74612862
3.0945954 1.6303034 -0.74788606
3.1019423 1.6099373 -0.74722701
3.1126311 1.5913177 -0.74744672
3.1205935 1.5713121 -0.74700731
3.1319246 1.553001 -0.74744672
3.1466556 1.536321 -0.74876475
3.1569023 1.5174069 -0.7489844
3.1670356 1.498425 -0.7492041
3.1735165 1.4777297 -0.74854505
3.1958296 1.4643208 -0.75184023
3.1967487 1.4410782 -0.74986315
3.2126665 1.4245975 -0.75162053
3.2088261 1.3994026 -0.74854505
3.2164555 1.3793031 -0.74832541
3.2149682 1.3553758 -0.74590898
3.2286325 1.3378625 -0.74722701
3.217804 1.3103068 -0.74261379
3.2312186 1.2927104 -0.74393189
3.2581599 1.2803464 -0.74854505
3.2614031 1.2585759 -0.74744672
3.2754512 1.240958 -0.7489844
3.2894053 1.2232149 -0.75052214
3.2995987 1.2040108 -0.75118119
3.3041685 1.1827568 -0.75052214
3.3113635 1.1624604 -0.75052214
3.3165886 1.141486 -0.75008279
3.3198323 1.1198683 -0.7492041
3.3340523 1.1019238 -0.75096148
3.3500335 1.0844473 -0.75315827
3.3436034 1.0597491 -0.75008279
3.3761351 1.0472977 -0.75623375
3.3918338 1.0293926 -0.75843048
3.3934095 1.007175 -0.75733209
3.4013996 0.98687744 -0.75777143
3.4045749 0.96519095 -0.75711244
3.3963289 0.94038248 -0.75381732
3.4001513 0.91901684 -0.75337791
3.407613 0.89863348 -0.75381732
3.4045587 0.87552392 -0.75184023
3.4164913 0.8562755 -0.75337791
3.4131508 0.83321673 -0.75140083
3.4200974 0.8127088 -0.75184023
3.428822 0.79258579 -0.75271893
3.4355245 0.77195913 -0.75315827
3.4401965 0.75086462 -0.75315827
3.4533291 0.73155862 -0.75513536
3.4539301 0.7095716 -0.75425667
3.4706583 0.69083709 -0.75711244
3.4853699 0.6715554 -0.75952888
3.4836702 0.64908665 -0.75821084
3.4847066 0.62718159 -0.75755179
3.4817607 0.60462183 -0.75601405
3.4777071 0.58196121 -0.75425667
3.4869916 0.56154019 -0.7555747
3.4923 0.54043156 -0.75601405
3.5003755 0.5197078 -0.75711244
3.5015666 0.49794608 -0.7566731
3.5122898 0.47750032 -0.75843048
3.5064459 0.45481381 -0.75645339
3.4965832 0.43174011 -0.75359762
3.4914148 0.40937105 -0.75184023
3.4967699 0.38826242 -0.75249922
3.487443 0.3655827 -0.74986315
3.5012712 0.34532246 -0.75249922
3.503324 0.32383257 -0.75249922
3.5052452 0.30233046 -0.75249922
3.5148141 0.28143737 -0.75425667
3.5223124 0.26029503 -0.7555747
3.5248168 0.23874323 -0.75579435
3.5242677 0.2169916 -0.755355
3.5304034 0.1956313 -0.75645339
3.5315373 0.17396547 -0.75645339
3.52669 0.1520429 -0.75513536
3.533406 0.13061497 -0.75645339
3.5312157 0.10884274 -0.75579435
3.5259655 0.087031059 -0.75447631
3.5274084 0.065412268 -0.75469601
3.5238414 0.043720145 -0.75381732
3.5240433 0.022097439 -0.75381732
3.5387461 0.00047102541 -0.75711244
3.5357556 -0.021223789 -0.75645339
3.5365345 -0.042930543 -0.7566731
3.5557125 -0.064992473 -0.76106662
3.5435436 -0.086519092 -0.75843048
3.5370953 -0.10807954 -0.75711244
3.5451398 -0.1301056 -0.75908953
3.5238066 -0.15097202 -0.75447631
3.522814 -0.17259085 -0.75447631
3.5265591 -0.19447339 -0.7555747
3.512641 -0.2153281 -0.75271893
3.5278003 -0.23799899 -0.75645339
3.5340569 -0.26021636 -0.75821084
3.5314214 -0.28181809 -0.75799114
3.5344853 -0.30390066 -0.75908953
3.5354686 -0.32585168 -0.75974852
3.5178688 -0.34600577 -0.75623375
3.5059772 -0.36656681 -0.75403696
3.5133579 -0.38914937 -0.75623375
3.5060594 -0.41013128 -0.75513536
3.5121908 -0.43271282 -0.75711244
3.4852831 -0.45111632 -0.75162053
3.4669826 -0.4703894 -0.7481057
3.4736896 -0.49302769 -0.75030249
3.4648092 -0.51347256 -0.7489844
3.4587011 -0.53427476 -0.74832541
3.4640262 -0.55688339 -0.75030249
3.4528465 -0.57683921 -0.74854505
3.4415526 -0.59667885 -0.74678767
3.4493482 -0.61985898 -0.74942374
3.4387665 -0.63976085 -0.74788606
3.4414818 -0.66214114 -0.74942374
3.4478791 -0.68534082 -0.75184023
3.443609 -0.70648372 -0.75184023
3.4392092 -0.72760004 -0.75184023
3.4289613 -0.74744034 -0.75052214
3.4214551 -0.76782417 -0.74986315
3.4138279 -0.78814405 -0.7492041
3.4212663 -0.81200892 -0.75205988
3.4171672 -0.8332175 -0.75227958
3.4299698 -0.85867655 -0.75645339
3.4274709 -0.88043541 -0.75711244
3.4135146 -0.89920998 -0.75513536
3.4022822 -0.91861033 -0.75381732
3.3805985 -0.93504256 -0.75008279
3.3597806 -0.95150954 -0.74656796
3.3445098 -0.96938789 -0.74437124
3.3422396 -0.99100173 -0.74524993
3.3286281 -1.0092237 -0.74349254
3.3587112 -1.0409036 -0.75205988
3.3345919 -1.0558913 -0.74788606
3.3280504 -1.0763321 -0.74788606
3.3343513 -1.1010191 -0.75096148
3.3330791 -1.1233289 -0.75227958
3.3298135 -1.1450293 -0.75315827
3.3236454 -1.1657623 -0.75337791
3.3237777 -1.1887646 -0.75513536
3.3090894 -1.2064607 -0.75337791
3.3052821 -1.2281026 -0.75425667
3.2958598 -1.247669 -0.75381732
3.2817712 -1.2654095 -0.75227958
3.2775769 -1.2869496 -0.75315827
3.2578437 -1.3023248 -0.75030249
3.2479844 -1.3215541 -0.74986315
3.2371109 -1.3403379 -0.7492041
3.2171395 -1.3552477 -0.74634832
3.2159362 -1.3780385 -0.7481057
3.198478 -1.3938448 -0.74590898
3.2014587 -1.4185859 -0.74876475
3.1998091 -1.4414108 -0.75052214
3.1873569 -1.4593916 -0.74964345
3.1739204 -1.4768621 -0.74854505
3.1718533 -1.4996473 -0.75030249
3.152041 -1.514009 -0.74766636
3.1514583 -1.5376017 -0.74986315
3.1375945 -1.5547426 -0.74876475
3.1245103 -1.5722101 -0.74788606
3.1304398 -1.5993465 -0.75184023
3.122299 -1.6194234 -0.75227958
3.1114407 -1.6380962 -0.75205988
3.1039116 -1.6585369 -0.75271893
3.1005363 -1.6812736 -0.75447631
3.0773432 -1.6932079 -0.75118119
3.0677476 -1.712534 -0.75140083
3.063123 -1.7346922 -0.75293857
3.0481927 -1.7510234 -0.75184023
3.0424478 -1.7726423 -0.75315827
3.0306742 -1.7907804 -0.75293857
3.0087523 -1.8028203 -0.75008279
2.999301 -1.8222615 -0.75052214
2.9805892 -1.8360231 -0.74854505
2.9667854 -1.852726 -0.74788606
2.9644268 -1.8766379 -0.75030249
2.9495726 -1.8926835 -0.74942374
2.9509859 -1.9192607 -0.75293857
2.9424117 -1.9394802 -0.75381732
2.935322 -1.9607509 -0.75513536
2.9345438 -1.9863845 -0.75821084
2.9166701 -2.0004888 -0.7566731
2.9187572 -2.0283732 -0.76062727
2.8958888 -2.0389395 -0.75777143
2.8849118 -2.0578036 -0.75821084
2.872231 -2.0754664 -0.75821084
2.860229 -2.0936275 -0.75843048
2.8496795 -2.1128819 -0.75908953
2.8475797 -2.1385329 -0.76216495
2.8235364 -2.1476929 -0.75908953
2.8110781 -2.1655729 -0.75930917
2.7946615 -2.1803792 -0.75843048
2.7781692 -2.1950657 -0.75755179
2.7593174 -2.2078025 -0.75601405
2.7464764 -2.2253063 -0.75623375
2.7320166 -2.2414975 -0.75601405
2.7174613 -2.2575948 -0.75579435
2.705797 -2.2761111 -0.75645339
2.690295 -2.2914052 -0.75601405
2.6806161 -2.3116937 -0.75733209
2.6766667 -2.3370843 -0.76040757
2.6637375 -2.3547568 -0.76084691
2.6565063 -2.3775654 -0.7630437
2.6368086 -2.3892336 -0.76150596
2.6235363 -2.4066873 -0.76194531
2.6080053 -2.4220755 -0.7617256
2.5881207 -2.4333529 -0.76018786
2.5759671 -2.4518788 -0.76106662
2.5615764 -2.4683156 -0.76128626
2.535213 -2.4730835 -0.75777143
2.5206847 -2.4892783 -0.75799114
2.5095015 -2.5088379 -0.75930917
2.4947457 -2.524883 -0.75952888
2.4846559 -2.5457299 -0.76128626
2.4676349 -2.5595224 -0.76084691
2.4384325 -2.5604818 -0.75645339
2.4246802 -2.5775278 -0.75711244
2.3988616 -2.5816336 -0.75381732
2.3757222 -2.5883956 -0.75140083
2.3624153 -2.6058161 -0.75227958
2.3457313 -2.6195354 -0.75205988
2.3334906 -2.6382651 -0.75337791
2.3262408 -2.6628222 -0.75645339
2.3136806 -2.6814787 -0.75777143
2.3009791 -2.7000811 -0.75908953
2.2818565 -2.7111623 -0.75821084
2.2583213 -2.7168577 -0.75579435
2.2341833 -2.7216125 -0.75315827
2.2125289 -2.7292056 -0.75140083
2.1951318 -2.7419684 -0.75118119
2.1764517 -2.7530892 -0.75052214
2.1595182 -2.7663918 -0.75052214
2.1466706 -2.7850006 -0.75205988
2.1289511 -2.7973433 -0.75184023
2.1117468 -2.8103535 -0.75184023
2.0944631 -2.8232582 -0.75184023
2.0782528 -2.8376307 -0.75227958
2.0648017 -2.8558648 -0.75381732
2.056303 -2.8811886 -0.75733209
2.046448 -2.9049196 -0.76040757
2.0335953 -2.9246321 -0.76238465
2.017267 -2.9394686 -0.7630437
1.9991928 -2.951791 -0.7630437
1.9777923 -2.9591348 -0.7617256
1.9531559 -2.9614396 -0.75908953
1.9477123 -2.9929967 -0.76436174
1.9219356 -2.9933958 -0.76128626
1.8998799 -2.999362 -0.75974852
1.8778235 -3.0051706 -0.75821084
1.851163 -3.0033455 -0.75469601
1.8291544 -3.008811 -0.75315827
1.8091542 -3.0174673 -0.75249922
1.7915977 -3.0301912 -0.75293857
1.7764086 -3.0470278 -0.75447631
1.7644814 -3.0697138 -0.75755179
1.751381 -3.0906699 -0.76018786
1.7385652 -3.112432 -0.7630437
1.7297802 -3.1418459 -0.76787657
1.7090747 -3.1498275 -0.76721752
1.6897156 -3.160255 -0.76721752
1.6698384 -3.1697001 -0.76699787
1.6436212 -3.1668956 -0.76370269
1.6206082 -3.1699708 -0.76194531
1.598058 -3.1737547 -0.76040757
1.5746561 -3.175633 -0.75843048
1.5512916 -3.1773438 -0.75645339
1.538524 -3.2008731 -0.75996822
1.5209396 -3.214663 -0.76106662
1.5057129 -3.2336648 -0.76348305
1.4874675 -3.2463908 -0.76436174
1.4659175 -3.2518985 -0.76348305
1.4439608 -3.2563722 -0.76238465
1.413821 -3.2419176 -0.7566731
1.3946707 -3.2523251 -0.75711244
1.3731738 -3.257225 -0.75623375
1.3512963 -3.2610824 -0.75513536
0 -0 -0
0 -0 -0
1.294963 -3.295392 -0.75755179
1.2743676 -3.3023653 -0.75733209
1.2551166 -3.3128598 -0.75799114
1.2327273 -3.3150117 -0.7566731
1.2140341 -3.327096 -0.75777143
0 -0 -0
0 -0 -0
0 -0 -0
0 -0 -0
1.1095698 -3.3572123 -0.75645339
1.0880489 -3.3611724 -0.75579435
1.0653436 -3.3612747 -0.75425667
1.0444105 -3.3668165 -0.75403696
1.0268455 -3.3834312 -0.75645339
0 -0 -0
0 -0 -0
0 -0 -0
0.94064254 -3.3972692 -0.75403696
0.92003381 -3.4039187 -0.75425667
0.8993789 -3.4104433 -0.75447631
0.87964916 -3.4206221 -0.7555747
0.86030209 -3.4325798 -0.75711244
0.84130341 -3.4463243 -0.75908953
0.81878996 -3.4457264 -0.75777143
0.79719317 -3.4487844 -0.75733209
0.77516258 -3.4498031 -0.75645339
0.75294179 -3.4497285 -0.755355
0.73196232 -3.4552381 -0.7555747
0.70878756 -3.4501073 -0.75337791
0.68969625 -3.4649169 -0.75579435
0.66621178 -3.4575875 -0.75315827
0.64748126 -3.4750381 -0.75623375
0.62649161 -3.480866 -0.7566731
0.60395545 -3.4779158 -0.75513536
0.58581787 -3.5008011 -0.75952888
0.56308806 -3.4966238 -0.75777143
0.5420692 -3.5029056 -0.75843048
0.5207085 -3.5071306 -0.75865018
0.49917936 -3.5102596 -0.75865018
0.47684479 -3.5074561 -0.75733209
0.45569 -3.5132186 -0.75799114
0.43400547 -3.5149803 -0.75777143
0.41152349 -3.5098252 -0.75601405
0.39105326 -3.5219808 -0.75821084
0.3696382 -3.5262544 -0.75865018
0.34732652 -3.5216599 -0.75711244
0 -0 -0
0.30408418 -3.5256569 -0.75711244
0.28267807 -3.5303738 -0.75777143
0.26058134 -3.5262043 -0.75645339
0.23874323 -3.5248168 -0.75579435
0.21705124 -3.5252414 -0.7555747
0.19530936 -3.5245588 -0.75513536
0.17387012 -3.5295885 -0.75601405
0.15279347 -3.5442343 -0.75908953
0.13082927 -3.5392556 -0.75777143
0 -0 -0
0.087529816 -3.5464463 -0.75908953
0.065660983 -3.541064 -0.75777143
0.043849729 -3.5345719 -0.75623375
0.022132205 -3.5298965 -0.75513536
0.00047332403 -3.5270393 -0.75447631
-0.021149658 -3.524049 -0.75381732
-0.042808909 -3.5267794 -0.75447631
-0 -0 -0
-0.086229496 -3.5318403 -0.75579435
-0.10804942 -3.5361202 -0.75689274
-0.12956411 -3.5305161 -0.75579435
-0.15130867 -3.5316041 -0.75623375
-0.17307146 -3.532558 -0.7566731
-0.19431126 -3.5236368 -0.75491565
-0.21598825 -3.5233519 -0.75513536
-0.23799899 -3.5278003 -0.75645339
-0.25935286 -3.522382 -0.7555747
-0.28220773 -3.5362835 -0.75908953
-0.30457178 -3.5422611 -0.76084691
-0.32648066 -3.5422685 -0.76128626
-0.3490718 -3.5489361 -0.76326334
-0.37084109 -3.5467277 -0.76326334
-0.39248869 -3.5434158 -0.7630437
-0.41308662 -3.5312514 -0.76084691
-0.43438736 -3.5257456 -0.76018786
-0.45513391 -3.5162418 -0.75865018
-0.47499132 -3.5008161 -0.75579435
-0.49673781 -3.4997675 -0.75623375
-0.51705593 -3.4889338 -0.75447631
-0.53979719 -3.4943724 -0.75645339
-0.56091774 -3.489068 -0.75601405
-0.58199358 -3.4836364 -0.7555747
-0.60552847 -3.4924951 -0.75843048
-0.62711948 -3.4896739 -0.75865018
-0.64762616 -3.4809651 -0.75755179
-0.6702652 -3.4836314 -0.75908953
-0.69029415 -3.4727557 -0.75755179
-0.71414256 -3.4808774 -0.76040757
-0.73488063 -3.473567 -0.75974852
-0.75368309 -3.4575548 -0.75711244
-0.7703914 -3.4328771 -0.75249922
-0.79451746 -3.4413922 -0.7555747
-0.8111065 -3.4174697 -0.75118119
-0.83414322 -3.4209583 -0.75315827
-0.85535532 -3.4167218 -0.75337791
-0.87338746 -3.4000714 -0.75074184
-0.89896113 -3.4125712 -0.75491565
-0.91886491 -3.403224 -0.75403696
-0.93608409 -3.3843594 -0.75096148
-0.95656633 -3.3776133 -0.75074184
-0.97700107 -3.3707435 -0.75052214
-0.99599934 -3.3590739 -0.7492041
-1.0157413 -3.3500988 -0.74854505
-1.0368562 -3.3456666 -0.7489844
-1.0579549 -3.3411016 -0.74942374
-1.0775341 -3.3317628 -0.74876475
-1.0994881 -3.3297198 -0.74986315
-1.1177151 -3.3164401 -0.74832541
-1.1415364 -3.3196666 -0.75074184
-1.1586519 -3.3033948 -0.74854505
-1.1769264 -3.2907124 -0.74722701
-1.2047884 -3.3045073 -0.75227958
-1.2277625 -3.3043675 -0.75403696
-1.2383353 -3.2712283 -0.74788606
-1.2622479 -3.2735801 -0.75030249
-1.2776713 -3.2539699 -0.74744672
-1.3095733 -3.2759588 -0.75469601
-1.3259697 -3.2588267 -0.75249922
-1.3500493 -3.2605429 -0.75491565
-1.380264 -3.276469 -0.76084691
-1.3999575 -3.2670414 -0.76062727
-1.4219276 -3.262861 -0.7617256
-1.44469 -3.2603176 -0.76326334
-1.4602569 -3.2416089 -0.76084691
-1.4817454 -3.2361352 -0.7617256
-1.5065163 -3.2375951 -0.76436174
-1.5196769 -3.2141809 -0.76084691
-1.5372567 -3.2003996 -0.75974852
-1.5590055 -3.1952903 -0.76084691
-1.5824831 -3.1935301 -0.762824
-1.6011708 -3.1820176 -0.76238465
-1.6219976 -3.1747389 -0.7630437
-1.6391996 -3.1603973 -0.76194531
-1.6585605 -3.1502798 -0.76194531
-1.6783191 -3.1409042 -0.76216495
-1.6980251 -3.1314044 -0.76238465
-1.7186188 -3.1234903 -0.7630437
-1.7382276 -3.1137381 -0.76326334
-1.7568194 -3.102165 -0.7630437
-1.7753346 -3.0904813 -0.762824
-1.7932812 -3.0778444 -0.76238465
-1.8116362 -3.0659432 -0.76216495
-1.8264008 -3.0480762 -0.76040757
-1.8496305 -3.0443144 -0.76238465
-1.8657155 -3.0287557 -0.76128626
-1.8873667 -3.0222147 -0.76260436
-1.9288471 -3.046838 -0.77227008
-1.9364359 -3.0177069 -0.76765686
-1.9660913 -3.0229387 -0.77227008
-1.9829911 -3.0083752 -0.77161103
-2.0041237 -3.0002062 -0.77270943
-2.0203063 -2.984622 -0.77183074
-2.0363734 -2.9689519 -0.77095199
-2.0512102 -2.9515955 -0.76963395
-2.0681584 -2.9373589 -0.7691946
-2.0872762 -2.9262018 -0.76963395
-2.103477 -2.9109678 -0.76897496
-2.1178398 -2.8932841 -0.76765686
-2.1390405 -2.8849356 -0.76897496
-2.1496687 -2.8623977 -0.76633883
-2.1666007 -2.8483775 -0.76611912
-2.1834416 -2.8342571 -0.76589948
-2.1977894 -2.8169615 -0.76480108
-2.2132175 -2.8011274 -0.76414204
-2.2254853 -2.7814023 -0.76238465
-2.2418952 -2.7669368 -0.76216495
-2.2588308 -2.7531288 -0.76216495
-2.2731864 -2.7362161 -0.76128626
-2.2930739 -2.7259483 -0.76238465
-2.3046944 -2.7058871 -0.76062727
-2.3206167 -2.6909564 -0.76040757
-2.3338749 -2.6729934 -0.75930917
-2.3450611 -2.652777 -0.75755179
-2.3547857 -2.6310706 -0.755355
-2.3649876 -2.6100678 -0.75337791
-2.3723817 -2.5861645 -0.75052214
-2.3862133 -2.5694153 -0.74986315
-2.3945806 -2.5469096 -0.74744672
-2.4081445 -2.5300493 -0.74678767
-2.4195602 -2.5110121 -0.74546963
-2.4342406 -2.4954205 -0.74524993
-2.4453921 -2.4762738 -0.74393189
-2.4543304 -2.4550152 -0.7419548
-2.4617119 -2.4323695 -0.73953837
-2.4661145 -2.4070013 -0.73624319
-2.470299 -2.381671 -0.73294806
-2.4777992 -2.3597431 -0.73075134
-2.4844129 -2.3371449 -0.7283349
-2.4929874 -2.3165462 -0.72657746
-2.5064356 -2.3005464 -0.72635782
-2.5197814 -2.2844689 -0.72613811
-2.5315702 -2.2670131 -0.72547907
-2.5432398 -2.2494986 -0.72482008
-2.5555248 -2.232568 -0.72438073
-2.5640035 -2.2123861 -0.72284299
-2.5767875 -2.1959796 -0.72262329
-2.5879734 -2.1782434 -0.7219643
-2.5907841 -2.1535959 -0.71888882
-2.6039495 -2.1376586 -0.71888882
-2.6056464 -2.1124291 -0.7155937
-2.6071322 -2.0872598 -0.71229851
-2.6130006 -2.0657806 -0.71032143
-2.6179349 -2.0437081 -0.7081247
-2.6265612 -2.0246296 -0.7070263
-2.6373816 -2.0072942 -0.70658696
-2.6488683 -1.9904879 -0.70636731
-2.657897 -1.9718733 -0.70548856
-2.6652226 -1.9520706 -0.70417053
-2.6724055 -1.9322523 -0.70285249
-2.6738858 -1.9084543 -0.69999671
-2.6775684 -1.8863958 -0.69779992
-2.6858881 -1.8677043 -0.69692123
-2.6932747 -1.84843 -0.69582283
-2.6964865 -1.8264016 -0.69362611
-2.7027748 -1.8065709 -0.69230801
-2.7129943 -1.7894161 -0.69208837
-2.7198336 -1.7700765 -0.69098997
-2.7281802 -1.7517742 -0.69033092
-2.7380531 -1.7344797 -0.69011128
-2.746989 -1.7166132 -0.68967193
-2.7499943 -1.6951212 -0.68769485
-2.7486708 -1.6711246 -0.68461937
-2.7563622 -1.6527234 -0.68396032
-2.7546921 -1.6288323 -0.6808849
-2.7562048 -1.6069884 -0.67868811
-2.7643213 -1.5890746 -0.67824876
-2.7731707 -1.5716025 -0.67802912
-2.7836137 -1.5550325 -0.67824876
-2.7956669 -1.5393341 -0.67890781
-2.7964833 -1.5175014 -0.67671102
-2.8048813 -1.4998541 -0.67649138
-2.8114417 -1.4812522 -0.67583233
-2.8204775 -1.4639736 -0.67583233
-2.8276696 -1.4457524 -0.67539299
-2.8364873 -1.4283749 -0.67539299
-2.8355825 -1.4061795 -0.67297655
-2.8467877 -1.3900374 -0.6736356
-2.8455896 -1.367898 -0.67121911
-2.8468735 -1.3470764 -0.66946173
-2.8497782 -1.3271139 -0.66814369
-2.8525453 -1.3071666 -0.66682559
-2.8551753 -1.2872353 -0.66550756
-2.8585598 -1.2677162 -0.66440916
-2.8618128 -1.248204 -0.66331083
-2.8622439 -1.2275473 -0.66155338
-2.8715203 -1.2107191 -0.66199273
-2.8825006 -1.1945696 -0.66287148
-2.8834505 -1.1742871 -0.66133374
-2.8933191 -1.1576587 -0.66199273
-2.8958275 -1.1381013 -0.66089439
-2.9000254 -1.1192586 -0.66023535
-0.26815593 -0.10273976 -0.024932528
-0.28249893 -0.10618837 -0.028227666
-0.27031311 -0.099775448 -0.025152205
-0.2672458 -0.096801035 -0.0242735
-0.2669141 -0.094836585 -0.024053825
-0.26656842 -0.092879869 -0.023834148
-0.2652843 -0.090619452 -0.023394797
-0.26954091 -0.090213344 -0.0242735
-0.27565891 -0.09035866 -0.025591556
-0.27899837 -0.089548886 -0.026250584
-0.27861071 -0.087546565 -0.026030907
-0.27727541 -0.085269369 -0.025591556
-0.27498737 -0.082734607 -0.024932528
-0.27267876 -0.08023116 -0.0242735
-0.27034992 -0.077759191 -0.023614472
-0.26894137 -0.075578868 -0.02317512
-0.27034193 -0.07418149 -0.023394797
-0.2717354 -0.072769761 -0.023614472
-0.27123189 -0.070858389 -0.023394797
-0.26598325 -0.067771658 -0.022076741
-0.26449847 -0.065676242 -0.021637389
-0.26584569 -0.064277299 -0.021857064
-0.26528448 -0.062425494 -0.021637389
-0.26566252 -0.060796563 -0.021637389
-0 -0 -0
-0.26257077 -0.056724437 -0.020758685
-0 -0 -0
-0 -0 -0
-0.25303224 -0.049854875 -0.018342249
-0 -0 -0
-0 -0 -0
-0 -0 -0
-0 -0 -0
-0 -0 -0
-0 -0 -0
-0 -0 -0
-0 -0 -0
-0 -0 -0
-0 -0 -0
-0 -0 -0
-0 -0 -0
-0 -0 -0
-0.27966359 -0.03039486 -0.023614472
-0.28178662 -0.028869169 -0.024053825
-0.2858443 -0.027497508 -0.024932528
-0 -0 -0
-0.2861602 -0.023987688 -0.024932528
-0.28532904 -0.022159815 -0.024712851
-0.28643301 -0.020474257 -0.024932528
-0 -0 -0
-0.28958499 -0.017118709 -0.025591556
-0.28578696 -0.015150815 -0.024712851
-0 -0 -0
-0 -0 -0
-0 -0 -0
-0 -0 -0
-0.29001886 -0.0064482889 -0.025591556
-0 -0 -0
-0.29007614 -0.002888826 -0.025591556
-0.28521055 -0.0011098556 -0.024493176
-0.28130978 0.00061547407 -0.023614472
-0.28130069 0.0023415468 -0.023614472
-0.27835482 0.0040130857 -0.022955444
-0 0 -0
-0 0 -0
-0.28798285 0.0094970036 -0.025152205
-0.29474181 0.01155842 -0.026689935
-0 0 -0
-0.28775924 0.014796217 -0.025152205
-0.28571561 0.016441569 -0.024712851
-0.28074265 0.017864438 -0.023614472
-0 -0 -0
-0 -0 -0
-0 -0 -0
-0 -0 -0
-0 -0 -0
-0 0 -0
-0 0 -0
-0 0 -0
-0 0 -0
-0 0 -0
-0 0 -0
-0 0 -0
-0 0 -0
-0 0 -0
-0 0 -0
-0 0 -0
-0 0 -0
-0 0 -0
-0 0 -0
-0 0 -0
-0 0 -0
-0 0 -0
-0 0 -0
-0 0 -0
-0 0 -0
-0 0 -0
-0 0 -0
-0 0 -0
-0 0 -0
-0 0 -0
-0 0 -0
-0 0 -0
-0 0 -0
-0 0 -0
-0 0 -0
-0 0 -0
-0 0 -0
-0 0 -0
-0 0 -0
-0 0 -0
-0 0 -0
-0 0 -0
-0 0 -0
-0 0 -0
-0 0 -0
-0 0 -0
-0 0 -0
-0 0 -0
-0 0 -0
-0 0 -0
-0 0 -0
-0 0 -0
-0 0 -0
-0 0 -0
-0 0 -0
-0 0 -0
-0 0 -0
-0 0 -0
-0 0 -0
-0 0 -0
-0 0 -0
-0 0 -0
-0 0 -0
-0 0 -0
-0 0 -0
-0 0 -0
-0 0 -0
-0 0 -0
-0 0 -0
-0 0 -0
-0 0 -0
-0 0 -0
-0 0 -0
-0 0 -0
-0 0 -0
-0 0 -0
-0 0 -0
-0 0 -0
-0 0 -0
-0 0 -0
-0 0 -0
-0 0 -0
-0 0 -0
-0 0 -0
-0 0 -0
-0 0 -0
-0 0 -0
-0 0 -0
-0 0 -0
-0 0 -0
-0 0 -0
-0 0 -0
-0 0 -0
-0 0 -0
-0 0 -0
-0 0 -0
-0 0 -0
-0 0 -0
-0 0 -0
-0 0 -0
-0 0 -0
-0.27088976 0.18379508 -0.037698071
-0.26734951 0.18380295 -0.037005883
-0.26621667 0.18543991 -0.037005883
-0.26746079 0.18875015 -0.037698071
-0.26312879 0.18812789 -0.036775153
-0.23436408 0.16979578 -0.028699635
-0.28278637 0.2074324 -0.043235566
-0.28307161 0.21032251 -0.043697026
-0.23898004 0.17992313 -0.031006927
-0.28124383 0.21436939 -0.043927755
-0.28069407 0.21668476 -0.044158485
-0.25557545 0.19985113 -0.037005883
-0.23831019 0.18874952 -0.032160573
-0.29185441 0.23397106 -0.048773065
-0.25941429 0.21064626 -0.039313175
-0.28896123 0.23753494 -0.048773065
-0.26354629 0.21940911 -0.041389734
-0.2666631 0.22477975 -0.042774111
-0.2875033 0.24533689 -0.049695984
-0.26683235 0.23057668 -0.043697026
-0.26761159 0.23412924 -0.044389214
-0.27200258 0.2409218 -0.046235047
-0.24949099 0.2237702 -0.039543901
-0.24883437 0.22595011 -0.03977463
-0.27110738 0.24917606 -0.047388691
-0.27171248 0.25282106 -0.04808088
-0.25101393 0.23648991 -0.041851193
-0.2840966 0.27089319 -0.05315692
-0.28242907 0.27263129 -0.05315692
-0.26751587 0.26145115 -0.048773065
-0.24513459 0.24257888 -0.041851193
-0.26428732 0.2647143 -0.048773065
-0.27907312 0.28294069 -0.054310564
-0.27325356 0.28047019 -0.05292619
-0.24923879 0.25902793 -0.045312129
-0.25502688 0.26830232 -0.047850151
-0.27004504 0.28757831 -0.053618375
-0.25370243 0.27354988 -0.048542336
-0 0 -0
-0 0 -0
-0 0 -0
-0 0 -0
-0 0 -0
-0 0 -0
-0 0 -0
-0 0 -0
-0 0 -0
-2.1542709 2.6243198 -0.76518691
-0 0 -0
-0 0 -0
-2.1019797 2.6589487 -0.76380253
-0 0 -0
-0 0 -0
-2.0697725 2.7196412 -0.77049363
-2.0594766 2.7408459 -0.77303165
-2.053057 2.7674963 -0.77718478
-2.0406375 2.7863209 -0.77903062
-0 0 -0
-2.0102487 2.8166964 -0.78064573
-1.9957302 2.8329551 -0.78179938
-0 0 -0
-1.9602646 2.8564303 -0.78156865
-1.9443381 2.8708212 -0.78226084
-1.9256049 2.8810794 -0.78179938
-1.9041401 2.8871551 -0.78018427
-1.8874506 2.9004154 -0.78064573
-1.8690927 2.9111233 -0.780415
-1.8517159 2.9233589 -0.78064573
-1.8347751 2.936316 -0.78110719
-1.8151917 2.9450338 -0.780415
-1.7925373 2.9486339 -0.77833843
-1.7769132 2.9637494 -0.77949208
-1.7547321 2.9678965 -0.77764624
-1.7359983 2.9777668 -0.77741551
-1.7206043 2.9934239 -0.77879989
-1.7041239 3.0073109 -0.77972281
-1.6856393 3.0177107 -0.77972281
-1.6647443 3.023735 -0.77856916
-1.6508011 3.0424447 -0.78087646
-1.6311841 3.0508006 -0.780415
-1.6128876 3.0616126 -0.78064573
-1.5990031 3.080951 -0.78318375
-1.5844988 3.0993674 -0.78549105
-1.568953 3.1159835 -0.78733689
-1.5502366 3.1264234 -0.78756762
-1.528035 3.1297565 -0.78595251
-1.5079592 3.1373196 -0.78549105
-1.487432 3.1438746 -0.78479886
-1.4664702 3.1494141 -0.78387594
-1.4479289 3.1601219 -0.7843374
-1.4265116 3.1645117 -0.78318375
-1.4070678 3.1732049 -0.78318375
-1.388738 3.1844544 -0.78387594
-1.366871 3.1875503 -0.78249156
-1.343128 3.1860151 -0.77995354
-1.3224359 3.1914997 -0.77926135
-1.2998919 3.1923449 -0.77741551
-1.2781105 3.1948407 -0.77603114
-1.2570593 3.1990006 -0.77510822
-1.239159 3.2111921 -0.77626187
-1.2211564 3.2232845 -0.77741551
-1.1979632 3.221597 -0.77510822
-1.179508 3.232543 -0.77603114
-1.1619474 3.2461319 -0.77764624
-1.1371717 3.2394295 -0.7741853
-1.1213913 3.2583063 -0.77718478
-1.0991999 3.258672 -0.77556968
-1.0776572 3.2607362 -0.77441603
-1.0597278 3.273767 -0.77603114
-1.0366795 3.2709327 -0.77372384
-1.0168784 3.2781613 -0.77395457
-0.99815816 3.2889943 -0.77510822
-0.9760198 3.2885275 -0.77349311
-0.95745075 3.300061 -0.77487749
-0.93479455 3.2974489 -0.77280092
-0.91194671 3.2937455 -0.77049363
-0 0 -0
-0.86996949 3.2990437 -0.76910925
-0.84849834 3.2996078 -0.76795566
-0.82965624 3.3104148 -0.76933998
-0.80794317 3.3097718 -0.76795566
-0.78649437 3.3099337 -0.76680201
-0.76748562 3.3203852 -0.76818639
-0.74176222 3.3012989 -0.76241815
-0.72336018 3.3143437 -0.76449472
-0.70381713 3.3225272 -0.76541764
-0.68263358 3.3229709 -0.76449472
-0.66280156 3.3299596 -0.76518691
-0.64419878 3.343518 -0.7674942
-0.62402791 3.3493209 -0.76795566
-0.60346508 3.3530867 -0.76795566
-0.58138037 3.3480985 -0.76587909
-0.55857617 3.3381677 -0.76264888
-0.54009545 3.3540204 -0.76564837
-0.51950544 3.3572712 -0.76564837
-0.49660778 3.3449962 -0.76195669
-0.47566262 3.3450906 -0.7612645
-0.45565331 3.3518028 -0.76218742
-0.43482792 3.3526056 -0.76172596
-0.4135325 3.3494165 -0.76034158
-0.39206579 3.3441598 -0.75849575
-0.37132406 3.3445683 -0.75803429
-0.35181063 3.3564608 -0.76034158
-0.33130476 3.3595247 -0.76057231
-0.31068489 3.3614943 -0.76057231
-0.28971842 3.3594596 -0.7596494
-0.26839983 3.3524449 -0.75757283
-0.24725007 3.3462658 -0.75572699
-0.22638382 3.3428659 -0.75457335
-0.20520923 3.3335092 -0.75203532
-0.18410407 3.3230474 -0.74926656
-0.16399863 3.3299453 -0.75065094
-0.14339533 3.3270006 -0.74972802
-0.12315878 3.3326795 -0.75088167
-0.10267743 3.3323998 -0.75065094
-0.082083605 3.327131 -0.74926656
-0.061939325 3.3421648 -0.75272751
-0.041284934 3.3308065 -0.74995875
-0.020772267 3.3193212 -0.74719
-0.00040560533 3.3223052 -0.74788219
0.019945262 3.3164072 -0.74649781
0.040364221 3.3220601 -0.74788219
0.060817946 3.3256412 -0.74880511
0.081269838 3.3271508 -0.74926656
0.10156487 3.3226993 -0.74834365
0.12202182 3.3239584 -0.74880511
0.14233185 3.3212028 -0.74834365
0.16280271 3.3222106 -0.74880511
0.18275657 3.3133769 -0.74695927
