# .PCD v0.7 - Point Cloud Data file format
VERSION 0.7
FIELDS x y z
SIZE 4 4 4
TYPE F F F
COUNT 1 1 1
WIDTH 1529
HEIGHT 1
VIEWPOINT 0 0 0 1 0 0 0
POINTS 1529
DATA ascii
1.872347 4.3718572 -0.61903697
1.8880634 4.3348565 -0.61520308
1.914225 4.3222842 -0.61506611
1.9472156 4.3249102 -0.61725694
1.9695947 4.3038731 -0.6158877
1.9834361 4.26476 -0.61177993
2.0222616 4.2793789 -0.6158877
2.0561969 4.2829647 -0.61835235
2.0928566 4.2916369 -0.6216386
2.1222274 4.2849288 -0.62259704
2.1404691 4.2558961 -0.62013239
2.1602364 4.2303309 -0.61821544
2.1861525 4.2169967 -0.61821544
2.2115252 4.2026262 -0.61807853
2.2531345 4.2186871 -0.62273401
2.2870007 4.2195888 -0.62506175
2.307121 4.1950603 -0.62341863
2.3294399 4.1747694 -0.62246013
2.3525724 4.1560874 -0.62177551
2.3864136 4.1561785 -0.62410325
2.4108734 4.1397452 -0.62382936
2.4604061 4.1658168 -0.63040185
2.4813404 4.142993 -0.62916952
2.5103135 4.1336169 -0.63012797
2.5382261 4.1223536 -0.63081259
2.5723884 4.1209879 -0.63314033
2.5981555 4.1059637 -0.6332773
2.6339951 4.1066213 -0.63601577
2.6774981 4.1186209 -0.64067125
2.6978147 4.0946693 -0.63943893
2.7377381 4.1002831 -0.64313596
2.7622905 4.0825872 -0.64299899
2.7794478 4.0541224 -0.64108205
2.7986205 4.0288558 -0.63971281
2.8272789 4.0172787 -0.64067125
2.8777504 4.0361524 -0.64683294
2.9239197 4.0481324 -0.65189922
2.9568918 4.0413084 -0.65381616
2.9857614 4.0286603 -0.65477467
3.0359936 4.0443311 -0.66066247
3.0559561 4.0193176 -0.65956706
3.0642445 3.9792988 -0.65587008
3.114186 3.9932313 -0.66162091
3.1595018 4.0004802 -0.6662764
3.1827514 3.9794712 -0.66600257
3.2096028 3.9629467 -0.66655028
3.2495611 3.9623282 -0.66997343
3.2681172 3.9354556 -0.66874111
3.3164263 3.9441411 -0.67394429
3.3611116 3.9478552 -0.67832589
3.4066133 3.9519188 -0.68284446
3.4392648 3.9406447 -0.68462449
3.4509177 3.9053628 -0.68202287
3.488024 3.8988812 -0.6847614
3.4992478 3.8634551 -0.68215984
3.5369453 3.8572445 -0.68503529
3.5625682 3.8376477 -0.68544602
3.5941885 3.8243785 -0.68708915
3.6250968 3.8101478 -0.68859535
3.67658 3.8170867 -0.69420928
3.7213686 3.8164432 -0.69845402
3.7683744 3.8175082 -0.7031095
3.8148324 3.8174384 -0.70762801
3.858613 3.8141556 -0.71159887
3.9166698 3.8243203 -0.71830827
3.959311 3.8187847 -0.72200525
4.0063338 3.8169694 -0.72652382
4.0628595 3.8235459 -0.73282242
4.112361 3.8228264 -0.73775172
4.1598167 3.8196323 -0.74227029
4.2110558 3.8193266 -0.74747348
4.2668734 3.8225012 -0.7534982
4.3214035 3.8238206 -0.75924909
4.3693967 3.8187463 -0.76376766
4.4092417 3.8061056 -0.76678002
4.4370351 3.7828357 -0.76760161
4.4594049 3.7549014 -0.76746464
4.4876919 3.7319021 -0.76842314
4.5288773 3.7193856 -0.77170938
4.5562296 3.695271 -0.77253091
4.5741787 3.6635292 -0.77170938
4.5864716 3.6274047 -0.76992935
4.5953712 3.5888283 -0.76760161
4.6102457 3.5551195 -0.76636922
4.6272445 3.5231638 -0.76554769
4.6471915 3.4935148 -0.76527387
4.6486549 3.4501739 -0.76185071
4.6409731 3.4005063 -0.75692135
4.6593428 3.370224 -0.75651056
4.6920266 3.3502066 -0.75856447
4.7181621 3.3253489 -0.75952297
4.7685633 3.3172686 -0.76458919
4.7504482 3.2615919 -0.75815368
4.7629914 3.2273808 -0.75692135
4.7999959 3.2096591 -0.7597968
4.8220801 3.1817834 -0.76020759
4.8166094 3.1359198 -0.75609982
4.8724303 3.1298654 -0.76212454
4.8664427 3.0840006 -0.75801677
4.8735151 3.0467305 -0.75609982
4.8980198 3.0204098 -0.75705826
4.9198456 2.9923584 -0.75760597
4.9355655 2.9605856 -0.75719523
4.9399977 2.9221756 -0.75500441
4.9655352 2.8963017 -0.75623673
4.9540181 2.8489869 -0.75158125
5.0222459 2.8473642 -0.75965989
5.0517278 2.823261 -0.76157683
5.0811024 2.7989032 -0.76349378
5.08077 2.75822 -0.7607553
5.072269 2.7134409 -0.75678444
5.1107297 2.6938157 -0.76020759
5.1350746 2.6665151 -0.76143992
5.1204734 2.6191661 -0.75664753
5.1417556 2.5903726 -0.75746906
5.2143435 2.5869544 -0.76623231
5.2123179 2.5462139 -0.76349378
5.2340918 2.5171895 -0.76445228
5.2494383 2.4850264 -0.76445228
5.2762599 2.4582088 -0.76623231
5.3029494 2.4311554 -0.76801234
5.2924843 2.3871655 -0.76417845
5.3052211 2.353843 -0.76390457
5.3150249 2.3192651 -0.76321995
5.3227835 2.2838745 -0.76226145
5.3312206 2.2488613 -0.76143992
5.3101482 2.2016878 -0.75623673
5.3308964 2.1720545 -0.75733215
5.3422842 2.1385674 -0.75705826
5.3682117 2.1108232 -0.75897527
5.3782902 2.0767741 -0.75856447
5.3909316 2.0437346 -0.75856447
5.4265795 2.0192559 -0.76198763
5.4546852 1.9916979 -0.76431537
5.4444227 1.9501727 -0.76102912
5.4731083 1.9226403 -0.76349378
5.4641981 1.8819238 -0.76048142
5.4831505 1.8508958 -0.76157683
5.4633694 1.8069501 -0.75705826
5.521471 1.7886605 -0.76390457
5.5436726 1.7583424 -0.76554769
5.552465 1.7237065 -0.76527387
5.6217012 1.7074572 -0.77376324
5.5504103 1.6486684 -0.76198763
5.5594707 1.6143044 -0.76185071
5.5778475 1.5825958 -0.76308304
5.5263596 1.5314068 -0.75431979
5.5117469 1.4910005 -0.75089663
5.5638914 1.4685318 -0.75705826
5.5814309 1.4365876 -0.75829065
5.5728464 1.3979739 -0.75582594
5.606338 1.3698682 -0.759386
5.6271658 1.3384233 -0.76116604
5.5406952 1.2819808 -0.7477473
5.6383343 1.2681812 -0.76048142
5.5637517 1.2155833 -0.74884272
5.6079283 1.1892333 -0.7540459
5.6063876 1.1530048 -0.75281358
5.5686693 1.1096748 -0.74651498
5.6483212 1.0895621 -0.75678444
5.5672607 1.0385293 -0.74446112
5.5745029 1.0045254 -0.74459803
5.5688505 0.96826494 -0.74295491
5.6245117 0.94242889 -0.74993813
5.6086736 0.9044289 -0.74692577
5.5759411 0.86407894 -0.74158567
5.6007338 0.83276445 -0.74432421
5.6282935 0.8015973 -0.74747348
5.6654963 0.77146041 -0.75199205
5.6701231 0.73668307 -0.75199205
5.6588073 0.69993132 -0.74980122
5.6413517 0.66265249 -0.74678886
5.5921483 0.62210733 -0.73939484
5.6805835 0.59668809 -0.75117046
5.6821666 0.56162643 -0.75089663
5.6450653 0.52300125 -0.74528265
5.6906042 0.49202603 -0.75117046
5.7112894 0.45852804 -0.75363517
5.6902866 0.42171684 -0.75034893
5.6858487 0.38632342 -0.74939042
5.6831689 0.35112268 -0.7487058
5.7326908 0.3188889 -0.75527823
5.6781454 0.28091389 -0.74747348
5.7084622 0.24731351 -0.75144434
5.7633266 0.21427342 -0.7588383
5.7477012 0.17838275 -0.75651056
5.7269011 0.14256831 -0.7534982
5.7781792 0.10837686 -0.76048142
5.7529821 0.072593853 -0.75692135
5.7543097 0.037299335 -0.75705826
5.7385812 0.0019842836 -0.75486749
5.7592869 -0.033346042 -0.75774294
5.7332206 -0.068378359 -0.75418282
5.7802334 -0.10441095 -0.7607553
5.7378917 -0.13887204 -0.75500441
5.7636652 -0.17488581 -0.75870138
5.6961584 -0.20783234 -0.74952734
5.748219 -0.24505407 -0.75692135
5.743639 -0.28017527 -0.75651056
5.7487354 -0.31579217 -0.75746906
5.7348247 -0.35033581 -0.75582594
5.7137885 -0.38425586 -0.75322437
5.6362405 -0.41380063 -0.742818
5.7372789 -0.45662105 -0.75719523
5.7235126 -0.49088535 -0.75568902
5.6404924 -0.51865351 -0.74459803
5.7111425 -0.56050456 -0.75486749
5.6809945 -0.59276319 -0.75117046
5.7274647 -0.63315749 -0.75815368
5.7028098 -0.66587752 -0.75527823
5.6868186 -0.69940656 -0.75363517
5.7148399 -0.73847413 -0.75815368
5.7219806 -0.77512068 -0.7597968
5.7073088 -0.80882627 -0.75842756
5.7443752 -0.85006291 -0.76431537
5.6832476 -0.87668949 -0.75651056
5.7168841 -0.91782296 -0.76198763
5.6691298 -0.94587678 -0.75609982
5.6163683 -0.97253466 -0.74952734
5.6063952 -1.006278 -0.74897969
5.6156979 -1.0435538 -0.75117046
5.6675568 -1.0892045 -0.759386
5.6044121 -1.1127743 -0.75144434
5.6741424 -1.1628472 -0.76226145
5.565136 -1.1761415 -0.74788427
5.6594453 -1.23239 -0.76226145
5.6459775 -1.2657927 -0.76143992
5.6689925 -1.307534 -0.76582158
5.6406217 -1.3374956 -0.76294613
5.6130595 -1.3673928 -0.76020759
5.5968761 -1.3998858 -0.75911218
5.5757074 -1.4310007 -0.75733215
5.5735278 -1.4669502 -0.75829065
5.5806808 -1.5055062 -0.76061839
5.5656095 -1.5381373 -0.7597968
5.5446286 -1.5690224 -0.75815368
5.5891323 -1.6187177 -0.76595849
5.5724463 -1.6510122 -0.76499999
5.5451465 -1.6800041 -0.76253533
5.5139155 -1.7075516 -0.75952297
5.5052233 -1.7419497 -0.7597968
5.4887757 -1.7738689 -0.75897527
5.5172982 -1.8205483 -0.76472616
5.5510855 -1.8695405 -0.77129859
5.4973526 -1.8890824 -0.7651369
5.4772439 -1.9198296 -0.76390457
5.4103251 -1.9337348 -0.75582594
5.3834662 -1.9614707 -0.75363517
5.4530511 -2.0248044 -0.7656846
5.4451571 -2.0599778 -0.76636922
5.3677096 -2.0684211 -0.75678444
5.397336 -2.1179602 -0.76308304
5.4109163 -2.1616933 -0.7670539
5.3892918 -2.1914959 -0.76582158
5.3565216 -2.2165699 -0.76294613
5.3912091 -2.2697635 -0.77020317
5.3653421 -2.2977319 -0.76842314
5.3511429 -2.3306098 -0.76842314
5.3258724 -2.3585873 -0.76678002
5.3058805 -2.3887823 -0.76595849
5.348773 -2.4476702 -0.77472174
5.3426361 -2.4846201 -0.77609098
5.2744465 -2.492389 -0.76801234
5.2938828 -2.5414224 -0.77335244
5.243464 -2.5569267 -0.76801234
5.2312274 -2.5908103 -0.76856005
5.2196569 -2.6250846 -0.76924467
5.2166848 -2.6638188 -0.77129859
5.1659427 -2.6780002 -0.76595849
5.1397705 -2.7045739 -0.76445228
5.1134667 -2.7309275 -0.76294613
5.1540952 -2.7934003 -0.77198321
5.1212339 -2.8163815 -0.76951855
5.0554123 -2.8207262 -0.76185071
5.0543895 -2.8609626 -0.76445228
5.0925803 -2.9239786 -0.77335244
5.0308847 -2.9297504 -0.76636922
5.0332847 -2.9726527 -0.76965547
4.9673581 -2.9749815 -0.76198763
4.9718719 -3.0192857 -0.7656846
4.976872 -3.064276 -0.76951855
4.9646988 -3.0989516 -0.77061397
4.9397306 -3.1256487 -0.76965547
4.9396377 -3.1681986 -0.7728048
4.8752551 -3.1692965 -0.76541078
4.9161043 -3.2389307 -0.77540636
4.8738937 -3.2541845 -0.77170938
4.8546553 -3.2845838 -0.77184629
4.8148007 -3.300868 -0.76856005
4.7887611 -3.3263936 -0.76760161
4.7650199 -3.3534341 -0.7670539
4.7379012 -3.3780084 -0.76595849
4.7275248 -3.4145553 -0.76773852
4.6777029 -3.4224436 -0.76280916
4.66537 -3.4575684 -0.76431537
4.6369362 -3.4807777 -0.76308304
4.5871024 -3.4875827 -0.75815368
4.6134953 -3.5525258 -0.7665062
4.6587915 -3.6331503 -0.77828181
4.6263046 -3.6536872 -0.77650177
4.6007042 -3.6795301 -0.77595407
4.5795803 -3.7089372 -0.77622789
4.5544386 -3.7350829 -0.77581716
4.5123816 -3.7471383 -0.772394
4.5014362 -3.7849545 -0.77458483
4.5294199 -3.8561659 -0.78389579
4.5206804 -3.8968194 -0.78663427
4.4690695 -3.9003863 -0.78156805
4.4665813 -3.9467547 -0.78553885
4.4400654 -3.9721057 -0.78512812
4.3759599 -3.9633684 -0.7777341
4.3603206 -3.9981773 -0.77937722
4.3342543 -4.0235085 -0.77910334
4.3152599 -4.0554543 -0.78019875
4.3261805 -4.115993 -0.78704506
4.3086925 -4.1500192 -0.78855127
4.2810192 -4.174304 -0.78814048
4.23629 -4.1817055 -0.7844435
4.2357783 -4.2328258 -0.7893728
4.1985836 -4.2474651 -0.78718197
4.1212277 -4.2207036 -0.77704948
4.1186352 -4.2701511 -0.78170496
4.1032901 -4.3068166 -0.78389579
4.0795026 -4.3347979 -0.7844435
4.0528278 -4.3597479 -0.7844435
4.0340409 -4.3932886 -0.78608656
4.0090051 -4.4201593 -0.78649735
3.9877572 -4.4513149 -0.78772968
3.932797 -4.4445434 -0.78197879
3.8930652 -4.4544206 -0.77937722
3.8721335 -4.4857221 -0.78074646
3.8426087 -4.5071354 -0.78033566
3.7963767 -4.5086551 -0.77636486
3.7705407 -4.5341492 -0.7767756
3.7439063 -4.5587301 -0.77704948
3.7171121 -4.5831552 -0.77732331
3.2294037 -4.0322165 -0.67572433
3.2070599 -4.0550637 -0.67627203
3.1857767 -4.0793495 -0.67709357
3.1594763 -4.0972514 -0.67681974
2.6667717 -3.5026364 -0.57015443
2.6017737 -3.4611349 -0.56015885
2.573993 -3.4682846 -0.55865264
2.5456374 -3.4744251 -0.55700958
2.5109165 -3.4715199 -0.55386025
2.4797819 -3.4731569 -0.55153251
2.4504342 -3.4769721 -0.54961556
2.3504157 -3.3789167 -0.53058285
2.3262744 -3.3883755 -0.52976131
2.3071072 -3.4050455 -0.53017205
2.283968 -3.4158437 -0.5296244
2.2602377 -3.4256599 -0.52893972
2.2364731 -3.4353135 -0.52825511
2.2057145 -3.4339702 -0.52579045
2.1824813 -3.4440928 -0.52524275
2.1571064 -3.4507 -0.52414733
2.1301727 -3.4545965 -0.52264112
2.1001837 -3.4532149 -0.52031338
2.0697827 -3.4507465 -0.51784873
2.0430219 -3.4540036 -0.51634258
2.0158005 -3.4562068 -0.51469946
1.9906044 -3.4616408 -0.51360404
1.9629748 -3.4625878 -0.51182401
1.9349253 -3.4624619 -0.50990707
1.9040836 -3.4569168 -0.50716853
1.8719651 -3.4485126 -0.5040192
1.8474989 -3.45382 -0.50306076
0 -0 -0
0 -0 -0
1.7723334 -3.4651942 -0.4996376
1.7447976 -3.4636192 -0.49772063
1.7182287 -3.4636116 -0.49607754
1.6978137 -3.4758694 -0.49635139
0 -0 -0
1.6440102 -3.4731648 -0.4927913
0 -0 -0
0 -0 -0
1.5838755 -3.5118666 -0.49416056
1.5687262 -3.536006 -0.49635139
1.5497737 -3.5519199 -0.49730986
1.5306849 -3.5677345 -0.49826834
1.5106903 -3.5816228 -0.49895298
1.4962746 -3.6091251 -0.50169146
0 -0 -0
0 -0 -0
1.4459038 -3.6775386 -0.50785315
1.4379439 -3.7242274 -0.51346713
1.4199824 -3.7459476 -0.51538408
1.4038814 -3.7731574 -0.51812261
1.3878396 -3.8012402 -0.52099806
1.3721739 -3.8311327 -0.52414733
0 -0 -0
1.3444147 -3.903877 -0.53236288
1.3245552 -3.9242535 -0.53414291
1.3188074 -3.9877939 -0.54222155
0 -0 -0
1.286247 -4.0556087 -0.54975247
1.3109825 -4.2233024 -0.57289296
1.2971377 -4.2710748 -0.57864386
1.2917836 -4.3492208 -0.58877635
1.2813741 -4.4131899 -0.59685498
1.2550825 -4.4238281 -0.59726578
1.224475 -4.4190364 -0.59548575
1.5520618 -5.7374091 -0.78321111
1.4998868 -5.6826539 -0.77403712
1.468448 -5.7051806 -0.77595407
1.441129 -5.7448287 -0.78033566
1.4164358 -5.7968645 -0.78649735
1.3851966 -5.8237567 -0.78909898
1.342289 -5.8012643 -0.78471732
1.3064504 -5.8084245 -0.78458041
1.2652868 -5.7911701 -0.78102034
1.2379516 -5.8375854 -0.78649735
1.1935261 -5.8033504 -0.78060955
1.1590569 -5.8163934 -0.78143108
1.1165895 -5.7883806 -0.77650177
1.0935904 -5.8623133 -0.78594965
1.0470548 -5.810421 -0.7777341
1.0100249 -5.808929 -0.77663869
0.96977764 -5.787662 -0.7728048
0.94071537 -5.8335991 -0.77841872
0.90960807 -5.869607 -0.7826634
0.8706606 -5.8554816 -0.77992493
0.8397463 -5.896018 -0.78485423
0.79619861 -5.8470764 -0.77732331
0.76273286 -5.8705158 -0.77992493
0.72535938 -5.8642712 -0.77841872
0.69976997 -5.9571543 -0.79074204
0.65125889 -5.8540254 -0.77581716
0.61812282 -5.8845105 -0.77951413
0.57820189 -5.8497477 -0.77417403
0.54723603 -5.9064479 -0.78156805
0.50791013 -5.8741665 -0.77663869
0.47161934 -5.8742104 -0.77622789
0.44011042 -5.938241 -0.78471732
0.4033969 -5.9368768 -0.78416961
0.36714476 -5.9422064 -0.78458041
0.32880425 -5.9107194 -0.77992493
0.2916483 -5.8948169 -0.77746028
0.25680417 -5.9271746 -0.78170496
0.2193616 -5.8999319 -0.7777341
0.15285261 -4.9269061 -0.64299899
0.12264353 -4.9287415 -0.64313596
0.092715979 -4.946238 -0.64546371
0.062377255 -4.9477043 -0.64560062
0.032134335 -4.9658241 -0.64806527
0.0019690909 -5.7019296 -0.74980122
-0.033714429 -5.8236737 -0.76664311
-0.068965621 -5.7827463 -0.76102912
-0.10585459 -5.8604574 -0.77184629
-0.14221798 -5.8765326 -0.77417403
-0.17776345 -5.8587174 -0.77184629
-0.21298751 -5.8377175 -0.76910776
-0.25053012 -5.8768783 -0.77472174
-0.28648886 -5.8732514 -0.77444786
-0.32252106 -5.8713832 -0.77444786
-0.35443845 -5.8020592 -0.7651369
-0.38989976 -5.7977982 -0.76486307
-0.42597428 -5.8022122 -0.76582158
-0.46196058 -5.8044267 -0.7665062
-0.50281113 -5.8626747 -0.77499557
-0.53714293 -5.8417234 -0.77253091
-0.56456536 -5.7525487 -0.76061839
-0.59954351 -5.7460203 -0.76020759
-0.63206977 -5.7176185 -0.75678444
-0.66966641 -5.7352786 -0.7597968
-0.70822865 -5.7585907 -0.76363075
-0.7394892 -5.7226992 -0.75924909
-0.78309506 -5.7808781 -0.76801234
-0.81285512 -5.7357521 -0.76239842
-0.84745395 -5.7267365 -0.76185071
-0.88363326 -5.728282 -0.76280916
-0.91060299 -5.6718926 -0.75568902
-0.85201478 -5.1063285 -0.67723048
-0.85815746 -4.9555702 -0.65682852
-0.89502066 -4.9862871 -0.6618948
-0.92650366 -4.9855709 -0.66257942
-0.95165741 -4.951581 -0.65860856
-0.98337179 -4.9524503 -0.65956706
-1.1210974 -5.4703531 -0.73350704
-1.1802366 -5.5845199 -0.75062275
-1.2144804 -5.5771728 -0.75062275
-1.2371967 -5.5183859 -0.74336571
-1.2723689 -5.5164824 -0.74418724
-1.3082498 -5.5172462 -0.74541956
-1.3451254 -5.5216269 -0.74719959
-1.3849876 -5.5372944 -0.75062275
-1.4250923 -5.5526795 -0.7540459
-1.4545989 -5.526587 -0.75158125
-1.5078275 -5.5892887 -0.76185071
-1.531806 -5.5426941 -0.75651056
-1.5757639 -5.5684581 -0.76157683
-1.6137587 -5.5720053 -0.76349378
-1.5877118 -5.3587437 -0.73419166
-1.6693794 -5.5100684 -0.75746906
-1.7016922 -5.4949903 -0.75678444
-1.7458338 -5.5175014 -0.76157683
-1.7784374 -5.5029149 -0.76102912
-1.8149621 -5.5003653 -0.76226145
-1.8540514 -5.505085 -0.76458919
-1.8961633 -5.5179629 -0.76814932
-1.9391581 -5.5323997 -0.77198321
-1.976401 -5.5297256 -0.77335244
-1.9953755 -5.476541 -0.76732773
-2.0172198 -5.4326205 -0.76267225
-2.052268 -5.4247732 -0.76335686
-2.0951304 -5.4370365 -0.7670539
-2.116513 -5.3936477 -0.76253533
-2.1565492 -5.3980379 -0.7651369
-2.1900034 -5.3856215 -0.76527387
-2.202558 -5.3226542 -0.75787985
-2.2490108 -5.341907 -0.76280916
-2.2790165 -5.3216329 -0.76185071
-2.2973893 -5.2748532 -0.75692135
-2.330915 -5.2633748 -0.75733215
-2.3607268 -5.2435536 -0.75651056
-2.3755467 -5.1911373 -0.75075972
-2.3931539 -5.1459236 -0.74610424
-2.4238374 -5.1293511 -0.74583036
-2.4556935 -5.1152754 -0.74596727
-2.4644601 -5.0538111 -0.73884714
-2.5006981 -5.0492468 -0.74049026
-2.5227325 -5.0161076 -0.73775172
-2.5422025 -4.978478 -0.73432857
-2.5699668 -4.9575086 -0.73350704
-2.5948026 -4.9311266 -0.73186392
-2.6091464 -4.8854027 -0.72720844
-2.643321 -4.8771396 -0.72844076
-2.6426506 -4.8052759 -0.71967751
-2.6687074 -4.7829146 -0.71871907
-2.6828797 -4.7397251 -0.71447432
-2.6828141 -4.6724877 -0.70639569
-2.7054522 -4.6456661 -0.70475262
-2.7510316 -4.657979 -0.7094081
-2.7520797 -4.595119 -0.70201409
-2.7941041 -4.6010075 -0.70571107
-2.8061845 -4.5576267 -0.70146638
-2.8167894 -4.5125909 -0.69694781
-2.8433659 -4.4935479 -0.69667399
-2.8703494 -4.475183 -0.69653702
-2.8842585 -4.4367228 -0.69311392
-2.9097927 -4.41646 -0.69270313
-2.9175868 -4.3696876 -0.68791074
-2.9171469 -4.3115001 -0.68120134
-2.9317853 -4.2763615 -0.67832589
-2.9393222 -4.2314429 -0.67380732
-2.9834721 -4.2392516 -0.67818898
-2.9939024 -4.1990871 -0.674492
-3.020771 -4.1822443 -0.67476583
-3.0440364 -4.1604323 -0.67421812
-3.0659685 -4.1369009 -0.67339659
-3.0776179 -4.0997887 -0.67024726
-3.1057131 -4.0847707 -0.67093188
-3.1210494 -4.0530791 -0.66874111
-3.1233227 -4.0049491 -0.66367483
-3.1331043 -3.967051 -0.66038859
-3.1332593 -3.9175801 -0.65504849
-3.1491339 -3.8882732 -0.65326846
-3.1559739 -3.8481956 -0.64957148
-3.1801596 -3.8295205 -0.64970839
-3.1927605 -3.7970455 -0.64738065
-3.1806834 -3.7358973 -0.63984972
-3.1880255 -3.6983023 -0.63656348
-3.2230325 -3.6928523 -0.6391651
-3.2272666 -3.6522207 -0.63533115
-3.2496154 -3.6323497 -0.63533115
-3.2545536 -3.5932517 -0.63177109
-3.2658293 -3.561532 -0.62958026
-3.2734694 -3.5261796 -0.62670481
-3.2936873 -3.5045838 -0.62643099
-3.3007913 -3.4692361 -0.62355554
-3.3227031 -3.4496312 -0.62369245
-3.3154554 -3.4000981 -0.61807853
-3.3028553 -3.34585 -0.61150604
-3.3128204 -3.3150098 -0.60945219
-3.3204186 -3.2820847 -0.60698748
-3.3305728 -3.25196 -0.60507053
-3.359019 -3.2397156 -0.60671365
-3.3687942 -3.2094772 -0.60479671
-3.3696694 -3.1710939 -0.60123664
-3.3926909 -3.1537309 -0.60192126
-3.4010339 -3.1228039 -0.59986734
-3.4025223 -3.0859039 -0.59658116
-3.3999979 -3.0457985 -0.5926103
-3.3830156 -2.9933681 -0.58603781
-3.4005733 -2.9719021 -0.5859009
-3.4014988 -2.9360919 -0.58275163
-3.3998523 -2.8984547 -0.57919157
-3.3940845 -2.8577585 -0.57494682
-3.412317 -2.8375125 -0.57508379
-3.4220088 -2.8102341 -0.57371449
-3.4391875 -2.7891841 -0.57371449
-3.4392281 -2.7544048 -0.57070214
-3.4545102 -2.7320211 -0.57042831
-3.4477885 -2.6924803 -0.56632054
-3.4501252 -2.6603851 -0.56385583
-3.4640198 -2.6373651 -0.56344509
-3.4912219 -2.6243947 -0.56536204
-3.4953282 -2.5940673 -0.56330812
-3.4544499 -2.5309992 -0.55358642
-3.5132542 -2.5411084 -0.56098038
-3.4828305 -2.48669 -0.55317563
-3.4883072 -2.4584243 -0.55153251
-3.4838109 -2.4233963 -0.54824632
-3.4855497 -2.3930027 -0.5460555
-3.5182076 -2.3837965 -0.54906785
-3.5319448 -2.3616138 -0.54893094
-3.5174317 -2.320801 -0.54413849
-3.5291152 -2.2975533 -0.54372776
-3.5523138 -2.2817454 -0.54523391
-3.5612276 -2.2567241 -0.54441237
-3.5590491 -2.2248523 -0.54181075
-3.5591435 -2.1946526 -0.53961998
-3.5742352 -2.1738024 -0.53989381
-3.5841084 -2.1497917 -0.5393461
-3.5887063 -2.1227157 -0.53797686
-3.588829 -2.0931687 -0.53592294
-3.5938768 -2.0666635 -0.53469062
-3.5935647 -2.0372438 -0.53263676
-3.5964861 -2.0098393 -0.53113055
-3.6113534 -1.9891679 -0.53154135
-3.6139147 -1.9617722 -0.53003514
-3.6197698 -1.9362895 -0.5290767
-3.6131809 -1.9043416 -0.52620125
-3.6142488 -1.8766569 -0.52455813
-3.6309867 -1.857152 -0.52537966
-3.6316981 -1.8294888 -0.52373654
-3.63132 -1.8014467 -0.5219565
-3.6512053 -1.7834799 -0.5233258
-3.6522603 -1.7563198 -0.52181959
-3.6593869 -1.7321812 -0.52127188
-3.6636612 -1.7067662 -0.52031338
-3.6542554 -1.675171 -0.51730102
-3.6590476 -1.6502732 -0.51647949
-0.28007025 -0.12385399 -0.0039658519
-0.2771934 -0.12054823 -0.003418148
-0.26427343 -0.11298526 -0.0013642596
-0.27226311 -0.1144421 -0.0024596667
-0.25282976 -0.1044213 0.00055270299
-0.24245772 -0.098381951 0.0021958137
-0.25960976 -0.10352003 -0.0002688524
-0.26024008 -0.10192514 -0.0002688524
-0 -0 -0
-0 -0 -0
-0 -0 -0
-0 -0 -0
-0 -0 -0
-0 -0 -0
-0 -0 -0
-0 -0 -0
-0 -0 -0
-0 -0 -0
-0 -0 -0
-0 -0 -0
-0 -0 -0
-0 -0 -0
-0 -0 -0
-0 -0 -0
-0 -0 -0
-0 -0 -0
-0 -0 -0
-0 -0 -0
-0 -0 -0
-0 -0 -0
-0 -0 -0
-0 -0 -0
-0 -0 -0
-0 -0 -0
-0 -0 -0
-0 -0 -0
-0 -0 -0
-0 -0 -0
-0 -0 -0
-0 -0 -0
-0 -0 -0
-0 -0 -0
-0 -0 -0
-0 -0 -0
-0 -0 -0
-0 -0 -0
-0 -0 -0
-0 -0 -0
-0 -0 -0
-0 -0 -0
-0 -0 -0
-0 -0 -0
-0 -0 -0
-0 -0 -0
-0 -0 -0
-0 -0 -0
-0 -0 -0
-0 -0 -0
-0 -0 -0
-0 -0 -0
-0 -0 -0
-0 -0 -0
-0 -0 -0
-0 -0 -0
-0 0 -0
-0 0 -0
-0 0 -0
-0.27198085 0.024031851 -0.0026832968
-0.27773219 0.026283938 -0.0035794734
-0 0 -0
-0 0 -0
-0.28505757 0.032314651 -0.0047743754
-0.28583521 0.034184523 -0.0049237381
-0.28463954 0.03581031 -0.0047743754
-0.28343472 0.03742272 -0.0046250126
-0 0 -0
-0 0 -0
-0 0 -0
-0.2814548 0.044209845 -0.0044756499
-0.28117824 0.045935988 -0.0044756499
-0 0 -0
-0.27767405 0.048856881 -0.0040275618
-0.27542502 0.050197043 -0.0037288361
-0.27317005 0.051511455 -0.0034301106
-0 0 -0
-0.27058035 0.054461379 -0.003131385
-0.27120835 0.056325752 -0.0032807479
-0 0 -0
-0.2724261 0.060083654 -0.0035794734
-0.27205229 0.0617541 -0.0035794734
-0 0 -0
-0.271274 0.065087952 -0.0035794734
-0.27086949 0.066751227 -0.0035794734
-0.2685397 0.067919016 -0.0032807479
-0.2681179 0.069565468 -0.0032807479
-0.26768601 0.071209297 -0.0032807479
-0.26629117 0.072586372 -0.003131385
-0.26584077 0.074218936 -0.003131385
-0 0 -0
-0.26775351 0.078320332 -0.0035794734
-0.26916009 0.080536522 -0.0038781988
-0.27054951 0.082772896 -0.0041769245
-0.27003655 0.084431402 -0.0041769245
-0.2695134 0.086086728 -0.0041769245
-0.26804134 0.087428294 -0.0040275618
-0.266563 0.088755056 -0.0038781988
-0.26507851 0.090066977 -0.0037288361
-0.26358798 0.091364034 -0.0035794734
-0 0 -0
-0.26801974 0.096626751 -0.0044756499
-0.27112859 0.099648885 -0.0050731013
-0.27236119 0.1020117 -0.0053718267
-0.27080771 0.10332475 -0.005222464
-0.27016863 0.10498445 -0.005222464
-0.26860142 0.1062727 -0.0050731013
-0.26611292 0.10717258 -0.0047743754
-0.26453695 0.10842466 -0.0046250126
-0.26568875 0.11081444 -0.0049237381
-0.26863843 0.11400224 -0.0055211894
-0.26702762 0.11525294 -0.0053718267
-0.26631543 0.11688922 -0.0053718267
-0.2655932 0.11852111 -0.0053718267
-0.2621645 0.11891225 -0.0049237381
-0.26142994 0.12051862 -0.0049237381
-0.25979185 0.12169737 -0.0047743754
-0.25904024 0.12328913 -0.0047743754
-0.26094416 0.12617832 -0.005222464
-0.26193655 0.12865601 -0.0055211894
-0.26202524 0.1307057 -0.0056705521
-0.26297888 0.1332116 -0.0059692776
-0.26303408 0.1352784 -0.0061186403
-0.25957498 0.13550659 -0.0056705521
-0.26048234 0.13802962 -0.0059692776
-0.26049948 0.14009708 -0.0061186403
-0.26050103 0.14216994 -0.006268003
-0.2596238 0.14376566 -0.006268003
-0.25873676 0.14535598 -0.006268003
-0.26041141 0.14841969 -0.0067160917
-0.26205814 0.15150937 -0.0071641798
-0.26197457 0.15361792 -0.0073135425
-0.26272291 0.15623976 -0.007612268
-0.26175928 0.15784886 -0.007612268
-0.26078582 0.15945202 -0.007612268
-0.25812569 0.16000083 -0.0073135425
-0.25630391 0.16105233 -0.0071641798
-0.25281513 0.1610187 -0.0067160917
-0.25182238 0.16256692 -0.0067160917
-0.25329605 0.16574277 -0.0071641798
-0.25556204 0.16949242 -0.0077616312
-0.26024711 0.17494006 -0.0088071702
-0.26079905 0.17765298 -0.0091058956
-0.26132745 0.18037923 -0.0094046211
-0.26183215 0.18311861 -0.0097033465
-0.26070362 0.18472174 -0.0097033465
-0.25876415 0.18573838 -0.0095539838
-0.25602445 0.18615377 -0.0092552584
-0.25725934 0.18948914 -0.0097033465
-0.25688216 0.19165826 -0.0098527102
-0.2588481 0.1956269 -0.010450161
-0.26155785 0.2002306 -0.011196975
-0.25798652 0.20000586 -0.010748887
-0.25752997 0.20219846 -0.010898249
-0.25782797 0.2050111 -0.011196975
-0.25195751 0.20285209 -0.010300798
-0.2507081 0.20439425 -0.010300798
-0.25020948 0.20656095 -0.010450161
-0.24742465 0.20681855 -0.010151436
-0.25066552 0.21218194 -0.011047612
-0.25010735 0.21436211 -0.011196975
-0.24804285 0.21524201 -0.011047612
-0.25190091 0.22134674 -0.012093151
-0.2490651 0.22156863 -0.011794426
-0 0 -0
-0 0 -0
-0 0 -0
-0 0 -0
-0 0 -0
-0 0 -0
-0 0 -0
-0 0 -0
-0 0 -0
-0 0 -0
-0 0 -0
-0 0 -0
-0 0 -0
-0 0 -0
-0 0 -0
-0 0 -0
-0 0 -0
-0 0 -0
-0 0 -0
-0 0 -0
-0 0 -0
-0 0 -0
-0 0 -0
-0 0 -0
-0 0 -0
-0 0 -0
-0 0 -0
-0 0 -0
-0 0 -0
-0 0 -0
-3.1343741 4.1208205 -0.74352264
-3.1292121 4.166862 -0.74860096
-3.1206589 4.209022 -0.75293249
-3.1076186 4.245647 -0.75621849
-3.0954034 4.2838731 -0.75980318
-3.0776699 4.3148623 -0.7620436
-3.059103 4.344986 -0.76413471
-3.0402822 4.3750439 -0.76622576
-3.0206482 4.4042182 -0.7681675
-3.0135143 4.4521523 -0.77354455
-2.9883356 4.4738483 -0.77414203
-2.9630044 4.4954033 -0.77473944
-2.9450655 4.5284219 -0.77742797
-2.9268327 4.5613885 -0.7801165
-2.9056623 4.5901241 -0.78205824
-2.8685429 4.5936065 -0.77951908
-2.8408213 4.6119633 -0.77966845
-2.8258131 4.6512818 -0.78355187
-2.8134768 4.6956782 -0.78833145
-2.7891369 4.7205157 -0.78967571
-2.7641006 4.7443762 -0.79087067
-2.7334604 4.7586746 -0.79042256
-2.7042103 4.7753572 -0.79042256
-2.6791942 4.7996316 -0.79176682
-2.6511233 4.8185797 -0.79221493
-2.6257472 4.8425798 -0.79355919
-2.5917923 4.8507504 -0.79221493
-2.5619798 4.8665619 -0.79221493
-2.5361664 4.8900909 -0.79355919
-2.5155563 4.9240537 -0.79669577
-2.4932919 4.955297 -0.7993843
-2.4628396 4.9705019 -0.7993843
-2.4331617 4.9872975 -0.79968303
-2.3965237 4.9896541 -0.79759198
-2.3747337 5.0230389 -0.80072856
-2.3542914 5.0599298 -0.80446267
-2.3203201 5.0679865 -0.80341709
-2.2891798 5.082128 -0.80341709
-2.2627578 5.1069279 -0.80520946
-2.2282212 5.1134634 -0.80401456
-2.1940789 5.1206765 -0.80296904
-2.1614668 5.131309 -0.80252093
-2.1288068 5.1417341 -0.80207282
-2.1001971 5.1620269 -0.80326778
-2.0666499 5.1702251 -0.80252093
-2.0370541 5.1883311 -0.80341709
-2.0137131 5.2228765 -0.80700183
-1.9865261 5.2480817 -0.80909288
-1.9546313 5.2610989 -0.80924225
-1.9216361 5.2711353 -0.80894351
-1.8879257 5.2791023 -0.80834609
-1.8590958 5.3008518 -0.80998909
-1.8268567 5.3130941 -0.81013846
-1.7894882 5.3101473 -0.80789798
-1.7574917 5.3229055 -0.80819672
-1.7284465 5.3448796 -0.80998909
-1.6980045 5.3629265 -0.81118399
-1.6630188 5.3666325 -0.81013846
-1.6329253 5.3861985 -0.81163204
-1.5998455 5.3961167 -0.81163204
-1.5664303 5.404882 -0.81148273
-1.5318911 5.4096341 -0.81073588
-1.4994595 5.4217911 -0.81118399
-1.461786 5.4146605 -0.80864483
-1.4227468 5.4015346 -0.80520946
-1.3947382 5.4302754 -0.80834609
-1.3577939 5.4243426 -0.80610561
-1.320039 5.4143186 -0.80326778
-1.2877049 5.4261646 -0.80386519
-1.2541642 5.4330006 -0.80371583
-1.2229671 5.450242 -0.80520946
-1.1913954 5.4663386 -0.80655372
-1.1574233 5.471611 -0.80625498
-1.1224389 5.4718294 -0.80520946
-1.090191 5.4854026 -0.80625498
-1.0557663 5.4881043 -0.80565757
-1.0240589 5.5051727 -0.80730057
-0.98921269 5.5055132 -0.80640435
-0.95693099 5.5202479 -0.80774862
-0.92369217 5.5299168 -0.80834609
-0.89021403 5.5384092 -0.80879414
-0.85395342 5.529109 -0.80655372
-0.81827468 5.5225067 -0.80476135
-0.78548354 5.5352559 -0.8059563
-0.74818736 5.5154753 -0.80222219
-0.71369749 5.515059 -0.80147541
-0.68503326 5.5615344 -0.80789798
-0.64814389 5.5420623 -0.8043133
-0.61434346 5.5479002 -0.80461204
-0.57998282 5.548615 -0.80416393
-0.5439952 5.5323882 -0.80117667
-0.51148707 5.5513759 -0.80356646
-0.47631675 5.5416026 -0.80162477
-0.44191301 5.5394926 -0.80087793
-0.40545431 5.5085716 -0.79579961
-0.37012133 5.488265 -0.79236424
-0.33583632 5.4805632 -0.79087067
-0.30203927 5.4795589 -0.79042256
-0.26773754 5.4674826 -0.78833145
-0.23351121 5.4532161 -0.78594166
-0.1999024 5.4505939 -0.78534424
-0.16750316 5.4863091 -0.79057193
-0.13285677 5.4467053 -0.78444803
-0.099719256 5.4632359 -0.78683782
-0.066172056 5.4617677 -0.78653914
-0.032618135 5.4551497 -0.78549355
0.00085318089 5.451292 -0.78489614
0.034269493 5.4462399 -0.78414929
0.067723855 5.4488935 -0.7845974
0.10072932 5.4256372 -0.78116208
0.13323027 5.3932858 -0.77638245
0.16573709 5.373589 -0.77354455
0.19903654 5.3813639 -0.77488881
0.2320094 5.3790536 -0.77473944
0.26545024 5.3864169 -0.77608371
0.29783636 5.3728395 -0.7742914
0.33073688 5.3699241 -0.77414203
0.36475274 5.3835778 -0.77653182
0.39880237 5.3950434 -0.77862287
0.43150243 5.3875666 -0.77787608
0.4613142 5.3473835 -0.77220029
0.4922916 5.3247614 -0.76921302
0.5234952 5.3068805 -0.7669726
0.55542785 5.2976685 -0.76607645
0.58508015 5.26861 -0.76219296
0.61739671 5.2649207 -0.76219296
0.64993286 5.2629957 -0.7624917
0.6813218 5.2520452 -0.76144618
0.71220058 5.2379684 -0.75995255
0.74223512 5.2188163 -0.75771213
0.77366138 5.2102518 -0.75711465
0.80667645 5.2122464 -0.75816017
0.83958763 5.2130556 -0.75905639
0.87155855 5.2078056 -0.75905639
0.90400487 5.2052827 -0.75950444
0.9301393 5.1675253 -0.75457549
0.95511931 5.1257563 -0.74904907
0.98599046 5.1168866 -0.74860096
1.0065459 5.0564365 -0.74023664
1.0283891 5.0056138 -0.73336595
1.0223622 4.8260689 -0.70663005
1.0221932 4.6835003 -0.68556988
1.0420144 4.6375885 -0.67944598
1.0595275 4.5839043 -0.67212725
1.0764216 4.5301819 -0.66480845
1.1070147 4.535018 -0.66660082
1.1191804 4.4658012 -0.65689224
1.1384269 4.4272504 -0.65196323
1.1595138 4.3972368 -0.64837855
1.2032574 4.4520798 -0.65808713
1.2289678 4.4388957 -0.65719098
1.2507828 4.4122467 -0.65420371
1.2797626 4.4111362 -0.65524924
1.3048338 4.3965654 -0.65420371
1.3228773 4.3591475 -0.64957345
1.3578086 4.3773894 -0.65375561
1.3843433 4.3680329 -0.65360624
1.4095953 4.3547535 -0.65285945
1.4418781 4.3629198 -0.65554798
1.4496454 4.2977805 -0.64658618
1.4650406 4.2570186 -0.64150786
1.4953941 4.2600765 -0.6434496
1.531509 4.2787466 -0.64793044
1.5499334 4.2479067 -0.64449513
1.5704513 4.2234893 -0.64210534
1.607203 4.242435 -0.64673555
1.6296419 4.2232699 -0.64524192
1.6490114 4.1966276 -0.64255339
1.6861225 4.2148871 -0.64718366
1.709341 4.1980519 -0.64613813
1.7403699 4.2002721 -0.64822918
1.7599603 4.1749377 -0.64583939
1.7785257 4.1477041 -0.64315087
1.8019646 4.1321821 -0.64240402
1.8240771 4.1138172 -0.64120913
1.8484715 4.1007447 -0.64091039
1.8826644 4.1090994 -0.64419639
1.9116004 4.1055369 -0.64554065
1.93464 4.0892615 -0.64479387
1.9648377 4.088007 -0.64658618
1.9885821 4.0732088 -0.64613813
2.0069454 4.0476441 -0.64389765
2.0312986 4.0343704 -0.64374828
2.0654712 4.0403166 -0.64688492
2.092046 4.0310774 -0.6474824
2.1185851 4.0216637 -0.64807981
2.1390238 4.000742 -0.64673555
2.1706083 4.0005765 -0.64897603
2.2017939 3.9993074 -0.65106708
2.2233973 3.9805434 -0.65017092
2.2550948 3.9797282 -0.65241134
2.2868659 3.9786732 -0.65465176
2.3167157 3.9739616 -0.65629476
2.3430698 3.9630756 -0.65689224
2.3627648 3.9409931 -0.65554798
2.4038587 3.954299 -0.66047692
2.4358616 3.9520988 -0.6627174
2.4658313 3.9463007 -0.66436034
2.4921162 3.9344373 -0.66495782
2.5210204 3.926559 -0.66630208
2.5569351 3.9292462 -0.66958809
2.5913436 3.9291637 -0.67242599
2.6209002 3.9214089 -0.67391956
2.6554511 3.9208062 -0.67675745
2.7007267 3.9354138 -0.68243325
2.6807783 3.8554571 -0.67078298
2.7197649 3.8607571 -0.67481577
2.7434027 3.8439963 -0.67481577
2.7727327 3.8351021 -0.67630941
2.7973812 3.819612 -0.67660815
2.8296049 3.8142853 -0.67884856
2.8565207 3.8015935 -0.67974472
2.8911741 3.7989416 -0.68258262
2.9355636 3.8085351 -0.6878103
2.9692235 3.803699 -0.69034952
3.0047746 3.8009191 -0.69333673
3.037312 3.7939868 -0.6955772
3.0692544 3.7860301 -0.69766825
3.1087437 3.7869928 -0.70155168
3.14836 3.7876129 -0.70543516
3.1989274 3.8007467 -0.71185774
3.2427166 3.8051245 -0.71663731
3.2808642 3.8023708 -0.72007269
3.3164968 3.7963138 -0.72291058
3.3600411 3.7988479 -0.72754085
3.3978026 3.7943616 -0.7308268
3.4303205 3.783695 -0.7329179
3.4869113 3.798991 -0.74038601
3.524967 3.7934563 -0.74367201
3.5691843 3.7940774 -0.74830222
3.6128592 3.793582 -0.75278312
3.6422465 3.7777474 -0.75412738
3.6646669 3.7546206 -0.75397801
3.6688671 3.7130775 -0.74994522
3.6880839 3.6870012 -0.74919844
3.6761558 3.6302664 -0.74187964
3.7153525 3.6242082 -0.74546438
3.712594 3.5773358 -0.74023664
3.770293 3.5885653 -0.7477048
3.8160191 3.5877092 -0.75263375
3.8227425 3.5501003 -0.74949718
3.8634024 3.5439517 -0.7533806
3.8953352 3.5294721 -0.75547165
3.9043903 3.4942973 -0.75293249
3.9205706 3.4656916 -0.75188696
3.9201574 3.4227157 -0.74755543
3.9358425 3.3940787 -0.74650991
3.9596057 3.3724289 -0.74710733
3.9953604 3.3607962 -0.75009459
4.0303602 3.3482196 -0.75293249
4.0408893 3.3152759 -0.75099075
4.0473237 3.2792177 -0.74830222
4.0951681 3.2765546 -0.75367934
4.1198516 3.2550423 -0.75457549
4.1413059 3.2309182 -0.75487423
4.170454 3.2126856 -0.75666654
4.1790681 3.1786578 -0.75457549
4.2056103 3.158298 -0.75591975
4.2431817 3.1459739 -0.75935507
4.2392631 3.1029477 -0.7550236
4.2461987 3.0681937 -0.75278312
4.2713857 3.0466738 -0.75397801
4.2964683 3.02496 -0.75517291
4.314136 2.9979765 -0.7550236
4.334897 2.9731262 -0.75547165
4.3506012 2.9448097 -0.7550236
4.3784566 2.9246478 -0.75681591
4.4087048 2.9058867 -0.75905639
4.4082136 2.866925 -0.75577039
4.4082432 2.8286128 -0.75263375
4.4154892 2.7951667 -0.75084144
4.4694643 2.7910576 -0.75741339
4.4890318 2.765136 -0.75786144
4.4695716 2.7154715 -0.75143886
4.5192327 2.7078083 -0.75726402
4.5272489 2.675 -0.75577039
4.5495582 2.6506538 -0.75681591
4.5623069 2.620719 -0.75621849
4.589488 2.5990076 -0.75816017
4.5993042 2.5674257 -0.75711465
4.6184368 2.5410624 -0.75771213
4.638288 2.5150321 -0.75845891
4.6579938 2.4888537 -0.75920576
4.629425 2.4372046 -0.75173759
4.6451702 2.4092083 -0.75188696
4.705658 2.4040425 -0.75965381
4.7132535 2.3715699 -0.75845891
4.7392354 2.34831 -0.76040065
4.7420015 2.3135526 -0.75845891
4.7382798 2.2758546 -0.75547165
4.7387452 2.2404017 -0.75323123
4.7712307 2.2200387 -0.75636786
4.8063421 2.2005954 -0.75995255
4.8504095 2.1848636 -0.76503086
4.8537788 2.1506567 -0.76338786
4.8569121 2.1164913 -0.76174492
4.8616266 2.0831468 -0.76040065
4.859736 2.0471389 -0.7580108
4.8639822 2.0138791 -0.75666654
4.8799114 1.985486 -0.75726402
4.8864932 1.9533052 -0.75636786
4.8818183 1.9167844 -0.75367934
4.9017911 1.8899937 -0.7550236
4.9132957 1.8598813 -0.7550236
4.9134917 1.8255689 -0.75323123
4.9413238 1.8014784 -0.75591975
4.9345932 1.7648026 -0.75308186
4.9667912 1.7420133 -0.75651717
4.9867377 1.714718 -0.7580108
4.9812346 1.678723 -0.75547165
4.9858074 1.6462682 -0.75457549
5.0155735 1.6220299 -0.75771213
5.0537133 1.6001724 -0.76219296
5.0294333 1.558604 -0.75681591
5.0180831 1.5214077 -0.75352997
5.0510254 1.4976104 -0.75726402
5.0192795 1.4547628 -0.75084144
5.0452371 1.4287835 -0.75352997
5.0739231 1.4033303 -0.75666654
5.0662093 1.3677932 -0.75412738
5.097456 1.3427215 -0.75771213
5.0739927 1.303308 -0.75278312
5.1106715 1.2793469 -0.75726402
5.1145825 1.2470284 -0.75666654
5.0846157 1.2067262 -0.75084144
5.1208291 1.1821709 -0.75532228
5.1376348 1.1528907 -0.75681591
5.1591039 1.1245004 -0.75905639
5.1291447 1.0850552 -0.7533806
5.1347375 1.0533645 -0.75323123
5.1750488 1.0285776 -0.75845891
5.1336827 0.98766184 -0.75114012
5.1493678 0.95794982 -0.75263375
5.1454163 0.92458928 -0.75114012
5.1850929 0.89890414 -0.75636786
5.2158689 0.87130231 -0.76025128
5.1849942 0.83348352 -0.75472486
5.1763296 0.7995432 -0.75263375
5.1889629 0.76892459 -0.75382864
5.2112055 0.73956811 -0.75651717
5.1950688 0.70479196 -0.7533806
5.2336178 0.67733663 -0.75860828
5.2376752 0.64521098 -0.75860828
5.2415357 0.61306107 -0.75860828
5.2039208 0.57632601 -0.75233507
5.1916242 0.54274309 -0.74994522
5.2125697 0.51261556 -0.75263375
5.1929703 0.47854042 -0.74919844
5.2046752 0.44742817 -0.7505427
5.227036 0.41705292 -0.75352997
5.2304831 0.38504496 -0.75367934
5.2357068 0.35314304 -0.75412738
5.2565269 0.32215574 -0.75696528
5.2603793 0.29000467 -0.75726402
5.2521834 0.25724062 -0.75577039
5.2576146 0.22517735 -0.75636786
5.2559328 0.1928049 -0.75591975
5.2728305 0.1610309 -0.75830954
5.2549376 0.1282203 -0.75547165
5.267489 0.096188203 -0.75726402
5.2847881 0.064065732 -0.75980318
5.2742052 0.031574972 -0.75816017
5.278255 -0.00078900449 -0.75875765
5.2880383 -0.033240091 -0.76025128
5.2847686 -0.065648757 -0.75980318
5.26054 -0.097628646 -0.75621849
5.2707148 -0.13017583 -0.75786144
5.255981 -0.16208412 -0.75577039
5.2845302 -0.19543399 -0.76025128
5.2407537 -0.22601418 -0.75382864
5.2244549 -0.25743333 -0.75158823
5.2444963 -0.29069388 -0.75487423
5.2574177 -0.32378301 -0.75711465
5.2543454 -0.35596877 -0.75696528
5.2806587 -0.39032218 -0.76129681
5.2653513 -0.42168733 -0.75935507
5.2606945 -0.45381659 -0.75905639
5.2509189 -0.48544836 -0.7580108
5.2734251 -0.52018762 -0.76189429
5.2780008 -0.55336148 -0.76308918
5.2607479 -0.58420533 -0.76099807
5.2688489 -0.61785823 -0.76279044
5.2472949 -0.64799041 -0.76010191
5.2236094 -0.67762661 -0.75711465
5.2467861 -0.7134015 -0.76129681
5.2364364 -0.74474508 -0.76040065
5.2552409 -0.78035194 -0.76398534
5.2620792 -0.8144002 -0.76577771
5.2950535 -0.85281247 -0.77160287
5.2565651 -0.87972981 -0.76652449
5.2335334 -0.90891761 -0.76383597
5.2327232 -0.94188976 -0.76458281
5.2482295 -0.97796905 -0.76786876
5.2246542 -1.0067816 -0.76518023
5.219348 -1.0390137 -0.7653296
5.2361188 -1.0758005 -0.76891428
5.2120085 -1.1042159 -0.76622576
5.2244549 -1.140397 -0.76921302
5.2096415 -1.1706961 -0.76801813
5.1734605 -1.1959523 -0.76353723
5.2391324 -1.2450641 -0.77488881
5.1872106 -1.2663902 -0.76801813
5.2244182 -1.3095032 -0.77503818
5.1473398 -1.3237877 -0.76428407
5.1085272 -1.3472707 -0.75950444
5.1163907 -1.3829805 -0.7620436
5.1011381 -1.4124994 -0.76099807
5.0885706 -1.4426932 -0.76040065
5.1138062 -1.4838158 -0.76577771
5.0799618 -1.5078448 -0.76189429
5.1425176 -1.5608274 -0.77324581
5.0969596 -1.5812111 -0.76757002
5.0890465 -1.6130536 -0.76786876
5.0941038 -1.649125 -0.77025855
5.0857663 -1.6809717 -0.77055728
5.0603671 -1.7070855 -0.7681675
5.0778437 -1.7477635 -0.77264839
4.98493 -1.7500467 -0.75950444
5.0169177 -1.7959397 -0.76637512
5.0141625 -1.8297415 -0.76771939
4.9935741 -1.8570249 -0.76622576
4.9774628 -1.8858773 -0.76547897
4.9787111 -1.9213697 -0.76757002
4.9557858 -1.94754 -0.76577771
4.9382348 -1.9757066 -0.76488149
4.9315133 -2.0082085 -0.76577771
4.9108782 -2.0350213 -0.76443344
4.9748259 -2.097399 -0.77697992
4.9645886 -2.1290543 -0.77742797
4.9296818 -2.1499848 -0.77384329
4.8630724 -2.1565316 -0.76503086
4.8605642 -2.1912091 -0.76682323
4.8380399 -2.2168708 -0.7653296
4.8431678 -2.2552843 -0.76846623
4.8077898 -2.2748048 -0.76488149
4.8071079 -2.3106904 -0.76712197
4.7857318 -2.3366706 -0.76592708
4.7677608 -2.3642335 -0.7653296
4.7805386 -2.4072351 -0.76995987
4.8044109 -2.456336 -0.77653182
4.7418633 -2.4611614 -0.76846623
4.7214241 -2.4874442 -0.76757002
4.7095604 -2.5182333 -0.7681675
4.6801162 -2.5395348 -0.76577771
4.6739726 -2.5734518 -0.76742071
4.6563683 -2.6011174 -0.76712197
4.6411805 -2.630127 -0.76727134
4.6455259 -2.6703863 -0.77085602
4.624783 -2.6963494 -0.77010924
4.5698552 -2.7020211 -0.76338786
4.5989776 -2.7574773 -0.7714535
4.5802822 -2.7846165 -0.77115476
4.5580602 -2.8095541 -0.77025855
4.5080371 -2.8170264 -0.76443344
4.4881616 -2.8430462 -0.76398534
4.5205474 -2.9025967 -0.77294713
4.5051384 -2.9318981 -0.77339518
4.4878888 -2.9600306 -0.77354455
4.456491 -2.9787178 -0.77115476
4.445497 -3.0109982 -0.77249902
4.4448714 -3.0505319 -0.77578497
4.3854856 -3.0495136 -0.76831686
4.4159923 -3.1111135 -0.77742797
4.3726788 -3.120913 -0.77294713
4.3189974 -3.1227651 -0.76652449
4.2933745 -3.1445317 -0.7653296
4.288291 -3.1814239 -0.76801813
4.263947 -3.2041113 -0.76712197
4.2418466 -3.2284172 -0.76667386
4.2250896 -3.2567992 -0.76727134
4.2011304 -3.2796195 -0.76652449
4.19101 -3.3133094 -0.76846623
4.1497636 -3.3222728 -0.76443344
4.1369801 -3.3539014 -0.76592708
4.1224356 -3.3842428 -0.76712197
4.1046338 -3.4120028 -0.76771939
4.0692501 -3.4250233 -0.76488149
4.0601969 -3.4601915 -0.76727134
4.0493679 -3.4940851 -0.76936239
3.9965832 -3.4915361 -0.76308918
3.9995205 -3.5376165 -0.76801813
3.9806848 -3.5647297 -0.7686156
3.9997511 -3.6262882 -0.77697992
3.989078 -3.6614625 -0.77936971
3.9469836 -3.6676927 -0.77533692
3.9236848 -3.6911643 -0.77518755
3.8988147 -3.7131238 -0.77473944
3.8738229 -3.7349172 -0.7742914
3.8543704 -3.7620702 -0.77503818
3.8234789 -3.778003 -0.77339518
3.7981288 -3.799294 -0.77294713
3.8101704 -3.8584166 -0.78056461
3.8002295 -3.8958819 -0.78355187
3.8036902 -3.9476135 -0.78952634
3.7732627 -3.9644308 -0.78818208
3.7603776 -3.9997578 -0.7907213
3.7034752 -3.9879708 -0.78355187
3.6582205 -3.9880271 -0.7789216
3.6370003 -4.0140629 -0.77966845
3.607028 -4.0304079 -0.77847356
3.5697906 -4.0383859 -0.77563566
3.5800524 -4.1004424 -0.78370124
3.5509517 -4.1178384 -0.78280503
3.5249774 -4.1387963 -0.78265566
3.4829714 -4.1406698 -0.77877223
3.4751859 -4.1832628 -0.78295439
3.4300158 -4.1808057 -0.77832419
3.4248338 -4.2271304 -0.78325313
3.3963618 -4.2449765 -0.78265566
3.3488028 -4.2385769 -0.77742797
3.229094 -4.1389666 -0.75442612
3.1770942 -4.1242304 -0.74785417
3.143949 -4.1334143 -0.74591243
3.1244636 -4.1605353 -0.74740607
3.1018198 -4.1836004 -0.74815291
3.0807619 -4.2089381 -0.74934781
3.0589309 -4.2333732 -0.75039333
3.0317497 -4.2504525 -0.75009459
3.0095959 -4.2746353 -0.75114012
3.0132065 -4.3360629 -0.75905639
3.0642569 -4.4678311 -0.77981782
3.0323524 -4.4799972 -0.77862287
3.0108461 -4.5075645 -0.78026587
2.992923 -4.5408168 -0.78295439
2.9730883 -4.5715308 -0.78519487
2.931103 -4.568047 -0.78131139
2.9046049 -4.5884528 -0.7817595
2.8737783 -4.6019945 -0.78101271
2.8485973 -4.6245933 -0.78190887
2.8155487 -4.6343784 -0.78056461
2.7753751 -4.6320562 -0.77712923
2.7348337 -4.6285648 -0.77354455
2.0247068 -3.4746401 -0.56891757
1.9920255 -3.4672756 -0.5654822
1.9585369 -3.4579206 -0.56174815
1.9339103 -3.4638283 -0.56070262
1.9011854 -3.4548354 -0.55711788
1.875711 -3.458612 -0.55577362
1.8497962 -3.461334 -0.55427998
1.8193145 -3.4551179 -0.55129278
1.7921644 -3.4548039 -0.54935104
1.7718316 -3.4674966 -0.54964978
1.7469683 -3.4712362 -0.54845488
1.7212481 -3.4730294 -0.54696125
1.7007724 -3.4853029 -0.54725999
1.6797829 -3.4965644 -0.5474093
1.6561846 -3.5023355 -0.54666251
1.6334126 -3.509742 -0.5462144
1.6126693 -3.5214965 -0.54651314
1.5894079 -3.527719 -0.54591572
1.5713356 -3.5455418 -0.54725999
1.5538938 -3.5650885 -0.54890293
1.534325 -3.5800097 -0.54979914
1.5161661 -3.59847 -0.55129278
1.4982164 -3.6177554 -0.55293572
0 -0 -0
0 -0 -0
1.4649603 -3.7303226 -0.56682646
1.4640858 -3.7964461 -0.576087
1.888219 -4.9882064 -0.76712197
1.8489722 -4.9765248 -0.76338786
0 -0 -0
1.3708082 -3.8321643 -0.57623631
1.3449794 -3.8339713 -0.57519078
0 -0 -0
1.3047719 -3.8708031 -0.57847679
1.2915303 -3.9106619 -0.5835551
1.2732875 -3.9363897 -0.586393
1.268796 -4.0063481 -0.59625095
1.2544264 -4.0471163 -0.60147864
1.2605313 -4.156939 -0.6176098
1.2473592 -4.2063098 -0.62418181
1.1126091 -3.8377795 -0.56503415
0 -0 -0
1.4033303 -5.0739231 -0.75666654
1.4303693 -5.2981915 -0.79042256
1.388522 -5.2714882 -0.78489614
1.3603289 -5.2961907 -0.78743529
1.3230085 -5.285253 -0.78444803
1.2945321 -5.3096032 -0.78698719
1.2660346 -5.3347645 -0.78967571
1.2328329 -5.3405051 -0.78937703
1.1885778 -5.2968326 -0.78146076
1.1636276 -5.3388071 -0.78683782
1.1271677 -5.328433 -0.78414929
1.0982232 -5.3536534 -0.78698719
1.0655457 -5.3612609 -0.78713655
1.0318831 -5.3638144 -0.78653914
0.99696505 -5.3593512 -0.78489614
0.96406198 -5.3653674 -0.78489614
0.9282549 -5.354619 -0.78235698
0.89733452 -5.3719172 -0.78414929
0.86576658 -5.3861089 -0.78549355
0.83270174 -5.3913198 -0.78549355
0.79917139 -5.393393 -0.7850455
0.76814389 -5.4128804 -0.78728592
0.73571289 -5.4233708 -0.78818208
0.70014137 -5.4101315 -0.78549355
0.6676563 -5.4202137 -0.78638977
0.63163429 -5.4006376 -0.78280503
0.60076576 -5.4250507 -0.78594166
0.56521004 -5.4069986 -0.78265566
0.53115368 -5.4015088 -0.78131139
0.49528527 -5.3751273 -0.77683055
0.46440655 -5.4026942 -0.78056461
0.4265421 -5.346302 -0.77160287
0.39626285 -5.3833332 -0.77683055
0.36667261 -5.436964 -0.7845974
0.32884538 -5.3660779 -0.77354455
0.29613039 -5.3719435 -0.77414203
0.2652337 -5.4161267 -0.78056461
0.23149088 -5.4057975 -0.77877223
0.19820909 -5.4041519 -0.77832419
0.15743521 -5.1542311 -0.74038601
0.12241277 -5.0147338 -0.71917653
0.091533639 -5.0094585 -0.71828032
0.060923893 -5.020802 -0.71992332
0.030081483 -5.0151486 -0.71902716
-0.00073986378 -5.1457582 -0.73874301
-0.033896334 -5.3888922 -0.77548629
-0.066548795 -5.3559551 -0.77055728
-0.09941107 -5.3554463 -0.77055728
-0.13355049 -5.406136 -0.77832419
-0.16684219 -5.4091682 -0.7789216
-0.20010261 -5.4100189 -0.77922034
-0.2342362 -5.4304218 -0.78250635
-0.26652569 -5.4081435 -0.77936971
-0.2987704 -5.3896227 -0.77683055
-0.32982191 -5.3551207 -0.77190155
-0.36314347 -5.3599014 -0.77294713
-0.39880237 -5.3950434 -0.77862287
-0.43205652 -5.3944659 -0.7789216
-0.4596954 -5.3286667 -0.76936239
-0.4940252 -5.3434677 -0.77205092
-0.52398163 -5.3118005 -0.76771939
-0.55532449 -5.2966847 -0.76592708
-0.59196925 -5.3305211 -0.77160287
-0.61843514 -5.2737589 -0.76353723
-0.65806675 -5.328743 -0.77249902
-0.68794769 -5.3030334 -0.76921302
-0.7138018 -5.2497253 -0.76174492
-0.7473945 -5.2550359 -0.76323855
-0.78282458 -5.2718673 -0.76652449
-0.816369 -5.2747817 -0.76771939
-0.84840417 -5.2677212 -0.76742071
-0.84998643 -5.0790815 -0.73934048
-0.87605298 -5.0445457 -0.73485959
-0.90453392 -5.0254517 -0.73276854
-0.93970478 -5.0431356 -0.73635322
-0.97344083 -5.0518379 -0.73859364
-1.0179483 -5.1136494 -0.74904907
-1.0546845 -5.1334572 -0.75308186
-1.087599 -5.1336598 -0.75412738
-1.1203445 -5.1326857 -0.7550236
-1.153119 -5.1315026 -0.75591975
-1.1799023 -5.1041012 -0.75278312
-1.2025031 -5.0602112 -0.74710733
-1.2445612 -5.0978823 -0.75412738
-1.2743741 -5.0843954 -0.75323123
-1.3082588 -5.0870132 -0.75487423
-1.3472707 -5.1085272 -0.75950444
-1.3819475 -5.1125727 -0.76144618
-1.4217421 -5.1344886 -0.76622576
-1.4588882 -5.1456442 -0.76936239
-1.4887793 -5.1308985 -0.76846623
-1.4619491 -4.9254632 -0.73754811
-1.4886951 -4.9050465 -0.7357558
-1.5498409 -4.9959178 -0.75158823
-1.5876414 -5.008934 -0.75517291
-1.6229168 -5.0132079 -0.75741339
-1.6390527 -4.9590335 -0.75039333
-1.6694499 -4.9488831 -0.75039333
-1.7213588 -5.0011835 -0.76040065
-1.7556182 -5.0007892 -0.7620436
-1.7856026 -4.988061 -0.76174492
-1.8239758 -4.998373 -0.76518023
-1.8553007 -4.9889407 -0.76547897
-1.889032 -4.9857841 -0.76682323
-1.9245754 -4.9870129 -0.76891428
-1.9504349 -4.9631472 -0.7669726
-1.9727666 -4.9308915 -0.7636866
-1.9992537 -4.9095368 -0.76219296
-2.0293405 -4.8971772 -0.76219296
-2.047821 -4.8573022 -0.75771213
-2.0900633 -4.873723 -0.7624917
-2.1278381 -4.8789315 -0.76547897
-2.1681614 -4.8892827 -0.76936239
-2.1993403 -4.8785911 -0.7698105
-2.2193432 -4.8434324 -0.76622576
-2.2481852 -4.8279314 -0.76592708
-2.2773433 -4.8131523 -0.76577771
-2.2828336 -4.7491875 -0.75741339
-2.3123651 -4.7359796 -0.75756276
