# .PCD v0.7 - Point Cloud Data file format
VERSION 0.7
FIELDS x y z
SIZE 4 4 4
TYPE F F F
COUNT 1 1 1
WIDTH 1580
HEIGHT 1
VIEWPOINT 0 0 0 1 0 0 0
POINTS 1580
DATA ascii
4.1339221 3.9845173 -0.6861431
4.1733851 3.9734406 -0.68877143
4.2229877 3.9715428 -0.69315201
4.2785392 3.9745858 -0.69853389
4.2845674 3.9314926 -0.69540495
4.2858171 3.8844788 -0.69152498
4.3354478 3.8812647 -0.69590557
4.3799953 3.8729875 -0.69941002
4.4051719 3.8473444 -0.69966036
4.4422207 3.8319044 -0.70191324
4.509459 3.8418849 -0.70917255
4.5625596 3.8390491 -0.71405375
4.6028194 3.8249285 -0.71680731
4.6668563 3.8299646 -0.72344077
4.7349806 3.8374803 -0.73070008
4.794075 3.8368652 -0.73645741
4.8439965 3.8282881 -0.74071288
4.8947749 3.8198521 -0.74509346
4.9440589 3.8097258 -0.74922377
5.0376248 3.8327706 -0.76036298
5.1086493 3.8375325 -0.76787263
5.1663713 3.831521 -0.77325451
5.2218084 3.8231871 -0.77826089
5.2483854 3.7933989 -0.77876151
5.2796402 3.7668848 -0.78001314
5.3148227 3.7429855 -0.78189051
5.3531699 3.7210603 -0.78426856
5.3914471 3.6988051 -0.7866466
5.4033594 3.6584251 -0.78501952
5.4100299 3.614732 -0.78264147
5.4271369 3.5781929 -0.78189051
5.4514856 3.5464478 -0.78226602
5.4689684 3.5102525 -0.78164023
5.4786673 3.4692008 -0.77988797
5.4964848 3.4334171 -0.77938735
5.5267406 3.40535 -0.7807641
5.552619 3.374465 -0.78151506
5.563858 3.3347225 -0.78013831
5.56286 3.287904 -0.77700931
5.5803576 3.2522109 -0.7766338
5.5959058 3.2154384 -0.77600801
5.6068969 3.1761534 -0.77475643
5.6158838 3.1358879 -0.77325451
5.6480589 3.1085439 -0.77513188
5.667026 3.0738294 -0.77513188
5.6796546 3.0357268 -0.77425575
5.6937847 2.9985092 -0.77362996
5.7120762 2.9635162 -0.77362996
5.7186666 2.9225445 -0.77200288
5.748013 2.8931973 -0.77362996
5.7683239 2.859195 -0.77400547
5.7866507 2.8241823 -0.77413058
5.7833009 2.7787442 -0.77125192
5.7984481 2.7423582 -0.77100158
5.794476 2.6971023 -0.76812291
5.7919722 2.6528249 -0.76549459
5.795476 2.611532 -0.76374233
5.8186474 2.5791373 -0.76474363
5.8780217 2.5624089 -0.7707513
5.9127851 2.5344987 -0.77337962
5.9273105 2.4977858 -0.77325451
5.8976073 2.4427743 -0.76712161
5.9189181 2.4091582 -0.76799774
5.9455652 2.3775818 -0.76962483
5.9757419 2.3472192 -0.77175254
5.9816999 2.3072968 -0.77062613
6.004096 2.273711 -0.77175254
6.0123539 2.2347548 -0.77100158
6.026885 2.1981614 -0.77112675
6.0056939 2.1487796 -0.76649582
6.0328088 2.1168137 -0.76837325
6.0653868 2.0865312 -0.77100158
6.058331 2.0426226 -0.76837325
6.0782876 2.007899 -0.76937455
6.0801091 1.9672079 -0.76799774
6.0986862 1.9319601 -0.76887387
6.0763087 1.883932 -0.76436812
6.0640173 1.8394177 -0.76123911
6.0837507 1.8047128 -0.76236558
6.1204386 1.7748054 -0.76574486
6.1340775 1.7380286 -0.76612037
6.1312389 1.6966559 -0.76436812
6.1377025 1.6579691 -0.7638675
6.1592731 1.6233099 -0.76536942
6.163352 1.584006 -0.76461846
6.1806545 1.5480856 -0.7656197
6.1678672 1.5047283 -0.76274103
6.1625042 1.463419 -0.76086366
6.203269 1.432942 -0.76499391
6.1935515 1.390726 -0.76261586
6.1806417 1.3480495 -0.75986236
6.0829945 1.2877235 -0.74621993
5.7292318 1.176223 -0.69966036
5.7217445 1.1381465 -0.69778293
5.7393374 1.1050785 -0.69915974
5.7625923 1.0729257 -0.70128745
5.7759027 1.0387748 -0.70216358
5.8672156 1.0180551 -0.71305251
6.2178135 1.0395607 -0.75710881
6.2417073 1.0042228 -0.75936174
6.2389269 0.96454287 -0.75823528
6.2604308 0.9285695 -0.76023781
6.2610989 0.88944197 -0.75961202
6.2556243 0.84954119 -0.75823528
6.2725263 0.81266898 -0.75973719
6.2951193 0.77634877 -0.76199007
6.2908955 0.73667109 -0.76086366
6.2154222 0.68921494 -0.75072569
6.2412429 0.65333325 -0.75347918
6.2530332 0.61580181 -0.75448048
6.2892966 0.58042508 -0.75861079
6.317452 0.54394698 -0.76173973
6.3018794 0.50367522 -0.75936174
6.3137565 0.46565324 -0.76048815
6.2877879 0.42496914 -0.75685853
6.2734423 0.38534904 -0.75473082
6.2667732 0.34635755 -0.75360435
6.2509432 0.30702609 -0.75135148
6.2596478 0.26896209 -0.7522276
6.2651463 0.23069383 -0.75272822
6.2922277 0.19303349 -0.7559824
6.2962689 0.15449393 -0.75635785
6.2980905 0.1158759 -0.75648302
6.2629685 0.076798074 -0.75197726
6.3069754 0.038627062 -0.75748432
6.3368573 -7.8382502e-05 -0.76123911
6.2821712 -0.038615074 -0.75435531
6.2699113 -0.077012591 -0.75285339
6.3248711 -0.11651617 -0.75986236
6.2605596 -0.15375191 -0.7518521
6.2555318 -0.19204056 -0.75135148
6.2611756 -0.23067716 -0.7522276
6.2358532 -0.26806358 -0.74922377
6.2628284 -0.30773842 -0.75285339
6.2558689 -0.34588584 -0.7522276
6.289278 -0.38646182 -0.75673336
6.2966871 -0.42571592 -0.75798494
6.2998929 -0.46478271 -0.7587359
6.2939558 -0.50319165 -0.75836045
6.2927265 -0.5419718 -0.75861079
6.2715001 -0.57892817 -0.75635785
6.3023868 -0.6208089 -0.76073849
6.2747774 -0.65698403 -0.75773466
6.227241 -0.69065279 -0.7522276
6.2494917 -0.73197055 -0.75560689
6.2803302 -0.77468204 -0.7601127
6.2843132 -0.81435198 -0.76123911
6.2978768 -0.85543704 -0.76361716
6.258131 -0.88917291 -0.75923657
6.271203 -0.93032497 -0.76161462
6.2732205 -0.9700011 -0.76261586
6.2269907 -1.0020047 -0.75748432
6.2383389 -1.0431426 -0.75973719
6.2347531 -1.0819101 -0.7601127
6.2279973 -1.1201454 -0.7601127
6.1488318 -1.144886 -0.75085086
6.1748142 -1.1889772 -0.75510627
6.1450229 -1.2223866 -0.7522276
6.1140828 -1.2552756 -0.74922377
6.1654711 -1.3053133 -0.75685853
6.177701 -1.3475636 -0.75948685
6.1954522 -1.3913182 -0.7628662
6.1916318 -1.4304241 -0.76349199
6.1711555 -1.4656352 -0.76199007
6.1485524 -1.5001782 -0.76023781
6.1344204 -1.5366704 -0.75961202
6.1402497 -1.5782362 -0.76161462
6.1381249 -1.6179067 -0.76261586
6.1098847 -1.6506194 -0.76023781
6.1225891 -1.6944331 -0.76324171
6.0939412 -1.7268261 -0.76086366
6.1203914 -1.7749695 -0.76574486
6.1607451 -1.8277375 -0.77250355
6.1114397 -1.8539771 -0.76749712
6.0828924 -1.8861492 -0.76524425
6.0579643 -1.9192401 -0.76349199
6.1055393 -1.9756286 -0.77137709
6.0659842 -2.0040238 -0.76774746
6.0751953 -2.0485013 -0.77062613
6.06814 -2.087677 -0.77137709
6.094533 -2.1386759 -0.7766338
6.0672841 -2.1710145 -0.77475643
6.0435967 -2.2044604 -0.77337962
5.990901 -2.2269754 -0.76812291
6.0272226 -2.2826772 -0.77488154
5.9862614 -2.3092566 -0.77125192
5.9950638 -2.3550169 -0.77438092
5.9786582 -2.3910205 -0.77413058
5.9326339 -2.4149363 -0.76987517
5.9607816 -2.469146 -0.77575767
5.9199219 -2.4948809 -0.77225322
5.909061 -2.5331132 -0.772879
5.9115949 -2.5772562 -0.77538222
5.8983903 -2.6146872 -0.77575767
5.8894715 -2.6540921 -0.77675897
5.868566 -2.6881125 -0.77613318
5.8204832 -2.7094107 -0.77175254
5.8145103 -2.7501659 -0.77325451
5.7975264 -2.7857914 -0.77325451
5.7812152 -2.8217473 -0.77337962
5.7860136 -2.8681872 -0.77650863
5.7266583 -2.8826618 -0.77062613
5.7327137 -2.9299409 -0.77400547
5.7146277 -2.9650609 -0.77400547
5.7059822 -3.0051568 -0.77538222
5.6935596 -3.0433865 -0.77625835
5.6922188 -3.0877287 -0.77876151
5.6670823 -3.1192474 -0.77788544
5.6513009 -3.1558969 -0.77838606
5.6335564 -3.1914916 -0.7786364
5.6078467 -3.2225368 -0.77776027
5.5793972 -3.2518878 -0.77650863
5.5601931 -3.2865663 -0.7766338
5.5475802 -3.3252132 -0.77776027
5.519443 -3.3545508 -0.7766338
5.513958 -3.3977258 -0.77888668
5.4997373 -3.4357011 -0.77988797
5.4718475 -3.4651346 -0.77888668
5.4337864 -3.4879222 -0.77638346
5.4380598 -3.5379748 -0.78026342
5.4112797 -3.5679979 -0.77951247
5.4049568 -3.6116097 -0.78189051
5.3753018 -3.639698 -0.7807641
5.3561397 -3.6748576 -0.78126472
5.3334904 -3.707653 -0.78126472
5.3098292 -3.7397375 -0.78113955
5.27144 -3.7612958 -0.77876151
5.239418 -3.7871752 -0.77738476
5.2472968 -3.8421168 -0.78226602
5.2403555 -3.886656 -0.78489435
5.2084775 -3.9127765 -0.78364277
5.1764765 -3.9386525 -0.78239119
5.1561408 -3.9733694 -0.78301698
5.1394839 -4.0110373 -0.78426856
5.1116629 -4.0400357 -0.78376794
5.0952964 -4.0781455 -0.78514469
5.075572 -4.1137066 -0.78602082
5.0640378 -4.1561046 -0.78827369
5.0308118 -4.1807561 -0.78702211
5.0012693 -4.2083511 -0.78639627
4.9715781 -4.2357416 -0.78577048
4.9492502 -4.2694077 -0.78639627
4.9364085 -4.3114452 -0.7886492
4.9098611 -4.3416533 -0.7886492
4.8742599 -4.3637552 -0.78714728
4.8444529 -4.3909154 -0.7866466
4.8313065 -4.4333053 -0.78902465
4.8265429 -4.4838033 -0.79290462
4.7996626 -4.5140138 -0.79302979
4.7776217 -4.5488529 -0.79403108
4.747478 -4.5760164 -0.79365557
4.7299604 -4.6154556 -0.795533
4.70014 -4.6429963 -0.79528266
4.6575346 -4.6577148 -0.79277945
4.6246853 -4.6819692 -0.79202849
4.6041832 -4.7187805 -0.7935304
4.587533 -4.7598033 -0.79578328
4.5657649 -4.7957678 -0.79716009
4.5389709 -4.8265839 -0.79766071
4.5052195 -4.8499813 -0.79690975
4.4834232 -4.8863072 -0.79841167
4.4613509 -4.9225483 -0.79991359
4.4363556 -4.9557447 -0.80091488
4.4196625 -4.9984832 -0.80354321
4.4065261 -5.0456872 -0.80692255
4.3605819 -5.0553484 -0.80404389
4.3262644 -5.0782323 -0.80341804
4.3007712 -5.111516 -0.80454451
4.2458706 -5.109571 -0.79991359
2.8860834 -3.5162728 -0.53570068
2.8457174 -3.5107882 -0.53194588
2.7956116 -3.4925461 -0.52618849
2.7513731 -3.480829 -0.52155757
2.7177584 -3.4820004 -0.51905435
2.666676 -3.4600968 -0.51292151
2.6321821 -3.4590206 -0.51016802
2.6001852 -3.4608257 -0.50791514
2.5611751 -3.4528048 -0.50416034
2.5235341 -3.4460375 -0.50065583
2.4924645 -3.4477854 -0.49852812
2.462045 -3.4500902 -0.49652556
2.4271224 -3.4456615 -0.49352172
2.3923473 -3.4409351 -0.49051788
2.3274217 -3.3917286 -0.48075539
2.2865472 -3.3763664 -0.47624964
2.2740529 -3.4027085 -0.47812703
2.2476716 -3.4083138 -0.47687542
2.2229302 -3.4162188 -0.4759993
2.206213 -3.4364746 -0.47700059
2.1771262 -3.4373722 -0.4751232
2.153892 -3.4472997 -0.47462255
2.1285369 -3.4536929 -0.47362128
2.0990636 -3.4531212 -0.47161871
2.0768163 -3.4642336 -0.47136837
2.037858 -3.4470146 -0.46698779
2.0071805 -3.4431655 -0.46460974
1.9870039 -3.4571373 -0.46486005
1.955977 -3.4519973 -0.46235687
1.9260552 -3.4483402 -0.46010399
1.8981652 -3.4479234 -0.45835173
1.8684616 -3.4438059 -0.45609885
1.8426205 -3.446455 -0.45484725
1.8182038 -3.4515507 -0.45397115
1.7910535 -3.4511924 -0.45234406
1.763525 -3.4497476 -0.4505918
1.7400951 -3.4560721 -0.44996601
1.7162136 -3.46135 -0.44921505
1.6927679 -3.4673567 -0.44858927
1.666736 -3.4678404 -0.44721249
1.6441543 -3.475311 -0.44683701
1.6223807 -3.4844344 -0.44671184
1.6022091 -3.4970298 -0.44708732
1.5794992 -3.5040812 -0.44671184
1.5595764 -3.5173352 -0.44721249
1.5403429 -3.5322957 -0.44796345
1.5217658 -3.5489762 -0.44896474
1.5026568 -3.5646472 -0.44984084
1.4864488 -3.5875506 -0.45171824
0 -0 -0
0 -0 -0
1.4426403 -3.6715617 -0.45947817
1.4261519 -3.6960819 -0.46160591
1.4111726 -3.7251766 -0.46435943
1.3986537 -3.7616665 -0.46811423
0 -0 -0
1.364079 -3.811244 -0.47249484
0 -0 -0
0 -0 -0
1.3111197 -3.8874173 -0.47937864
1.2975062 -3.9264791 -0.48350891
1.2810204 -3.9579668 -0.48663792
1.2710841 -4.0111542 -0.49264559
1.2825654 -4.1354437 -0.50804031
1.2721331 -4.1926079 -0.5145486
1.2759922 -4.3002129 -0.52769041
1.130565 -3.8972473 -0.47374642
0 -0 -0
1.2106377 -4.3736525 -0.53432393
1.7471708 -6.4681621 -0.80704772
1.6960797 -6.4355869 -0.8014155
1.6590276 -6.455482 -0.80266708
1.6184227 -6.4616904 -0.80216646
1.5796839 -6.4753547 -0.80266708
1.5431288 -6.4984403 -0.80441934
1.5003256 -6.4952192 -0.80279225
1.4619637 -6.5110793 -0.80366838
1.4243087 -6.5305901 -0.80504513
1.3813368 -6.5256176 -0.80329293
1.3418683 -6.5368862 -0.80366838
1.2999932 -6.5362387 -0.80254197
1.2579893 -6.5343494 -0.80129033
1.2207741 -6.5575519 -0.80329293
1.1808655 -6.5668716 -0.80354321
1.1408886 -6.5759492 -0.80379355
1.0951248 -6.5505323 -0.79966325
1.0533367 -6.5473328 -0.79841167
1.0158685 -6.571322 -0.80066454
0.97654623 -6.5843015 -0.80154067
0.93724221 -6.5980282 -0.80254197
0.89980638 -6.626267 -0.80542064
0.85760391 -6.6198559 -0.80391872
0.81563526 -6.6141615 -0.80254197
0.77411455 -6.6111584 -0.80154067
0.7328797 -6.6098671 -0.80078971
0.69024628 -6.5945044 -0.7982865
0.64967316 -6.5976281 -0.79816133
0.60799575 -6.5886469 -0.79653424
0.56670785 -6.5823684 -0.79528266
0.52496785 -6.5689087 -0.79315495
0.48356003 -6.5571642 -0.79127753
0.44351709 -6.5629778 -0.79165304
0.40451258 -6.5863714 -0.79428136
0.36458284 -6.5976453 -0.79540783
0.32404512 -6.5987673 -0.79528266
0.28376177 -6.6055875 -0.79590845
0.2427531 -6.5943151 -0.79428136
0.15039666 -4.8939648 -0.5795067
0.1205341 -4.9017386 -0.58038282
0.090672135 -4.9142895 -0.58188474
0.060672656 -4.92765 -0.58351183
0.030436022 -4.9279299 -0.58351183
0.00016025431 -5.1214905 -0.60791802
-0.031007042 -5.080718 -0.60278648
-0.062416185 -5.0992813 -0.60516453
-0.094054289 -5.1176496 -0.60754257
-0.15726155 -6.4023919 -0.76975
-0.19749241 -6.4320478 -0.77362996
-0.23713855 -6.4356723 -0.77425575
-0.27337021 -6.3587637 -0.76474363
-0.23657438 -4.8200312 -0.5706203
-0.26559553 -4.8085828 -0.56936872
-0.29527855 -4.8098335 -0.56974423
-0.32552376 -4.8188195 -0.57112098
-0.35574397 -4.8256364 -0.57224739
-0.38471282 -4.8154511 -0.57124615
-0.40973085 -4.7606115 -0.56461263
-0.5764609 -6.2448263 -0.75297856
-0.61622924 -6.2559819 -0.75485593
-0.65584552 -6.2639236 -0.75635785
-0.69196737 -6.2390742 -0.75372952
-0.7266531 -6.204164 -0.74984956
-0.77346563 -6.2704835 -0.75886106
-0.81856543 -6.3167815 -0.76536942
-0.85811138 -6.3175387 -0.76612037
-0.90035254 -6.3367105 -0.76924938
-0.93688458 -6.3153648 -0.76724678
-0.97561729 -6.3094974 -0.76724678
-0.82163787 -5.1074142 -0.61442637
-0.85083139 -5.0895562 -0.61279929
-0.86693126 -4.9972425 -0.60166001
-0.89599526 -4.9830413 -0.6005336
-0.9229179 -4.957943 -0.59803039
-0.94994193 -4.9346509 -0.59577751
-1.2851608 -6.4602861 -0.79277945
-1.2910244 -6.2880402 -0.77162743
-1.3351361 -6.3062057 -0.77500671
-1.3801538 -6.3269739 -0.77876151
-1.4226481 -6.3348422 -0.78088927
-1.4601501 -6.3201938 -0.78013831
-1.4849074 -6.2522359 -0.77250355
-1.5133578 -6.2025266 -0.76724678
-1.5494572 -6.1854253 -0.76624554
-1.5839208 -6.1623492 -0.76449329
-1.6277757 -6.1755385 -0.76749712
-1.6690035 -6.1778851 -0.76912421
-1.7089974 -6.1751771 -0.77012551
-1.7287208 -6.1006231 -0.76173973
-1.7467648 -6.0232034 -0.75297856
-1.7032176 -5.7413058 -0.71730793
-1.8378385 -6.0582757 -0.76048815
-1.91555 -6.17765 -0.77776027
-1.9345307 -6.1061978 -0.76987517
-1.9765455 -6.1083713 -0.77175254
-2.0139885 -6.0961285 -0.77175254
-2.0548446 -6.0939965 -0.77312934
-2.0886457 -6.0709543 -0.77175254
-2.1179686 -6.0355577 -0.7687487
-2.1379066 -5.9748111 -0.76236558
-2.1745272 -5.9615803 -0.76236558
-2.2117574 -5.9499855 -0.76261586
-2.2489274 -5.938158 -0.7628662
-2.2849636 -5.9233212 -0.76274103
-2.314733 -5.8925686 -0.76048815
-2.3501084 -5.8764124 -0.76023781
-2.367784 -5.8168583 -0.75410497
-2.3988729 -5.7912216 -0.75260305
-2.4258816 -5.7562814 -0.74984956
-2.4509881 -5.7175808 -0.74659538
-2.482851 -5.695159 -0.74559408
-2.5084977 -5.658958 -0.74271542
-2.5386875 -5.6335106 -0.74133867
-2.5657663 -5.6015925 -0.73908579
-2.6013453 -5.5884418 -0.73946124
-2.6279478 -5.5562329 -0.73720837
-2.6512442 -5.5176492 -0.73407936
-2.6515284 -5.4326301 -0.72444206
-2.6676211 -5.3815937 -0.7195608
-2.6916668 -5.3474021 -0.71705759
-2.7131352 -5.3087015 -0.71392864
-2.731945 -5.2655373 -0.71017379
-2.7572651 -5.2355089 -0.70829642
-2.7724946 -5.186996 -0.70379066
-2.7867601 -5.1376224 -0.69915974
-2.8129673 -5.1108665 -0.69778293
-2.8205636 -5.0510697 -0.69165009
-2.8495464 -5.0302153 -0.69114947
-2.8605785 -4.978231 -0.6861431
-2.8875723 -4.9545856 -0.68526697
-2.9138787 -4.9299421 -0.68426567
-2.931828 -4.8915491 -0.68126184
-2.9458082 -4.8471875 -0.67738187
-2.9609168 -4.8053737 -0.67387736
-2.9793043 -4.7694473 -0.67124903
-2.9803724 -4.7066569 -0.66461551
-3.0016906 -4.6765938 -0.66286331
-3.0324941 -4.6614137 -0.66336393
-3.0506592 -4.6269832 -0.66098589
-3.0729275 -4.5991044 -0.65960914
-3.095525 -4.5719485 -0.65835756
-3.1235197 -4.5528688 -0.65835756
-3.1264729 -4.4977779 -0.65285051
-3.1757267 -4.5093293 -0.6576066
-3.181432 -4.4590726 -0.65285051
-3.1936176 -4.4185648 -0.64959633
-3.2236006 -4.4028878 -0.65022212
-3.2535114 -4.3870091 -0.65084791
-3.240433 -4.3138232 -0.64246219
-3.2638366 -4.2899117 -0.6418364
-3.2767713 -4.2525182 -0.63908291
-3.2912021 -4.2174735 -0.63670486
-3.3151722 -4.1948647 -0.63632935
-3.3383687 -4.1713467 -0.63582873
-3.346405 -4.1292057 -0.63232422
-3.360976 -4.0955591 -0.63019651
-3.397459 -4.0885921 -0.63244939
-3.3918142 -4.0312357 -0.62644172
-3.3913865 -3.9808993 -0.62156045
-3.3969517 -3.9382327 -0.61793083
-3.4223578 -3.9188094 -0.61818117
-3.4410801 -3.8917916 -0.61717987
-3.4397426 -3.8425195 -0.61242378
-3.4572573 -3.8147264 -0.61129737
-3.4510784 -3.7612822 -0.60579032
-3.4605844 -3.7255006 -0.6032871
-3.4663827 -3.6861317 -0.6001581
-3.4588277 -3.6331825 -0.59465104
-3.4721029 -3.6026065 -0.59302396
-3.4983008 -3.585494 -0.59377491
-3.5139587 -3.5576103 -0.59264851
-3.5343184 -3.534579 -0.59239817
-3.5234647 -3.4807603 -0.58664083
-3.5333922 -3.4479914 -0.58463824
-3.5509098 -3.4228041 -0.58401245
-3.5581899 -3.3879561 -0.5816344
-3.5478275 -3.3368387 -0.57625252
-3.5762324 -3.322433 -0.57762927
-3.5643804 -3.2709193 -0.57212222
-3.5733545 -3.2389951 -0.57024485
-3.58355 -3.2084076 -0.56861776
-3.5972221 -3.1811025 -0.56761646
-3.6151783 -3.1576655 -0.56736618
-3.621712 -3.1244094 -0.56523842
-3.6121118 -3.0776842 -0.56048238
-3.6096683 -3.0375814 -0.55697787
-3.6061063 -2.9969912 -0.55334824
-3.6205924 -2.9716618 -0.55272245
-3.6325908 -2.9443941 -0.55172116
-3.6110783 -2.89044 -0.54533798
-3.6349738 -2.8731487 -0.54633927
-3.6376715 -2.8391962 -0.54396123
-3.6298721 -2.7974486 -0.53995609
-3.6248569 -2.758307 -0.53645164
-3.6409202 -2.7354176 -0.53632647
-3.6600268 -2.7147985 -0.53670192
-3.6557996 -2.6770549 -0.5334478
-3.6504436 -2.638885 -0.53006846
-3.6681821 -2.6175888 -0.5303188
-3.6760616 -2.5893209 -0.52906716
-3.6698818 -2.5514307 -0.52568787
-3.6560123 -2.5086641 -0.52118212
-3.6943421 -2.5017548 -0.52468657
-3.6774466 -2.4575489 -0.51980531
-3.6883147 -2.4322085 -0.51917952
-3.706496 -2.411695 -0.5196802
-3.7120385 -2.3830137 -0.51830339
-3.7031178 -2.3453348 -0.51479894
-3.7157557 -2.3215177 -0.5145486
-3.7299302 -2.2986746 -0.5145486
-3.7380288 -2.2721391 -0.51367247
-3.7493467 -2.2476306 -0.51329702
-3.7587965 -2.2220592 -0.51267123
-3.7697883 -2.1974556 -0.51229572
-3.7668543 -2.1648948 -0.50991768
-3.7714336 -2.1368525 -0.5086661
-3.7749445 -2.1083522 -0.50728935
-3.7721632 -2.0765419 -0.50503647
-3.7543068 -2.0368063 -0.50065583
-3.7737343 -2.0174723 -0.50165713
-3.7605822 -1.980877 -0.49802747
-3.7603354 -1.9513708 -0.49627525
-3.7784228 -1.9314204 -0.49715137
-3.7875438 -1.9068624 -0.49677587
-3.8045068 -1.8862293 -0.49752685
-3.7847996 -1.847625 -0.49314624
-3.7817557 -1.817495 -0.49114367
-3.7811759 -1.7887441 -0.48951659
-3.7875824 -1.763417 -0.4888908
-3.795625 -1.7389047 -0.48851532
-3.8098416 -1.7172122 -0.48901597
-3.8411698 -1.7030463 -0.49189463
-3.8515472 -1.6794453 -0.49189463
-3.8435404 -1.6479667 -0.48939145
-3.8490081 -1.6224266 -0.48876563
-3.860724 -1.599538 -0.48901597
-3.851167 -1.5679679 -0.48638758
-3.8551877 -1.5420988 -0.48563662
-3.8978238 -1.5314667 -0.49014241
-0 -0 -0
-0.26689813 -0.10226369 0.0021121786
-0.26752058 -0.10062411 0.0021121786
-0 -0 -0
-0.26593262 -0.09633147 0.0024876588
-0 -0 -0
-0.26334178 -0.091770545 0.0029882991
-0.26201954 -0.089519367 0.0032386193
-0.25973752 -0.086976871 0.0036140995
-0.2602663 -0.085381515 0.0036140995
-0.25983945 -0.083483495 0.0037392594
-0.25750372 -0.081006676 0.0041147396
-0 -0 -0
-0 -0 -0
-0 -0 -0
-0.26609644 -0.07655485 0.0032386193
-0.26751739 -0.075185098 0.0031134591
-0.26988941 -0.074059337 0.0028631389
-0.27129817 -0.072654605 0.0027379789
-0.27366078 -0.071482152 0.0024876588
-0.27601913 -0.070283413 0.0022373386
-0.27740908 -0.068823442 0.0021121786
-0.27782616 -0.067119993 0.0021121786
-0 -0 -0
-0.27572468 -0.063054018 0.0024876588
-0.27416763 -0.06093853 0.0027379789
-0.27453637 -0.059255123 0.0027379789
-0.27489477 -0.057569481 0.0027379789
-0.27426973 -0.05568831 0.0028631389
-0.27558056 -0.054191764 0.0027379789
-0.2788341 -0.053044043 0.0023624988
-0 -0 -0
-0.27946404 -0.049618326 0.0023624988
-0.27976322 -0.047902633 0.0023624988
-0 -0 -0
-0.28131053 -0.044617303 0.0022373386
-0.28157899 -0.042890374 0.0022373386
-0.27888995 -0.040743753 0.002612819
-0 -0 -0
-0 -0 -0
-0 -0 -0
-0.27487874 -0.033311125 0.0032386193
-0 -0 -0
-0 -0 -0
-0.27149582 -0.027857654 0.0037392594
-0.26869777 -0.025918286 0.0041147396
-0.26984024 -0.024354028 0.0039895796
-0 -0 -0
-0 -0 -0
-0.27024281 -0.019383026 0.0039895796
-0 -0 -0
-0 -0 -0
-0.27352664 -0.014550918 0.0036140995
-0 -0 -0
-0 -0 -0
-0.27672318 -0.0096044382 0.0032386193
-0 -0 -0
-0 -0 -0
-0.28578165 -0.0046170647 0.0021121786
-0 -0 -0
-0.28780106 -0.001109347 0.0018618584
-0 0 -0
-0 0 -0
-0.28281289 0.0040960335 0.0024876588
-0 0 -0
-0 0 -0
-0 0 -0
-0.27370629 0.010650218 0.0036140995
-0 0 -0
-0 0 -0
-0 0 -0
-0.27336249 0.0173641 0.0036140995
-0 -0 -0
-0 -0 -0
-0 -0 -0
-0 -0 -0
-0 -0 -0
-0 0 -0
-0 0 -0
-0 0 -0
-0 0 -0
-0 0 -0
-0 0 -0
-0 0 -0
-0 0 -0
-0 0 -0
-0 0 -0
-0 0 -0
-0 0 -0
-0 0 -0
-0 0 -0
-0 0 -0
-0 0 -0
-0 0 -0
-0 0 -0
-0 0 -0
-0 0 -0
-0 0 -0
-0 0 -0
-0 0 -0
-0 0 -0
-0 0 -0
-0 0 -0
-0 0 -0
-0 0 -0
-0 0 -0
-0 0 -0
-0 0 -0
-0 0 -0
-0 0 -0
-0 0 -0
-0 0 -0
-0 0 -0
-0 0 -0
-0 0 -0
-0 0 -0
-0 0 -0
-0 0 -0
-0 0 -0
-0 0 -0
-0 0 -0
-0 0 -0
-0 0 -0
-0 0 -0
-0 0 -0
-0 0 -0
-0 0 -0
-0 0 -0
-0 0 -0
-0 0 -0
-0 0 -0
-0 0 -0
-0 0 -0
-0 0 -0
-0 0 -0
-0 0 -0
-0 0 -0
-0 0 -0
-0 0 -0
-0 0 -0
-0 0 -0
-0 0 -0
-0 0 -0
-0 0 -0
-0 0 -0
-0 0 -0
-0 0 -0
-0 0 -0
-0 0 -0
-0 0 -0
-0 0 -0
-0 0 -0
-0 0 -0
-0 0 -0
-0 0 -0
-0 0 -0
-0 0 -0
-0 0 -0
-0 0 -0
-0 0 -0
-0 0 -0
-0 0 -0
-0 0 -0
-0 0 -0
-0 0 -0
-0 0 -0
-0 0 -0
-0 0 -0
-0 0 -0
-0 0 -0
-0 0 -0
-0 0 -0
-0 0 -0
-0 0 -0
-0 0 -0
-0 0 -0
-0 0 -0
-0 0 -0
-0 0 -0
-0 0 -0
-0 0 -0
-0 0 -0
-0 0 -0
-0 0 -0
-0 0 -0
-0 0 -0
-0 0 -0
-0 0 -0
-0 0 -0
-0.2284953 0.19023208 -0.0027335186
-0 0 -0
-0.25933281 0.22127387 -0.0087582581
-0.26997575 0.2332083 -0.010949072
-0.26853973 0.23486045 -0.010949072
-0.24927713 0.22076291 -0.0076628509
-0.26785234 0.2401194 -0.01135985
-0.26637396 0.24175839 -0.01135985
-0.24517137 0.22531387 -0.0076628509
-0.26556525 0.24703068 -0.011770627
-0.26621014 0.25069049 -0.012181406
-0.24098255 0.22978851 -0.0076628509
-0.26739478 0.25806126 -0.013002961
-0.26793414 0.26177162 -0.013413738
-0.26420784 0.26132318 -0.013002961
-0.27521268 0.27554223 -0.015467627
-0.27490968 0.27863461 -0.015741479
-0.24551113 0.25196806 -0.010264443
-0.25083777 0.26059911 -0.011633702
-0 0 -0
-0.24965772 0.26582161 -0.01204448
-0.26420975 0.28475985 -0.015330701
-0.26714772 0.29148284 -0.016289182
-0.24738467 0.27330673 -0.012592183
-0.26024556 0.29105037 -0.015604553
-0.2630502 0.2978344 -0.016563034
-0.22666599 0.25991425 -0.0093059614
-0.23283489 0.27029786 -0.010949072
-0 0 -0
-0 0 -0
-0 0 -0
-0 0 -0
-0 0 -0
-0 0 -0
-0 0 -0
-0 0 -0
-3.3790765 4.3819866 -0.72652382
-3.3911343 4.4538641 -0.73542398
-3.3792195 4.4951735 -0.73898405
-3.3403561 4.500711 -0.73638248
-3.3296576 4.5442934 -0.74035335
-3.3127434 4.5798874 -0.74295491
-3.2966685 4.6170564 -0.74583036
-3.2814033 4.6558194 -0.74897969
-3.2669175 4.6961942 -0.75240278
-3.2391622 4.7177844 -0.75267667
-3.2607241 4.8121924 -0.7651369
-3.2283821 4.827992 -0.76445228
-3.1976061 4.8460565 -0.76417845
-3.1948378 4.9070907 -0.7710247
-3.1759124 4.9441032 -0.77390015
-3.1529403 4.9752107 -0.77581716
-3.1291809 5.0053821 -0.77759719
-3.1036093 5.0329189 -0.77896643
-3.0855401 5.0730252 -0.78238958
-3.0553737 5.0935612 -0.7826634
-3.0275934 5.1181803 -0.78362191
-2.9986274 5.1409392 -0.78430653
-2.9502347 5.1300468 -0.77965105
-2.9651198 5.2299128 -0.79265904
-2.9334574 5.2488728 -0.79279596
-2.8839874 5.235539 -0.78786659
-2.8499179 5.2496543 -0.78731889
-2.827934 5.2862573 -0.7903313
-2.8079176 5.3271689 -0.79402828
-2.7683294 5.3311114 -0.79197437
-2.7360172 5.3488793 -0.79211134
-2.7223127 5.4036055 -0.79799914
-2.6882248 5.4184327 -0.79772526
-2.653188 5.4312654 -0.79717755
-2.6271119 5.4626184 -0.79950529
-2.5926967 5.4768443 -0.79923147
-2.5682473 5.512403 -0.80224383
-2.5442846 5.5496683 -0.80553007
-2.5244417 5.5967784 -0.81032246
-2.4828207 5.5958652 -0.80785781
-2.4452684 5.6037312 -0.8067624
-2.4151359 5.6286426 -0.80826855
-2.3817089 5.6460938 -0.80867934
-2.3500559 5.6679215 -0.80977476
-2.3200939 5.69416 -0.81155479
-2.2887936 5.7174845 -0.81292403
-2.2569315 5.7397175 -0.81415641
-2.2298791 5.7747107 -0.81730568
-2.1901898 5.7771697 -0.81566256
-2.1557372 5.7932849 -0.81607336
-2.1184504 5.8017507 -0.81538874
-2.0904961 5.8360882 -0.81853801
-2.0576026 5.8572168 -0.81977034
-2.0177529 5.8584929 -0.81812721
-1.987155 5.8867183 -0.82045496
-1.9562863 5.9147882 -0.8227827
-1.9205678 5.928565 -0.82305658
-1.877864 5.9204097 -0.82018113
-1.8423829 5.9346585 -0.82059193
-1.8122686 5.9667034 -0.82360429
-1.7761878 5.97961 -0.82387811
-1.7386352 5.9875422 -0.82346737
-1.6986183 5.9866619 -0.82182425
-1.6605299 5.9921989 -0.82113963
-1.62192 5.9955816 -0.82018113
-1.5818141 5.9929695 -0.8184011
-1.5511867 6.026545 -0.82182425
-1.5161079 6.0436358 -0.82291967
-1.47735 6.0460892 -0.82196116
-1.4397656 6.0531125 -0.82168734
-1.3947796 6.0280557 -0.81689489
-1.3381964 5.9495225 -0.80457157
-1.3173169 6.0292339 -0.81470412
-1.2815307 6.0430174 -0.81552565
-1.2296561 5.9789677 -0.80539316
-1.1987563 6.0155444 -0.80950093
-1.1670785 6.0500202 -0.81333482
-1.1290257 6.0521984 -0.8126502
-1.0911658 6.0551128 -0.8121025
-1.0612913 6.1036587 -0.8179903
-1.0239837 6.111033 -0.81812721
-0.98694122 6.1201348 -0.81853801
-0.94329965 6.0869198 -0.813061
-0.90447569 6.0827951 -0.8116917
-0.87244546 6.1254959 -0.81689489
-0.83230299 6.1120853 -0.81429332
-0.79286885 6.1023421 -0.81223941
-0.75431567 6.0982447 -0.81100708
-0.71214253 6.0624223 -0.80539316
-0.67668426 6.0824294 -0.80758393
-0.63727945 6.0667639 -0.80484545
-0.59974998 6.0676026 -0.80443466
-0.56095386 6.0544004 -0.80210692
-0.5255022 6.0774665 -0.80484545
-0.48804298 6.0786018 -0.80457157
-0.44941711 6.0637002 -0.80210692
-0.41247138 6.0702968 -0.80265462
-0.37625656 6.0895214 -0.80498236
-0.33838913 6.0828137 -0.80375004
-0.30125538 6.0887332 -0.80429775
-0.2633746 6.0785913 -0.80265462
-0.22680953 6.0998907 -0.80539316
-0.18857633 6.0754247 -0.80183303
-0.15013281 6.0299249 -0.79539752
-0.11294462 6.0208282 -0.79402828
-0.075836018 6.0085316 -0.79224825
-0.039005864 6.0148273 -0.79306978
-0.0020992549 6.015944 -0.79320675
0.034519214 5.964334 -0.78608656
0.070844881 5.9412284 -0.78293729
0.10704872 5.926816 -0.78102034
0.14279157 5.9002995 -0.77746028
0.17926222 5.9082236 -0.7786926
0.21450162 5.8792944 -0.77485865
0.25061437 5.8788576 -0.77499557
0.28624791 5.8683043 -0.77376324
0.32241255 5.8694048 -0.77417403
0.35896346 5.8762145 -0.77540636
0.3946805 5.8689599 -0.77472174
0.4282206 5.8328381 -0.77006626
0.46353102 5.8241758 -0.76924467
0.49815923 5.8083916 -0.76746464
0.52798885 5.7420945 -0.75870138
0.56591898 5.7663503 -0.76253533
0.60015988 5.7519317 -0.76102912
0.63076442 5.7058034 -0.75514132
0.66300714 5.6782122 -0.75185508
0.69626445 5.6612558 -0.75007504
0.73174948 5.6627717 -0.75089663
0.76595014 5.6542487 -0.75034893
0.79673964 5.6219802 -0.74651498
0.82745194 5.5915079 -0.74295491
0.86672664 5.6186328 -0.74747348
0.89694774 5.5868011 -0.7437765
0.93284041 5.5909629 -0.74514574
0.96172202 5.5538998 -0.74076408
0.98336178 5.4786682 -0.73104239
0.98475736 5.2991734 -0.70666957
1.0060409 5.234664 -0.69845402
1.0167348 5.1205416 -0.68325526
1.0226873 4.9899921 -0.66572869
1.0493957 4.9652085 -0.66312712
1.0787884 4.9538364 -0.66244251
1.1043983 4.925859 -0.65943015
1.1234738 4.8707271 -0.65258384
1.144428 4.8261509 -0.64724374
1.1773007 4.8325119 -0.64916068
1.1992408 4.7944455 -0.64477903
1.2148501 4.7332649 -0.63711119
1.244122 4.7266793 -0.6372481
1.2669103 4.696003 -0.63396192
1.2943816 4.6833668 -0.6332773
1.3265994 4.6877279 -0.63505733
1.3467972 4.650003 -0.63081259
1.3702397 4.6245556 -0.62834793
1.3911235 4.5914116 -0.62478787
1.4189768 4.5818434 -0.62465096
1.4470637 4.5730505 -0.62465096
1.4744871 4.5622001 -0.62437707
1.5058662 4.5634146 -0.62588328
1.5259358 4.5306191 -0.62246013
1.5443726 4.4940028 -0.61848927
1.5751942 4.4937906 -0.61985856
1.6044046 4.4887047 -0.62054318
1.6247965 4.4592299 -0.61766773
1.646956 4.4352465 -0.61561382
1.6755409 4.4287639 -0.61616153
1.7044643 4.4230213 -0.61684614
1.7453194 4.4475212 -0.62204933
1.7696365 4.429369 -0.62095392
1.7945428 4.4129214 -0.62013239
1.8204501 4.3990812 -0.61972159
1.8466395 4.3860025 -0.61944777
1.8583105 4.3390751 -0.61410767
1.8959731 4.3530211 -0.61794156
1.9242512 4.3449287 -0.61848927
1.9569739 4.3465891 -0.62054318
1.9782495 4.3227892 -0.61876315
2.008913 4.3195519 -0.62013239
2.0150678 4.264153 -0.61355996
2.0600548 4.2910023 -0.61958468
2.0872133 4.2800617 -0.61985856
2.1169524 4.2742763 -0.62095392
2.1271188 4.2293463 -0.61602461
2.1516781 4.2135682 -0.61561382
2.1774917 4.2002864 -0.61561382
2.2129087 4.2052565 -0.61848927
2.2517347 4.2160659 -0.62232322
2.2728422 4.1934605 -0.62095392
2.2980528 4.1785679 -0.62081701
2.3246138 4.1661186 -0.62109089
2.3540361 4.1586733 -0.6221863
2.382468 4.1493058 -0.62300783
2.4223378 4.1594343 -0.6269787
2.4483175 4.1453457 -0.62711561
2.4798138 4.1404433 -0.62875873
2.5056865 4.1259961 -0.62889564
2.5319946 4.1122313 -0.62916952
2.5634725 4.1067019 -0.63081259
2.609807 4.1243801 -0.63628966
2.6110015 4.0707655 -0.63012797
2.6467268 4.071279 -0.6328665
2.7054436 4.1062508 -0.64135593
2.7344382 4.0953403 -0.64231437
2.7711711 4.0957146 -0.64518982
2.7805679 4.0557566 -0.64135593
2.8161376 4.0540776 -0.6439575
2.8535011 4.0545444 -0.64696985
2.8702753 4.0256667 -0.64505291
2.9024618 4.0184193 -0.64683294
2.9527977 4.0357118 -0.65285766
3.0099413 4.0612917 -0.66038859
3.0252903 4.0300703 -0.65819782
3.0631499 4.0287809 -0.66121018
3.087208 4.0091248 -0.66107321
3.1068766 3.9838572 -0.65997785
3.1631851 4.0051446 -0.66709799
3.1920314 3.991076 -0.66805643
3.2239406 3.9806528 -0.66969955
3.2545857 3.968456 -0.67106885
3.2946942 3.9674647 -0.674492
3.3279004 3.9577892 -0.67640895
3.3598275 3.9463468 -0.67805207
3.4092002 3.9549203 -0.68339217
3.4275413 3.9272101 -0.68215984
3.4528854 3.9075899 -0.68243366
3.4715137 3.8804233 -0.68133825
3.515871 3.8818111 -0.685583
3.5269041 3.8462923 -0.68298137
3.5605464 3.8354695 -0.68503529
3.5880835 3.8178816 -0.68585682
3.6380692 3.8237844 -0.69119692
3.6779542 3.8185136 -0.69448316
3.7116876 3.8065135 -0.69653702
3.7523701 3.8012929 -0.69996017
3.8141325 3.8167377 -0.7074911
3.8670661 3.8225126 -0.71324199
3.913835 3.8215518 -0.71776056
3.9564593 3.8160338 -0.72145754
4.0077682 3.818336 -0.72679764
4.0491548 3.8106463 -0.73022079
4.1072826 3.818105 -0.73679328
4.1612763 3.8209724 -0.74254411
4.2220612 3.8293097 -0.74952734
4.2727757 3.8277895 -0.75459361
4.3162107 3.8192253 -0.75829065
4.3589554 3.8096194 -0.76185071
4.4114909 3.8080478 -0.76719081
4.4362812 3.7821929 -0.76746464
4.4571319 3.7529871 -0.7670539
4.4747448 3.7211339 -0.7660954
4.5020857 3.6973798 -0.76691693
4.5108399 3.6584535 -0.76445228
4.5548506 3.648047 -0.76828623
4.5779257 3.6206448 -0.76842314
4.5977135 3.5906577 -0.76801234
4.6220117 3.564194 -0.76842314
4.6430063 3.5351665 -0.76828623
4.6353149 3.4845855 -0.76321995
4.6637673 3.4613919 -0.76445228
4.6913104 3.4373946 -0.76554769
4.6898413 3.3922873 -0.76171374
4.7089553 3.3622959 -0.76143992
4.7254491 3.3304853 -0.7607553
4.7449822 3.3008621 -0.76061839
4.7218676 3.241966 -0.75336128
4.8031721 3.254611 -0.76363075
4.7728238 3.1914868 -0.75527823
4.8022375 3.1686885 -0.75692135
4.8000073 3.125109 -0.75336128
4.8382607 3.1079128 -0.75651056
4.876483 3.0903642 -0.75965989
4.8970327 3.061435 -0.75993371
4.921627 3.0349696 -0.76089221
4.9384642 3.0036843 -0.76061839
4.9610486 2.9758739 -0.76130301
4.9127159 2.9060352 -0.75062275
4.9843593 2.9072831 -0.75924909
4.9643226 2.8549137 -0.75322437
4.9817462 2.8243995 -0.75322437
5.0128174 2.8015118 -0.7554152
5.0654855 2.7902992 -0.76102912
5.1121092 2.7752361 -0.7656846
5.0941048 2.7251239 -0.76020759
5.0809364 2.6781094 -0.75555211
5.1482606 2.6733637 -0.76349378
5.2077789 2.6638312 -0.77020317
5.1824484 2.6108768 -0.76376766
5.1682014 2.5640583 -0.75911218
5.2105379 2.5453441 -0.76321995
5.1903505 2.4961495 -0.75774294
5.2297416 2.4757004 -0.76143992
5.2663832 2.4536064 -0.76472616
5.2975469 2.428678 -0.76719081
5.2960963 2.3887949 -0.76472616
5.3079376 2.3550484 -0.76431537
5.3241038 2.3232276 -0.76458919
5.3755808 2.3065329 -0.77020317
5.3147926 2.24193 -0.75897527
5.3394289 2.2138305 -0.76061839
5.313467 2.1649516 -0.75473052
5.3303294 2.1337807 -0.75527823
5.36729 2.1104608 -0.7588383
5.3829107 2.0785587 -0.75924909
5.3853745 2.0416272 -0.75774294
5.4172959 2.0158007 -0.76061839
5.4267712 1.9815034 -0.76020759
5.4164467 1.9401495 -0.75692135
5.3693709 1.8861908 -0.74829501
5.4735637 1.8851502 -0.76185071
5.4681344 1.8458257 -0.759386
5.4765358 1.8113058 -0.75897527
5.4828348 1.7761415 -0.75829065
5.4822993 1.7388715 -0.75664753
5.5515189 1.7234126 -0.7651369
5.5449286 1.6841338 -0.76267225
5.5656033 1.6531824 -0.76417845
5.5081019 1.5993847 -0.7544567
5.5435414 1.5728596 -0.75815368
5.5712252 1.5438428 -0.7607553
5.5576444 1.5034198 -0.75746906
5.5897508 1.4753591 -0.7607553
5.551693 1.4289312 -0.7540459
5.5776505 1.3991793 -0.75651056
5.6246209 1.3743368 -0.76198763
5.6088557 1.3340669 -0.75856447
5.6372023 1.3043171 -0.76143992
5.625771 1.2653545 -0.75870138
5.582139 1.219602 -0.75144434
5.5924244 1.1859443 -0.75185508
5.6092982 1.1536037 -0.75322437
5.6152997 1.1189703 -0.75308746
5.6288681 1.0858082 -0.7540459
5.6305556 1.0503411 -0.75336128
5.6534672 1.0187604 -0.75568902
5.6215506 0.97743177 -0.75034893
5.65382 0.94734186 -0.7540459
5.6888647 0.91736585 -0.75815368
5.5906243 0.86635536 -0.74363953
5.561542 0.82693422 -0.73884714
5.5900474 0.79614747 -0.74213338
5.6105313 0.7639721 -0.74432421
5.6573529 0.73502302 -0.75021201
5.5860591 0.6909281 -0.73966873
5.5970802 0.65744907 -0.74062717
5.6561408 0.62923086 -0.74829501
5.6323109 0.59161419 -0.74446112
5.6338634 0.55684882 -0.74418724
5.6509833 0.52354991 -0.74610424
5.6846828 0.49151364 -0.75034893
5.7063522 0.45813131 -0.75295049
5.6547232 0.41907871 -0.74541956
5.6809072 0.38598734 -0.7487058
5.7108521 0.35283497 -0.75253975
5.7079644 0.31751177 -0.75185508
5.7216778 0.28307056 -0.7534982
5.6807518 0.24611108 -0.74761039
5.690074 0.21154498 -0.7487058
5.6803741 0.1762886 -0.74719959
5.7160082 0.14229639 -0.75199205
5.734601 0.10755653 -0.7544567
5.7430773 0.072468184 -0.75555211
5.7592626 0.037331779 -0.75774294
5.7296658 0.0019805881 -0.75363517
5.7028251 -0.033022996 -0.74993813
5.7342114 -0.068390101 -0.75431979
5.7029805 -0.10302076 -0.75007504
5.6477752 -0.13669717 -0.74254411
5.6874251 -0.17257769 -0.7481581
5.6476521 -0.20606588 -0.742818
5.6551886 -0.24109446 -0.74405032
5.7594695 -0.2809464 -0.75870138
5.7230191 -0.31438127 -0.75390899
5.7229595 -0.34961179 -0.75418282
5.6268129 -0.37841272 -0.74117488
5.6747699 -0.41662666 -0.7481581
5.6809936 -0.45214525 -0.74939042
5.720552 -0.49063161 -0.75527823
5.7055964 -0.52463537 -0.75363517
5.6746664 -0.5569272 -0.74980122
5.6957731 -0.59430414 -0.75322437
5.7323875 -0.63370138 -0.7588383
5.691987 -0.66461456 -0.75377208
5.7300787 -0.70472395 -0.75965989
5.7276115 -0.74012357 -0.75993371
5.7249255 -0.77551943 -0.76020759
5.6906357 -0.80646449 -0.75609982
5.7032185 -0.84397537 -0.75856447
5.6675835 -0.87427425 -0.75431979
5.6552658 -0.90793473 -0.75336128
5.6701069 -0.94603974 -0.75623673
5.6768842 -0.98300934 -0.75801677
5.6912212 -1.0214971 -0.76089221
5.6897159 -1.0573032 -0.76157683
5.7054954 -1.096493 -0.76472616
5.6792274 -1.1276237 -0.76198763
5.6450295 -1.1568829 -0.75815368
5.6387944 -1.1917031 -0.75829065
5.6410551 -1.2283868 -0.75965989
5.634378 -1.2631931 -0.7597968
5.6265211 -1.2977412 -0.7597968
5.6473689 -1.3390949 -0.76390457
5.6274967 -1.3709086 -0.76226145
5.6218619 -1.4061334 -0.76267225
5.6265612 -1.4440485 -0.76458919
5.6070571 -1.4757726 -0.76308304
5.5806808 -1.5055062 -0.76061839
5.6171689 -1.5523828 -0.76719081
5.5522542 -1.5711797 -0.75924909
5.5786657 -1.6156871 -0.76445228
5.5477519 -1.6436975 -0.76143992
5.5385098 -1.677994 -0.76157683
5.5441961 -1.7169266 -0.76390457
5.542057 -1.7536018 -0.7651369
5.5161114 -1.7827013 -0.76294613
5.5257645 -1.8233413 -0.76595849
5.5041461 -1.8537353 -0.76445228
5.5376363 -1.9029224 -0.7710247
5.4800487 -1.9208125 -0.76431537
5.3926015 -1.9274014 -0.75322437
5.4560647 -1.9879165 -0.76431537
5.4660521 -2.0296309 -0.76760161
5.4609079 -2.0659351 -0.76869696
5.4564476 -2.1026089 -0.76992935
5.4001026 -2.1190455 -0.76349378
5.4385138 -2.1727166 -0.77116168
5.4315033 -2.2086573 -0.77212012
5.415103 -2.2408068 -0.77170938
5.4268155 -2.2847517 -0.77554327
5.3389344 -2.2864246 -0.76445228
5.3556838 -2.3325872 -0.76910776
5.3611975 -2.3742282 -0.77212012
5.3383989 -2.40342 -0.77088779
5.3316584 -2.4398396 -0.77212012
5.2815561 -2.4562197 -0.76678002
5.2798204 -2.4949279 -0.76883394
5.2563753 -2.5234194 -0.76760161
5.2354507 -2.5530198 -0.76678002
5.2170238 -2.583777 -0.76636922
5.2019567 -2.6161845 -0.7665062
5.184042 -2.6471529 -0.76623231
5.1940856 -2.6925869 -0.77034009
5.1213608 -2.6948881 -0.76157683
5.1239524 -2.7365267 -0.76458919
5.1209998 -2.7754662 -0.76678002
5.0596046 -2.7824945 -0.7597968
5.088285 -2.8390651 -0.7670539
5.0785279 -2.8746238 -0.76828623
5.0719624 -2.9121423 -0.77006626
5.0591345 -2.9461989 -0.77088779
5.0460792 -2.9802079 -0.77170938
4.9945536 -2.9912665 -0.76636922
4.9405432 -3.0002635 -0.76061839
4.9903684 -3.0725849 -0.77170938
4.9361267 -3.0811198 -0.76595849
4.9581475 -3.1373003 -0.77266783
4.9237947 -3.1580386 -0.77020317
4.9300718 -3.2049263 -0.77444786
4.8490992 -3.1947913 -0.76431537
4.8813086 -3.2591345 -0.77294171
4.8513732 -3.2823637 -0.77129859
4.8515682 -3.326071 -0.77472174
4.850595 -3.3693388 -0.77800792
4.8436017 -3.4087288 -0.78033566
4.7814579 -3.409059 -0.77335244
4.7114635 -3.4029565 -0.76499999
4.6864972 -3.4288771 -0.76431537
4.6414933 -3.4398756 -0.76020759
4.626637 -3.4730475 -0.76130301
4.6131258 -3.5073655 -0.76267225
4.6174197 -3.5555472 -0.76719081
4.6587915 -3.6331503 -0.77828181
4.6255274 -3.6530733 -0.77636486
4.607667 -3.6850982 -0.77718639
4.5826597 -3.7114308 -0.7767756
4.5636301 -3.74262 -0.77746028
4.5177164 -3.7515678 -0.77335244
4.5082603 -3.7906916 -0.77581716
4.5535574 -3.8767128 -0.78827739
4.5379386 -3.9116938 -0.7897836
4.4936996 -3.9218793 -0.78608656
4.4368873 -3.9205201 -0.78006184
4.4385886 -3.9707849 -0.78485423
4.3965192 -3.9819865 -0.78156805
4.3990188 -4.0336566 -0.78663427
4.3865285 -4.0720286 -0.78896201
4.3607388 -4.0981889 -0.78882509
4.3190031 -4.1091657 -0.78567582
4.2694492 -4.1122265 -0.78102034
4.2746358 -4.1680803 -0.78690815
4.2003341 -4.1462173 -0.77746028
4.160099 -4.1572089 -0.77458483
4.1421728 -4.1904054 -0.77609098
4.1682901 -4.2688951 -0.78636044
4.1220741 -4.273716 -0.78238958
4.1012402 -4.3046651 -0.783485
4.0795026 -4.3347979 -0.7844435
4.0575495 -4.3648262 -0.78540194
4.0353813 -4.3947477 -0.78636044
4.0189881 -4.4311647 -0.78855127
4.0181642 -4.4852524 -0.79402828
3.9236062 -4.4341583 -0.78006184
3.9100151 -4.4738116 -0.78293729
3.8637183 -4.4759746 -0.77896643
3.8696027 -4.5387936 -0.78608656
3.7912719 -4.5025935 -0.77526945
3.7958777 -4.5646129 -0.78225267
3.7464213 -4.5617924 -0.77759719
3.7589219 -4.6346993 -0.78649735
3.2275457 -4.0298972 -0.67531353
3.2113616 -4.0605021 -0.67723048
3.1619959 -4.0489035 -0.67175347
3.1304383 -4.0596004 -0.67024726
2.7585924 -3.6232145 -0.59110409
2.610703 -3.4730113 -0.56221277
2.5816684 -3.4786248 -0.56043267
2.5468082 -3.476023 -0.5572834
2.5120778 -3.473125 -0.55413413
2.4757521 -3.467514 -0.55057406
2.4293177 -3.4470153 -0.54454929
2.3775713 -3.4179471 -0.53715527
2.3582368 -3.434921 -0.53756607
2.3215559 -3.4263659 -0.53373218
2.2971842 -3.4356058 -0.53291059
2.2716956 -3.443022 -0.53181517
2.2548511 -3.463537 -0.53291059
2.202502 -3.4289696 -0.52496886
2.1782389 -3.4373994 -0.52414733
2.1539555 -3.4456606 -0.5233258
2.1275728 -3.450381 -0.5219565
2.0976098 -3.4489834 -0.51962876
2.0682538 -3.4481983 -0.51743799
2.0470572 -3.4608238 -0.51743799
2.018296 -3.4604847 -0.51538408
1.9851716 -3.4521954 -0.51209784
1.9580886 -3.4539711 -0.51045477
1.9329921 -3.4590032 -0.50935936
1.9040836 -3.4569168 -0.50716853
1.8809458 -3.4650528 -0.50662082
1.853574 -3.4651744 -0.50484079
0 -0 -0
0 -0 -0
1.7763938 -3.4731312 -0.50086993
1.747472 -3.4689269 -0.49854219
1.7230721 -3.4733725 -0.49758372
1.699988 -3.4803195 -0.49703601
0 -0 -0
1.649097 -3.4839082 -0.49443442
0 -0 -0
0 -0 -0
1.5908005 -3.5272167 -0.4964883
1.5687262 -3.536006 -0.49635139
1.5493774 -3.551012 -0.49717292
1.5314664 -3.569555 -0.49854219
1.5130007 -3.5870988 -0.49977452
1.4943773 -3.6045501 -0.50100684
0 -0 -0
0 -0 -0
1.444091 -3.6729293 -0.50716853
1.4354458 -3.7177591 -0.51250863
1.4217385 -3.7505789 -0.5160687
1.4024993 -3.769444 -0.51757491
1.385121 -3.7937965 -0.51990265
1.3718398 -3.8302002 -0.52401042
0 -0 -0
1.3386073 -3.8870187 -0.52989823
0 -0 -0
1.2998292 -3.9304261 -0.53386909
0 -0 -0
0 -0 -0
1.2783759 -4.1182938 -0.5576942
1.2867718 -4.2369537 -0.57371449
1.2751384 -4.2931972 -0.58069772
0 -0 -0
0 -0 -0
0 -0 -0
1.5613762 -5.771832 -0.78814048
1.5077255 -5.7123446 -0.77828181
1.4719058 -5.7186108 -0.77787101
1.4367894 -5.7275343 -0.77787101
1.4037355 -5.7449026 -0.77910334
1.3592879 -5.7148604 -0.77362633
1.328217 -5.7404647 -0.77609098
1.2964482 -5.7639694 -0.77828181
1.2705745 -5.8153639 -0.7844435
1.2145175 -5.7271175 -0.77088779
1.1865398 -5.7693915 -0.77581716
1.1542156 -5.7921066 -0.77800792
1.1280386 -5.8477116 -0.78485423
1.0935904 -5.8623133 -0.78594965
1.0505697 -5.8299184 -0.78047264
1.0237752 -5.887979 -0.78772968
0.98942941 -5.9048963 -0.78923589
0.94623727 -5.8678269 -0.78321111
0.9120363 -5.8852692 -0.78485423
0.87488753 -5.8838959 -0.78389579
0.84072447 -5.9028826 -0.78581274
0.79339051 -5.8264647 -0.77444786
0.76758528 -5.9078436 -0.78512812
0.73448426 -5.9380026 -0.78868818
0.69572294 -5.9227214 -0.78594965
0.65717685 -5.9071884 -0.78321111
0.62091863 -5.9111099 -0.78321111
0.58463705 -5.9148083 -0.78321111
0.54312068 -5.8620625 -0.77540636
0.51243621 -5.9264717 -0.78389579
0.47177801 -5.8761849 -0.77650177
0.44216228 -5.9659014 -0.78855127
0.40010318 -5.8884501 -0.77746028
0.3635979 -5.8848619 -0.77663869
0.32803306 -5.8968725 -0.77800792
0.29395205 -5.9413171 -0.78389579
0.25427046 -5.8687854 -0.77362633
0.21729684 -5.8444977 -0.77006626
0.15408447 -4.9665103 -0.64847606
0.12360764 -4.9673619 -0.64847606
0.093275301 -4.9759502 -0.64957148
0.062817082 -4.9823718 -0.65039301
0.032322507 -4.9945502 -0.65203613
0.0020159006 -5.8148556 -0.76541078
-0.033878785 -5.8524003 -0.77061397
-0.069776058 -5.8510919 -0.77047706
-0.10585459 -5.8604574 -0.77184629
-0.14236139 -5.8824744 -0.77499557
-0.17806321 -5.8686185 -0.77321553
-0.21504238 -5.8941436 -0.77691257
-0.24935068 -5.8491669 -0.77088779
-0.28745279 -5.8930397 -0.77718639
-0.32181564 -5.8585248 -0.77266783
-0.35727414 -5.8485298 -0.77157241
-0 -0 -0
-0.42517719 -5.7913451 -0.76431537
-0.4637666 -5.8271384 -0.76965547
-0.49807465 -5.8074045 -0.76732773
-0.53505838 -5.8190355 -0.76938164
-0.56611234 -5.768322 -0.76280916
-0.60796756 -5.8268099 -0.7714355
-0.63935775 -5.7835865 -0.76595849
-0.66622198 -5.7057614 -0.75568902
-0.70327377 -5.7182803 -0.75801677
-0.74481815 -5.7639608 -0.76499999
-0.77857625 -5.7475028 -0.76335686
-0.81493902 -5.750464 -0.76445228
-0.8461495 -5.7179174 -0.76061839
-0.8763876 -5.6812897 -0.75623673
-0.89537823 -5.5770202 -0.7424072
-0.84696317 -5.0760388 -0.67298579
-0.86457747 -4.992661 -0.66203171
-0.89554548 -4.989212 -0.66230559
-0.92632276 -4.9845972 -0.66244251
-0.95576888 -4.9729829 -0.66162091
-1.0840396 -5.4596395 -0.73104239
-1.1425687 -5.5751591 -0.74829501
-1.1779842 -5.5738587 -0.7491166
-1.2127948 -5.5694294 -0.74952734
-1.2354635 -5.510653 -0.74227029
-1.291732 -5.6004596 -0.75609982
-1.3146473 -5.5442348 -0.74925351
-1.3601266 -5.5832238 -0.75596291
-1.4032499 -5.6103296 -0.76102912
-1.4376477 -5.601614 -0.76102912
-1.4636734 -5.5610743 -0.75651056
-1.4951885 -5.5424247 -0.75514132
-1.5420945 -5.5799317 -0.76185071
-1.5647079 -5.5293779 -0.75596291
-1.6148607 -5.5758114 -0.76404148
-1.5896811 -5.3653922 -0.73515016
-1.687183 -5.5688477 -0.76595849
-1.7166336 -5.5432501 -0.76376766
-1.7449374 -5.514668 -0.76116604
-1.7750872 -5.4925461 -0.75952297
-1.8227206 -5.5238833 -0.7656846
-1.8486776 -5.4891253 -0.76226145
-1.8939103 -5.511405 -0.76719081
-1.9188468 -5.4744396 -0.76349378
-1.9677345 -5.5054722 -0.76979238
-2.0157182 -5.5323863 -0.77554327
-2.0037744 -5.3964028 -0.75733215
-2.0655849 -5.459981 -0.76856005
-2.0869396 -5.4157763 -0.76390457
-2.112895 -5.3844261 -0.76116604
-2.1403821 -5.3575616 -0.75911218
-2.1941073 -5.3957152 -0.76678002
-2.2139189 -5.3501143 -0.76198763
-2.2455521 -5.3336902 -0.76157683
-2.2794065 -5.3225431 -0.76198763
-2.3033214 -5.2884765 -0.75897527
-2.331316 -5.2642803 -0.75746906
-2.3554411 -5.231811 -0.75473052
-2.3804922 -5.2019467 -0.75240278
-2.4152896 -5.1935296 -0.75336128
-2.4289153 -5.140099 -0.74747348
-2.4441202 -5.0911632 -0.74227029
-2.4683671 -5.0618243 -0.74007946
-2.5059729 -5.0598993 -0.74213338
-2.5334127 -5.0373478 -0.74103796
-2.5624719 -5.0181789 -0.74049026
-2.5740695 -4.9654241 -0.73473936
-2.5874228 -4.9171 -0.72967309
-2.6049469 -4.8775387 -0.72597611
-2.6362417 -4.8640757 -0.7263869
-2.6550601 -4.8278441 -0.72323757
-2.6614683 -4.7699389 -0.71666515
-2.671658 -4.7198968 -0.71132505
-2.6857731 -4.6776423 -0.70721728
-2.7159193 -4.6636429 -0.70762801
-2.7404544 -4.6400666 -0.70653266
-2.7637846 -4.614666 -0.70516336
-2.7807372 -4.5789928 -0.702151
-2.8015108 -4.5500345 -0.70023406
-2.8204606 -4.5184731 -0.69790632
-2.855547 -4.5128016 -0.69982326
-2.871419 -4.476851 -0.6968109
-2.8945155 -4.4525032 -0.69571549
-2.9076128 -4.4131513 -0.69215542
-2.9225368 -4.3771024 -0.68914306
-2.9360182 -4.339396 -0.68585682
-2.9429867 -4.2927027 -0.68106443
-2.9754865 -4.2835135 -0.68257058
-2.9931631 -4.2530236 -0.68051672
-3.0174778 -4.2321582 -0.68010592
-3.0242507 -4.1870627 -0.67558736
-3.049885 -4.1684275 -0.67558736
-3.0665584 -4.1376967 -0.6735335
-3.0883212 -4.1140494 -0.67271191
-3.0853307 -4.0579586 -0.6662764
-3.0950642 -4.0193286 -0.6628533
-3.1202772 -4.0010428 -0.66299021
-3.1459961 -3.983377 -0.66326404
-3.1468697 -3.9346001 -0.65806085
-3.1609783 -3.9029 -0.65587008
-3.1540897 -3.8458977 -0.64916068
-3.160543 -3.8058949 -0.64546371
-3.1723619 -3.7727823 -0.64299899
-3.1832519 -3.7389145 -0.64039743
-3.1919057 -3.7028043 -0.63738507
-3.2321508 -3.7033012 -0.64108205
-3.2482543 -3.675976 -0.63971281
-3.2436717 -3.625705 -0.63409883
-3.2685173 -3.6086709 -0.63464653
-3.2825649 -3.5797858 -0.63300341
-3.2936862 -3.5479605 -0.63081259
-3.3214989 -3.5341811 -0.63204497
-3.3260531 -3.4957914 -0.62862182
-3.2842233 -3.4096749 -0.61602461
-3.3486478 -3.4341433 -0.62465096
-3.330689 -3.3740506 -0.61698312
-3.3198221 -3.3220174 -0.61082143
-3.3500051 -3.3113346 -0.61273837
-3.3447468 -3.2658019 -0.60780907
-3.3540285 -3.2349014 -0.60575515
-3.3752484 -3.2156272 -0.60602903
-3.3833745 -3.1839938 -0.60383821
-3.3810833 -3.1429391 -0.59973043
-3.3915491 -3.1140935 -0.59808731
-3.4061909 -3.0892315 -0.59726578
-3.3999979 -3.0457985 -0.5926103
-3.3904338 -2.999933 -0.58740711
-3.4057939 -2.9764655 -0.58685941
-3.4052479 -2.9393287 -0.58343625
-3.3885458 -2.888814 -0.57713765
-3.4137845 -2.8743486 -0.57850695
-3.4275489 -2.8501809 -0.57782227
-3.4288979 -2.8158927 -0.57494682
-3.4422648 -2.7916803 -0.5742622
-3.4353623 -2.7513082 -0.57001752
-3.4343104 -2.716043 -0.56686825
-3.4571564 -2.6997974 -0.5679636
-3.455616 -2.6646199 -0.56481433
-3.4561388 -2.6313639 -0.56207579
-3.4856794 -2.6202276 -0.56440353
-3.4865787 -2.5875726 -0.56180197
-3.4928021 -2.5591044 -0.56015885
-3.5172672 -2.5440116 -0.56166506
-3.4755754 -2.481509 -0.5519433
-3.5198836 -2.4806824 -0.55687261
-3.5057657 -2.4386716 -0.5519433
-3.5002482 -2.403096 -0.54852015
