# .PCD v0.7 - Point Cloud Data file format
VERSION 0.7
FIELDS x y z
SIZE 4 4 4
TYPE F F F
COUNT 1 1 1
WIDTH 1662
HEIGHT 1
VIEWPOINT 0 0 0 1 0 0 0
POINTS 1662
DATA ascii
13.270885 -0.72848541 -0.81297374
13.272141 -0.810265 -0.81335676
13.286835 -0.89302397 -0.81463349
13.278119 -0.97431463 -0.81444198
13.256968 -1.0545827 -0.81348443
13.233345 -1.1344575 -0.81239921
13.211228 -1.2142648 -0.81144172
13.193597 -1.2943305 -0.81080335
13.184414 -1.375157 -0.81073952
13.173744 -1.45581 -0.81061184
13.170511 -1.5373092 -0.81099486
13.157859 -1.6177276 -0.81080335
13.147685 -1.6984323 -0.81080335
13.121193 -1.7769307 -0.80978197
13.089293 -1.8544682 -0.8084414
13.06286 -1.9325573 -0.80748391
13.039907 -2.0110004 -0.80678171
13.030277 -2.0914481 -0.80697322
13.00834 -2.1698835 -0.80639869
12.982981 -2.247618 -0.80563265
12.95814 -2.325299 -0.80493045
12.929893 -2.4022133 -0.80403674
12.901189 -2.4788685 -0.80314308
12.866158 -2.5540965 -0.80186635
12.814072 -2.6255829 -0.79950446
12.774286 -2.6992083 -0.79797238
12.739931 -2.7737181 -0.79682332
12.731437 -2.853801 -0.79739785
12.73508 -2.9367988 -0.79880226
12.718762 -3.0153449 -0.79892993
12.704869 -3.0945096 -0.79924911
12.696292 -3.1750698 -0.79995126
12.681405 -3.2541533 -0.80027044
12.666989 -3.3334272 -0.80065346
12.647261 -3.4113474 -0.80071729
12.850219 -3.5508099 -0.81559104
12.682228 -3.5882971 -0.805888
12.624504 -3.6557767 -0.8035261
12.552078 -3.7184319 -0.8002066
12.08108 -3.6596999 -0.77026772
12.036471 -3.7269707 -0.76879948
12.00291 -3.7974439 -0.76809728
11.977484 -3.8704071 -0.76796967
11.945929 -3.9413257 -0.76745898
10.238969 -3.4480128 -0.65389538
10.224226 -3.5130429 -0.65434223
10.201536 -3.5753813 -0.6542784
10.2029 -3.6463048 -0.65587431
10.200026 -3.716013 -0.65721482
10.19668 -3.7858229 -0.65855539
10.178859 -3.8504357 -0.65893841
10.171803 -3.9192774 -0.66008747
12.838934 -5.0375218 -0.84501922
12.71696 -5.0799279 -0.83876336
12.738246 -5.179286 -0.84240198
12.802131 -5.2970271 -0.84904087
12.806179 -5.3909664 -0.85159427
12.582958 -5.3881311 -0.83838034
12.74821 -5.5516963 -0.85223264
12.73763 -5.6403184 -0.85389239
12.705512 -5.7195978 -0.8540839
12.700126 -5.8111515 -0.85619044
12.707665 -5.9091649 -0.8592546
12.716285 -6.0083423 -0.86244637
12.708869 -6.1005054 -0.86455292
12.699005 -6.1919284 -0.86653185
12.686708 -6.2825742 -0.86838305
12.67021 -6.3715081 -0.86997896
12.646875 -6.4572992 -0.87112802
8.245142 -4.2739773 -0.55686527
8.1834345 -4.305902 -0.55431181
8.163022 -4.359324 -0.55475867
8.1484041 -4.4159856 -0.55565238
11.866564 -6.5253286 -0.82906032
11.843732 -6.6077418 -0.83033705
11.818598 -6.6891365 -0.83148611
11.798103 -6.7734528 -0.83301812
11.839112 -6.8939238 -0.83914638
8.9178619 -5.2665262 -0.62529701
8.8819542 -5.3190951 -0.62504172
8.9028912 -5.4061241 -0.62906337
9.0420685 -5.5668526 -0.64202195
8.9247732 -5.5704484 -0.63576609
8.9460869 -5.6603198 -0.63997924
8.9170675 -5.7188764 -0.6404261
8.805666 -5.7239909 -0.63461703
8.7478771 -5.7630911 -0.6328935
9.9706364 -6.6566639 -0.72966826
9.9444828 -6.7277822 -0.73081732
12.545299 -8.5998735 -0.93572962
12.402951 -8.6146374 -0.92877156
12.310683 -8.6630125 -0.92570746
7.366972 -5.2522035 -0.54154474
7.3281341 -5.2926331 -0.54103404
7.300354 -5.3410335 -0.54141706
7.313148 -5.4195938 -0.54505569
7.2933249 -5.4745483 -0.54614085
7.3040862 -5.5530171 -0.5497157
7.2975521 -5.6190381 -0.55194992
7.3408494 -5.7244606 -0.55826962
7.3118525 -5.7743435 -0.55878031
7.2755046 -5.8184762 -0.55871648
10.747543 -8.7035999 -0.84744501
10.665384 -8.7459688 -0.84508306
10.571593 -8.7780952 -0.84176362
10.43809 -8.7760077 -0.83512473
10.272338 -8.7447987 -0.82574087
10.161792 -8.7587986 -0.82095319
10.029657 -8.7527456 -0.81431431
9.9144363 -8.7599401 -0.80907977
9.7928133 -8.7600632 -0.80327076
9.6930151 -8.7784538 -0.79931295
8.8982267 -8.1586342 -0.73503047
8.8575077 -8.2219048 -0.73586035
8.8650732 -8.3307695 -0.74096715
8.9381552 -8.503315 -0.75194693
8.8814983 -8.5538445 -0.75156391
8.7681084 -8.5489635 -0.74613786
8.856122 -8.7414064 -0.75877732
8.7641973 -8.7574921 -0.7553302
8.6703053 -8.7706509 -0.75169158
8.5730972 -8.7794189 -0.74773377
8.4657164 -8.7765522 -0.74281842
8.3648911 -8.7792025 -0.73847759
8.2732468 -8.7903948 -0.73496664
8.172267 -8.7905626 -0.73056197
8.0837498 -8.8030548 -0.72730637
7.3718266 -8.1273718 -0.66468364
7.3191552 -8.1694784 -0.66442829
7.2616153 -8.2060137 -0.66372609
7.3155551 -8.3698845 -0.67387593
7.3207979 -8.4803333 -0.67942965
7.2692733 -8.5258532 -0.67949349
3.0461104 -3.6177444 -0.26532799
3.0015202 -3.6095126 -0.26309374
2.9273756 -3.5646255 -0.25785923
2.8733859 -3.5429931 -0.25460362
2.8316274 -3.5356328 -0.25256088
2.7801623 -3.5153713 -0.24949677
2.7235248 -3.4875343 -0.24585813
2.6850092 -3.482053 -0.24407074
2.6484783 -3.4786134 -0.24247485
2.6156893 -3.4796431 -0.24126197
2.5800138 -3.4763956 -0.23972991
2.5609939 -3.4953806 -0.23998526
2.5073268 -3.4665577 -0.23647431
2.4639707 -3.4510162 -0.23404855
2.4617233 -3.4929872 -0.23615512
2.3809688 -3.4228303 -0.22951622
2.3378901 -3.4052911 -0.22702663
2.2984762 -3.3923099 -0.22492005
2.2648582 -3.3872697 -0.22345184
2.2467802 -3.4052675 -0.22377101
2.2280216 -3.4223344 -0.22402635
2.221545 -3.4586105 -0.22574991
2.1789112 -3.4384601 -0.22319649
2.1477199 -3.4356878 -0.22198361
2.1208358 -3.4394579 -0.22128142
2.0945053 -3.4438803 -0.22064307
2.0687139 -3.4489653 -0.22006854
2.0464962 -3.4598758 -0.21994087
2.0191939 -3.4620237 -0.21917485
1.988957 -3.458777 -0.2180258
1.940623 -3.4231699 -0.21451485
1.9234776 -3.4419818 -0.21502553
1.9018403 -3.4528451 -0.21496169
1.8696659 -3.444278 -0.21349348
1.8475554 -3.4539254 -0.21336581
0 -0 -0
0 -0 -0
1.7695767 -3.459806 -0.2113869
1.7469672 -3.4679251 -0.21119539
1.7260991 -3.4794729 -0.21125923
1.7025265 -3.4855154 -0.21094005
0 -0 -0
1.654501 -3.4953218 -0.21017402
0 -0 -0
0 -0 -0
1.5964494 -3.5397384 -0.21119539
1.5767238 -3.5540283 -0.21151458
1.5600765 -3.5755262 -0.21234444
1.5416502 -3.5932851 -0.21291895
1.5219008 -3.6081939 -0.21330197
1.5031732 -3.6257606 -0.21387649
0 -0 -0
0 -0 -0
1.4383718 -3.6583872 -0.21425951
1.4166163 -3.6690059 -0.21438718
1.3944309 -3.6785622 -0.21445101
1.3774029 -3.7020135 -0.21547239
1.3621936 -3.7310181 -0.21687676
1.3476896 -3.7627933 -0.21847266
1.3308618 -3.7888808 -0.21968554
1.318965 -3.8299994 -0.22191978
1.2973552 -3.8436935 -0.22230279
1.3069704 -3.9520125 -0.22906937
0 -0 -0
1.2761799 -4.0238767 -0.23283567
0 -0 -0
1.2426596 -4.0917521 -0.23634663
1.243394 -4.1863532 -0.24215567
0 -0 -0
1.2319795 -4.342423 -0.2515395
1.2884808 -4.649951 -0.27145621
1.2466311 -4.6086402 -0.26820061
1.2659671 -4.796639 -0.28013787
1.255422 -4.8777661 -0.28498936
1.2237688 -4.8786016 -0.28454253
2.2401474 -9.166996 -0.56644058
2.1827025 -9.1757145 -0.5661214
2.1337862 -9.2210197 -0.56822801
2.0903103 -9.2923555 -0.57205814
1.226321 -5.6128817 -0.33031267
1.2220936 -5.7628312 -0.33963266
1.2168754 -5.9168448 -0.349208
1.2102023 -6.0729628 -0.35891101
1.1925819 -6.1821818 -0.36554992
1.1848334 -6.3512521 -0.37608278
1.1869161 -6.5862565 -0.39089265
1.1965904 -6.8814921 -0.4095965
1.1794215 -7.0383077 -0.41929951
1.1476569 -7.1163478 -0.42389566
1.4314699 -9.2356501 -0.56063157
1.3821161 -9.2936153 -0.56382334
1.3240801 -9.2950048 -0.56337649
1.2625765 -9.2703228 -0.56126994
1.2068288 -9.2868023 -0.56184441
1.1521523 -9.31285 -0.5630573
1.0934736 -9.306859 -0.56222743
1.0353535 -9.3044672 -0.5616529
0.97876447 -9.3156071 -0.56197208
0.92148834 -9.3204441 -0.56190825
0.85976732 -9.2772312 -0.55878031
0.80669862 -9.3270731 -0.5616529
0.74937367 -9.3308525 -0.56158912
0.68900579 -9.2934761 -0.55890799
0.63278174 -9.3094769 -0.55967402
0.57626408 -9.3231449 -0.56031239
0.51954693 -9.3354721 -0.56088692
0.46205825 -9.3344975 -0.56063157
0.40455782 -9.3321724 -0.56031239
0.20152999 -5.4211955 -0.30982143
0.14992617 -4.8328204 -0.27209458
0.11982143 -4.8156919 -0.27094552
0.089782298 -4.7903938 -0.2692858
0.060222715 -4.7778821 -0.26845595
0.03085929 -4.7711763 -0.2680091
0.0015808383 -4.7652879 -0.26762608
-0.027624192 -4.7592206 -0.26724306
-0.056731038 -4.750978 -0.26673239
-0.085719824 -4.7415605 -0.26615787
-0.11449887 -4.7279754 -0.26532799
-0.14287286 -4.7062364 -0.26398745
-0.17160182 -4.701282 -0.26373211
-0.2004451 -4.7001405 -0.26373211
-0.22894096 -4.6918449 -0.26328525
-0.25739726 -4.6843729 -0.26290226
-0.28649989 -4.6886821 -0.26328525
-0.31559816 -4.6918144 -0.26360443
-0.34445366 -4.6907849 -0.26366827
-0.37338752 -4.6905727 -0.26379594
-0.40130919 -4.6782503 -0.26315758
-0.42845458 -4.6588054 -0.26207238
-0.46005198 -4.6868777 -0.26405129
-0.48973295 -4.6929002 -0.26462582
-0.51840925 -4.6888151 -0.26456198
-0.54751652 -4.6885195 -0.26475349
-0.57712668 -4.6920052 -0.26520032
-0.60743934 -4.7002525 -0.26596636
-0.63720536 -4.7033596 -0.26641321
-0.66745228 -4.7092419 -0.26705155
-0.69691914 -4.7090068 -0.26730689
-0.7292977 -4.7273269 -0.26877514
-0.75955534 -4.7306461 -0.2692858
-0.79086608 -4.7396774 -0.27017951
-0.8224864 -4.7494855 -0.27113703
-0.85425675 -4.7590837 -0.27209458
-0.88690478 -4.7723951 -0.27330744
-0.92163098 -4.7952843 -0.27515867
-0.9516198 -4.7924757 -0.27535018
-1.8462574 -9.0100155 -0.55112004
-1.8916055 -8.9516506 -0.54805595
-1.9390666 -8.9057455 -0.54582167
-1.9895281 -8.8751783 -0.54460883
-2.0450687 -8.8676653 -0.54492801
-2.1040449 -8.8743715 -0.54620469
-2.1634164 -8.8816557 -0.54754525
-2.2212615 -8.8817682 -0.54843897
-2.2777014 -8.8757048 -0.54894966
-2.3361819 -8.8770037 -0.54997098
-2.3955436 -8.8808098 -0.55118388
-2.4561028 -8.8880682 -0.55265212
-2.5122228 -8.8785915 -0.55303514
-2.5724821 -8.8831406 -0.55437565
-2.6382771 -8.9054632 -0.55692911
-2.6974988 -8.9043894 -0.55795044
-2.7621195 -8.920083 -0.56012088
-2.8336561 -8.9562502 -0.56369567
-2.8894777 -8.9415436 -0.56388718
-2.9458508 -8.9283838 -0.56420636
-3.0015342 -8.9129782 -0.56439787
-3.0529242 -8.8849554 -0.56375951
-3.1083739 -8.8688803 -0.56395102
-3.1744874 -8.8825331 -0.56618524
-3.197505 -8.7766199 -0.56031239
-3.2294159 -8.6978951 -0.55629075
-3.2753103 -8.6583138 -0.55495018
-3.3179705 -8.6110477 -0.55309898
-3.3474176 -8.5310698 -0.5490135
-3.386374 -8.477006 -0.54671538
-3.4240415 -8.4209385 -0.54428965
-3.4531374 -8.3453627 -0.54052335
-3.4822097 -8.2715893 -0.53688473
-3.5191493 -8.2179585 -0.53465044
-3.5607421 -8.1760807 -0.5332461
-3.5950851 -8.1184912 -0.53075647
-3.6239407 -8.0498686 -0.52750087
-3.629669 -7.9321947 -0.52079815
-3.6555505 -7.8609085 -0.51735103
-3.6811209 -7.7905073 -0.51396775
-3.7089887 -7.726388 -0.51103127
-3.7305233 -7.6505604 -0.50726497
-3.7370973 -7.5461426 -0.50145596
-3.7689826 -7.4945393 -0.49941319
-3.7990148 -7.4401636 -0.49717894
-3.8257668 -7.3803864 -0.4945617
-3.854717 -7.3258615 -0.49232745
-3.8643396 -7.2360477 -0.48753977
-3.8901234 -7.1779809 -0.4850502
-3.9172642 -7.1233697 -0.48281595
-3.9433956 -7.0678253 -0.48051786
-3.9640782 -7.0035443 -0.47758141
-3.9885929 -6.9470663 -0.47521952
-4.0150752 -6.8948646 -0.47317678
-4.0466499 -6.8520532 -0.47183621
-4.0619564 -6.7825723 -0.46851677
-4.0822616 -6.7225466 -0.4658995
-4.0993676 -6.6582794 -0.46296307
-4.1153116 -6.5932102 -0.45996279
-4.1364813 -6.5374742 -0.4576647
-4.1501193 -6.4708071 -0.45453677
-4.1658149 -6.4084044 -0.45172799
-4.1798043 -6.3443866 -0.44879156
-4.1992607 -6.2895703 -0.44655731
-4.2360964 -6.2612062 -0.4463658
-4.2405806 -6.1857076 -0.44253567
-4.2682085 -6.1448174 -0.44138664
-4.2909002 -6.0972924 -0.43972689
-4.31317 -6.0497212 -0.43806717
-4.312232 -5.9705544 -0.43391785
-4.3311086 -5.9198189 -0.43200278
-4.3602209 -5.8835106 -0.43123677
-4.3716779 -5.8239217 -0.4286195
-4.3747172 -5.754087 -0.42517239
-4.4068971 -5.7231822 -0.42485321
-4.4204531 -5.6684895 -0.42261896
-4.4248462 -5.6028819 -0.41949102
-4.4485459 -5.562376 -0.4184058
-4.4800806 -5.5318732 -0.41815045
-4.508244 -5.497335 -0.41757596
-4.5132027 -5.4350181 -0.41470334
-4.5194936 -5.3751407 -0.41202223
-4.5549774 -5.350348 -0.41227758
-4.5681748 -5.2996206 -0.41036251
-4.5789537 -5.2466774 -0.40825593
-4.605114 -5.2117519 -0.40768144
-4.6343446 -5.1804223 -0.40742609
-4.6204915 -5.1015882 -0.40308526
-4.6375446 -5.057694 -0.40174472
-4.6644177 -5.0247545 -0.4013617
-4.6739759 -4.9734945 -0.3993828
-4.6968389 -4.9367681 -0.3986806
-4.7000437 -4.8798218 -0.396191
-4.7194471 -4.8401728 -0.39523348
-4.7497582 -4.8118339 -0.39529732
-4.7467465 -4.7501254 -0.39236087
-4.7523837 -4.6977572 -0.39025429
-4.7554159 -4.6434078 -0.38795623
-4.7708893 -4.6016703 -0.38680717
-4.7759151 -4.5502801 -0.38476443
-4.7935715 -4.5113144 -0.38387075
-4.7897344 -4.4525971 -0.38112581
-4.8257852 -4.4312243 -0.38189185
-4.8292308 -4.3800745 -0.37984911
-4.8366909 -4.333046 -0.37818936
-4.8288093 -4.2728639 -0.37525293
-4.8639526 -4.2510357 -0.37601897
-4.8846574 -4.2165461 -0.37557212
-4.8808217 -4.161242 -0.37308252
-4.8711491 -4.101645 -0.37014607
-4.8900867 -4.0665741 -0.3696354
-4.9026079 -4.0263577 -0.36861402
-4.9062943 -3.9792259 -0.36689046
-4.862855 -3.8947666 -0.36133677
-4.9101424 -3.8834288 -0.36325184
-4.9275866 -3.8483133 -0.36274114
-4.9447846 -3.8131299 -0.36223045
-4.9514151 -3.770021 -0.36088991
-4.9624896 -3.7305727 -0.35993239
-4.9828825 -3.6982689 -0.35974088
-5.0135303 -3.6735237 -0.36037922
-4.9979739 -3.6152 -0.35737896
-4.9940739 -3.565906 -0.35533622
-5.0077033 -3.5294461 -0.35469785
-5.0407338 -3.5066323 -0.35559157
-5.0514603 -3.4682932 -0.35476169
-5.0552979 -3.4254756 -0.35342115
-5.0853457 -3.4004948 -0.35412335
-5.0553064 -3.3356972 -0.35022938
-5.0982585 -3.3193188 -0.35195294
-5.078228 -3.2620819 -0.34888881
-5.0930905 -3.2276556 -0.3485058
-5.1424155 -3.2148619 -0.35074005
-5.1543999 -3.1785331 -0.35016555
-5.1738062 -3.1468465 -0.35016555
-5.2229691 -3.1330106 -0.35239977
-5.2292109 -3.093282 -0.35144225
-5.2265425 -3.0485661 -0.34984636
-5.1958408 -2.9880779 -0.34620774
-5.1897702 -2.9423575 -0.34442031
-5.1502333 -2.8783216 -0.34020719
-5.1573086 -2.8408875 -0.33944115
-5.1571021 -2.7996657 -0.33816445
-5.1345868 -2.7467835 -0.33529183
-5.1610551 -2.720346 -0.33599404
-5.1625938 -2.6808076 -0.33490881
-5.17628 -2.6477165 -0.3347173
-5.1763868 -2.6078224 -0.33356827
-5.1878209 -2.5737936 -0.33324909
-5.1810994 -2.530961 -0.33165321
-5.1794443 -2.4909036 -0.33044031
-5.182003 -2.4530976 -0.32954663
-5.2132397 -2.4288425 -0.33069566
-5.2289519 -2.3972249 -0.3307595
-5.2608461 -2.3728926 -0.33197239
-0.25194594 -0.11137339 0.019570356
-0.24256349 -0.10543431 0.020272547
-0.24228877 -0.10355041 0.020336384
-0.25395328 -0.10671702 0.019570356
-5.17629 -2.1461768 -0.32124799
-5.214314 -2.1245441 -0.32297155
-0 -0 -0
-0 -0 -0
-0 -0 -0
-0 -0 -0
-0 -0 -0
-0 -0 -0
-0 -0 -0
-0 -0 -0
-0 -0 -0
-0 -0 -0
-0 -0 -0
-0 -0 -0
-0 -0 -0
-0 -0 -0
-0 -0 -0
-0 -0 -0
-0 -0 -0
-0 -0 -0
-0 -0 -0
-0 -0 -0
-0 -0 -0
-0 -0 -0
-0 -0 -0
-0 -0 -0
-0 -0 -0
-0 -0 -0
-0 -0 -0
-0 -0 -0
-0 -0 -0
-0 -0 -0
-0 -0 -0
-0 -0 -0
-0 -0 -0
-0 -0 -0
-0 -0 -0
-0 -0 -0
-0 -0 -0
-0 -0 -0
-0 -0 -0
-0 -0 -0
-0 -0 -0
-0 -0 -0
-0 -0 -0
-0 -0 -0
-0 -0 -0
-0 -0 -0
-0 -0 -0
-0 -0 -0
-0 -0 -0
-0 -0 -0
-0 -0 -0
-0 -0 -0
-0 -0 -0
-0 -0 -0
-0 -0 -0
-0 -0 -0
-0 -0 -0
-0 -0 -0
-0 0 -0
-0 0 -0
-0.2981149 0.02461054 0.014475824
-0 0 -0
-0.29779044 0.028267015 0.014475824
-0.29761139 0.03009369 0.014475824
-0 0 -0
-0 0 -0
-0 0 -0
-0 0 -0
-0.27283722 0.035979401 0.016308727
-0.27261132 0.03765282 0.016308727
-0 0 -0
-0 0 -0
-0.27187207 0.042664327 0.016308727
-0 0 -0
-0 0 -0
-0 0 -0
-0 0 -0
-0 0 -0
-0 0 -0
-0 0 -0
-0 0 -0
-0 0 -0
-0 0 -0
-0.27323264 0.062027235 0.015926873
-0 0 -0
-0.27535662 0.066085622 0.015697761
-0 0 -0
-0 0 -0
-0.27505761 0.071397319 0.015621388
-0.27365187 0.072823308 0.015697761
-0 0 -0
-0.27081919 0.075631589 0.015850501
-0 0 -0
-0 0 -0
-0 0 -0
-0.26316807 0.080481209 0.016308727
-0 0 -0
-0 0 -0
-0.26069546 0.084998526 0.016385099
-0.25827962 0.085958682 0.016537841
-0.25774732 0.087541841 0.016537841
-0.25720531 0.089121699 0.016537841
-0.25665364 0.090698205 0.016537841
-0.25983864 0.093639322 0.016232356
-0 0 -0
-0.26333159 0.098588265 0.015850501
-0.26551211 0.10127975 0.015621388
-0.26581359 0.10327189 0.015545018
-0.26424927 0.10453036 0.015621388
-0.26360291 0.1061498 0.015621388
-0.26018348 0.10661951 0.015850501
-0.26044306 0.10860152 0.015774131
-0 0 -0
-0.25726303 0.11099178 0.015926873
-0.25748855 0.11297262 0.015850501
-0 0 -0
-0.25880191 0.11737055 0.015621388
-0.26078823 0.12021963 0.015392276
-0.26094687 0.12224417 0.015315904
-0.26109043 0.12427517 0.015239534
-0.26121885 0.12631252 0.015163163
-0.25954571 0.12746979 0.015239534
-0.2569778 0.12816268 0.015392276
-0.25352353 0.1283748 0.015621388
-0.25273106 0.12992798 0.015621388
-0.25369316 0.13240615 0.015468647
-0.25463429 0.13490097 0.015315904
-0.25380176 0.13646084 0.015315904
-0.25732633 0.14042108 0.01493405
-0.25645989 0.14199735 0.01493405
-0.25558379 0.14356829 0.01493405
-0.25729105 0.1466251 0.014704937
-0.25638652 0.14820105 0.014704937
-0.25804687 0.15129441 0.014475824
-0.25882372 0.15390074 0.014323082
-0.25957829 0.15652226 0.01417034
-0.26031035 0.15915881 0.014017598
-0.26271066 0.16286732 0.013712114
-0.26170638 0.16447622 0.013712114
-0.25985333 0.16554002 0.013788485
-0.26133946 0.16876346 0.013559372
-0.2594668 0.16981468 0.013635743
-0.25676227 0.17029503 0.013788485
-0.25323626 0.17018929 0.014017598
-0.24972132 0.17004676 0.014246711
-0.24867323 0.17157581 0.014246711
-0.2468008 0.17252399 0.014323082
-0.24573757 0.17403509 0.014323082
-0.2470887 0.17729279 0.014093969
-0.24599621 0.17880556 0.014093969
-0.24729636 0.18209437 0.013864856
-0.24697138 0.18420748 0.013788485
-0.24742304 0.18692747 0.013635743
-0.24942969 0.19087769 0.013330259
-0.25061125 0.19424574 0.013101147
-0.25254279 0.19825396 0.012795663
-0.25521269 0.20291641 0.012413807
-0.25241405 0.20322238 0.012566549
-0.25655597 0.20919712 0.012031952
-0.24913457 0.20566703 0.01264292
-0.24481715 0.20462289 0.012948404
-0.24431574 0.20676811 0.012872033
-0 0 -0
-0.24175999 0.20975067 0.012872033
-0 0 -0
-0 0 -0
-0.24598213 0.22153373 0.012031952
-0.24535261 0.22371326 0.011955582
-0 0 -0
-0 0 -0
-0 0 -0
-0 0 -0
-0 0 -0
-0 0 -0
-0 0 -0
-0 0 -0
-0 0 -0
-0 0 -0
-0 0 -0
-0 0 -0
-0 0 -0
-0 0 -0
-0 0 -0
-0 0 -0
-0 0 -0
-0 0 -0
-0 0 -0
-0 0 -0
-0 0 -0
-0 0 -0
-0 0 -0
-0 0 -0
-0 0 -0
-0 0 -0
-0 0 -0
-0 0 -0
-0 0 -0
-0 0 -0
-0 0 -0
-5.0010796 6.8337107 -0.61123168
-4.9970007 6.9168077 -0.6161958
-4.9671998 6.9651999 -0.61787593
-4.9794555 7.0738263 -0.62520754
-4.9615541 7.1410975 -0.62864423
-4.9576716 7.2297964 -0.63406658
-4.9389181 7.2980685 -0.63757968
-4.9322462 7.3854537 -0.64284927
-4.9274292 7.4771929 -0.64850068
-4.914063 7.557445 -0.65308297
-4.9085083 7.6512413 -0.65888715
-4.8966546 7.7368259 -0.66392767
-4.8860464 7.8259344 -0.66927361
-4.8760953 7.9177489 -0.67484868
-4.8724456 8.0216646 -0.68149298
-4.8482361 8.0933256 -0.68523514
-4.8456383 8.2027664 -0.69233763
-4.8408751 8.3107529 -0.69928741
-4.827024 8.4051514 -0.70501524
-4.8529596 8.5717125 -0.71708184
-4.8391376 8.6709862 -0.72319156
-4.8233175 8.7686634 -0.72914845
-4.8254828 8.901535 -0.73816025
-4.8369999 9.0549889 -0.74892855
-4.8105989 9.1400871 -0.75373995
-4.7865462 9.2313976 -0.75908589
-4.8082557 9.4142208 -0.7722981
-4.7862382 9.5148087 -0.77840775
-4.8083 9.7066174 -0.79230726
-4.7827373 9.8058424 -0.79826421
-4.7893615 9.9743299 -0.81010169
-4.7566104 10.06393 -0.81521857
-4.7536302 10.219501 -0.82591051
-4.7555556 10.389916 -0.8378244
-4.7678456 10.588011 -0.85202938
-4.7367015 10.693648 -0.85844457
-4.7267342 10.850492 -0.86913651
-4.716588 11.011277 -0.88013393
-4.6876221 11.131907 -0.88777101
-4.6665015 11.274704 -0.897241
-4.6745996 11.493396 -0.91297346
-4.6406088 11.613529 -0.92053413
-4.6056819 11.734603 -0.92817128
-4.5791225 11.880803 -0.93787038
-4.5396514 11.997272 -0.94512564
-4.5010047 12.119308 -0.95283908
-4.4688802 12.262867 -0.96230906
-4.417377 12.356719 -0.96773142
-4.3790708 12.490861 -0.97643775
-4.3240542 12.580674 -0.98155457
-4.2779646 12.699573 -0.98903894
-4.2087088 12.752095 -0.99117732
-4.1377425 12.800449 -0.99301022
-4.0678449 12.853166 -0.99522501
-4.0039444 12.926459 -0.99911988
-3.922241 12.94315 -0.99850893
-3.8407669 12.96028 -0.99797434
-3.7664416 13.0018 -0.99942541
-3.6922939 13.044813 -1.0010291
-3.6119175 13.066262 -1.0009528
-3.5259635 13.066999 -0.99927264
-3.4467347 13.092245 -0.99957812
-3.3700547 13.127634 -1.0007237
-3.2942801 13.167412 -1.0022511
-3.2174358 13.203846 -1.0035495
-3.1439486 13.255355 -1.0060697
-3.0627801 13.275368 -1.0061461
-2.9795218 13.286127 -1.0055351
-2.8947616 13.289545 -1.0043895
-2.8045058 13.266085 -1.001182
-2.7160485 13.248856 -0.99850893
-2.6284907 13.233975 -0.99606508
-2.5383959 13.203834 -0.99247563
-2.4498632 13.178968 -0.98934442
-2.3633165 13.162348 -0.98690057
-2.2782569 13.15204 -0.98499125
-2.1914442 13.129382 -0.98216558
-2.1061018 13.113047 -0.97987443
-2.0219543 13.102073 -0.97804153
-1.9374371 13.086615 -0.97590315
-1.8517872 13.060741 -0.973001
-1.7643868 13.018503 -0.96887702
-1.6741253 12.948986 -0.96269095
-1.5887994 12.911513 -0.95902514
-1.5060775 12.891308 -0.956734
-1.4246495 12.879495 -0.95513022
-1.3431127 12.864193 -0.95329732
-1.2616228 12.846392 -0.95131165
-1.140516 12.394181 -0.91595191
-1.0583977 12.330412 -0.91052955
-0.97805393 12.278032 -0.90602368
-0.90050948 12.25397 -0.90373254
-0.82155842 12.203554 -0.89945579
-0.74332088 12.153627 -0.89525539
-0.6656177 12.101212 -0.89090222
-0.58712929 12.018425 -0.88425797
-0.49932578 11.692067 -0.85897917
-0.42125374 11.521535 -0.84569061
-0.34598845 11.373412 -0.8341586
-0.27366552 11.270658 -0.82613963
-0.20245482 11.158477 -0.81743336
-0.13278542 11.058811 -0.80971986
-0.064582437 10.999594 -0.80513757
0.0028843936 10.927994 -0.79963887
0.069385789 10.84302 -0.79314739
0.13364702 10.66293 -0.77940059
0.19895868 10.655929 -0.77894235
0.26409009 10.644539 -0.77817863
0.32531273 10.511168 -0.7680977
0.3863174 10.415313 -0.7609188
0.44978547 10.402784 -0.76015508
0.51370591 10.401821 -0.76030785
0.57774222 10.402455 -0.76061332
0.64199018 10.405681 -0.76114792
0.70738131 10.424425 -0.76290447
0.77162594 10.423866 -0.76320994
0.83501232 10.411979 -0.76267534
0.89725089 10.387785 -0.76122427
0.95131135 10.277837 -0.75320536
0.95638061 9.6853914 -0.7080701
0.96171886 9.1646891 -0.66843355
0.81206417 7.3084874 -0.52584893
0.81733525 6.9666758 -0.49988276
0.85969931 6.9585609 -0.49965367
0.91124582 7.0213799 -0.50492328
0.97287953 7.1519947 -0.51546246
0.97118622 6.8260655 -0.49071825
0.98225164 6.6128688 -0.47468033
1.0209764 6.5948935 -0.47376388
1.0623752 6.5944109 -0.47422212
1.104301 6.5966187 -0.47490945
1.1456103 6.5946302 -0.47529131
1.186937 6.5923829 -0.47567317
1.2284619 6.590857 -0.47613138
1.2709572 6.5939646 -0.47697148
1.3123676 6.5909314 -0.47735333
1.3539892 6.5886145 -0.47781155
1.3952183 6.584084 -0.47811705
1.4377196 6.5851402 -0.47888076
1.4813806 6.590786 -0.4800263
1.5235913 6.5893435 -0.48063728
1.5665323 6.5905414 -0.48147735
1.6095451 6.5914593 -0.48231745
1.6526282 6.5920978 -0.48315752
1.6947854 6.5885925 -0.48369211
1.7387429 6.5915661 -0.48476133
1.7807177 6.5865483 -0.48521954
1.8226962 6.5812631 -0.48567778
1.8673986 6.5853028 -0.4868997
1.9099946 6.5813808 -0.48751068
1.9546002 6.5838742 -0.48865622
1.9984388 6.5832057 -0.48957267
2.0441165 6.5879598 -0.49094737
2.0917366 6.598103 -0.49278027
2.134948 6.5936813 -0.4934676
2.1828806 6.6031766 -0.4953005
2.2262261 6.5981607 -0.49598786
2.2705662 6.5956893 -0.49690431
2.3159513 6.5957441 -0.49804986
2.362431 6.5983057 -0.49942455
2.4062932 6.5930514 -0.50018823
2.4494839 6.5856385 -0.50079924
2.5004508 6.5984545 -0.50309032
2.5491524 6.6043811 -0.50484687
2.596926 6.6071734 -0.5063743
2.6429765 6.6049995 -0.50751984
2.6898506 6.6043553 -0.50881815
2.7406349 6.6125946 -0.51088017
2.7885211 6.6131086 -0.51233125
2.8376958 6.6160326 -0.51401138
2.8834219 6.6103764 -0.51500422
2.9299941 6.6062303 -0.51614982
2.9753938 6.5990348 -0.51706624
3.0233085 6.5969682 -0.5184409
3.0696254 6.5909462 -0.51951009
3.1189682 6.5909123 -0.52111393
3.165833 6.5851293 -0.52225947
3.2184336 6.5906649 -0.52439785
3.2508359 6.5547156 -0.52302319
3.290545 6.5337548 -0.52294683
3.3323898 6.5169921 -0.52325231
3.3750718 6.5017314 -0.52371049
3.4139721 6.479136 -0.52355778
3.4546039 6.4598246 -0.52371049
3.4903698 6.4314957 -0.52309954
3.5307291 6.411705 -0.52325231
3.5816789 6.410809 -0.52508521
3.6248817 6.3956504 -0.52569616
3.6600797 6.3663735 -0.52508521
3.7231886 6.3851366 -0.52875102
3.7577281 6.3544478 -0.52806365
3.8033154 6.3423867 -0.52905649
3.8509686 6.3334122 -0.5303548
3.8887105 6.3079667 -0.53020203
3.9273422 6.283987 -0.53020203
3.9668937 6.2614555 -0.5303548
4.0014663 6.2311249 -0.5298202
4.0243912 6.1830587 -0.52768183
4.0463285 6.1341147 -0.52546704
4.1043978 6.1398387 -0.52829278
4.1654859 6.1492066 -0.53150034
4.2048311 6.1259975 -0.53172946
4.2514515 6.1131778 -0.53295141
4.2819877 6.0771966 -0.53203493
4.3070283 6.0337682 -0.53043115
4.3480606 6.0128822 -0.53096575
4.3831053 5.9836769 -0.53073663
4.425086 5.9638758 -0.53142399
4.4765754 5.9565363 -0.53333324
4.5076032 5.9218168 -0.53264594
4.549943 5.9019427 -0.53340966
4.6081653 5.9022031 -0.53615898
4.6535716 5.8855476 -0.53730458
4.7064266 5.8778949 -0.53936654
4.7474289 5.8551016 -0.53997755
4.8136415 5.8628464 -0.54364336
4.8801265 5.869998 -0.54730916
4.9340348 5.861299 -0.54944754
4.992548 5.85747 -0.55212051
5.0257883 5.8237066 -0.55181503
5.0561781 5.7867537 -0.55120409
5.094233 5.7586074 -0.55150956
5.1347938 5.7331824 -0.55212051
5.1705451 5.7023067 -0.55219692
5.204762 5.6697388 -0.55212051
5.2340221 5.6318541 -0.55150956
5.2712131 5.6025372 -0.55181503
5.3054905 5.5700884 -0.55181503
5.3437214 5.5417352 -0.55227327
5.3929496 5.5245371 -0.55395341
5.4323535 5.497015 -0.55456442
5.4723282 5.4699225 -0.55525172
5.5107551 5.4411449 -0.55578631
5.5540323 5.4169741 -0.5568555
5.6345639 5.4284439 -0.56189603
5.6749902 5.4006414 -0.56265974
5.7000284 5.3582077 -0.56181961
5.7298756 5.3204188 -0.56151414
5.7609429 5.283813 -0.56136143
5.8109922 5.2644291 -0.56319433
5.8758826 5.2579246 -0.56655467
5.9364276 5.2468596 -0.56945676
5.9715147 5.2129579 -0.56976223
6.0147171 5.1859841 -0.57090777
6.0676823 5.167078 -0.57304615
6.1328526 5.1579838 -0.57640648
6.2219176 5.1680293 -0.58213431
6.2558241 5.1316519 -0.58236343
6.2964916 5.1007004 -0.58327991
6.3377934 5.0700655 -0.58427268
6.3938231 5.0508566 -0.58671659
6.441206 5.0244055 -0.58832037
6.5335355 5.0322366 -0.59427732
6.5809584 5.0047255 -0.5958811
6.6298833 4.9780183 -0.59763765
6.7307982 4.9894862 -0.60435826
6.7974987 4.974586 -0.607795
6.851335 4.9497137 -0.61000973
6.8896956 4.9133697 -0.61077344
6.9262371 4.8755937 -0.61138439
6.9912362 4.8574619 -0.61466837
7.0250211 4.8172917 -0.6150502
7.1155591 4.8154416 -0.62070167
7.1673617 4.7866392 -0.62276369
7.225739 4.7617698 -0.62543666
7.2815719 4.7347336 -0.62788051
7.3163619 4.6937332 -0.62841517
7.3601909 4.658349 -0.62978983
7.4706817 4.6643105 -0.63719779
7.5271797 4.6356339 -0.63971806
7.5878677 4.6090264 -0.64262015
7.6468 4.5808234 -0.64536947
7.7022367 4.5500422 -0.64781338
7.7549977 4.5172472 -0.65002811
7.874227 4.5222025 -0.65812343
7.9582291 4.5057259 -0.66308755
8.0135889 4.4723558 -0.66553146
8.0635958 4.4355931 -0.66751707
8.1572838 4.4221387 -0.67332131
8.2264805 4.3945484 -0.67698711
8.3194695 4.3788104 -0.68271494
8.3833599 4.3469534 -0.6859225
8.4294109 4.3054075 -0.68760264
8.5509834 4.301537 -0.69577438
8.6147432 4.2675729 -0.69898194
8.6721344 4.2299285 -0.70165491
8.73388 4.1938977 -0.70470977
8.8505011 4.1832519 -0.71242321
8.9410982 4.1591387 -0.71792191
9.0117826 4.1249423 -0.72174048
9.1423903 4.1170492 -0.73059952
9.216711 4.0826759 -0.73472357
9.337574 4.0678487 -0.74274248
9.3669415 4.0124402 -0.74312437
9.4051695 3.9606934 -0.74426991
9.4947081 3.9299767 -0.74969226
9.6673498 3.9321101 -0.76198798
9.8468513 3.9348598 -0.7748183
10.001684 3.9257188 -0.78558666
10.1791 3.9234281 -0.79818785
10.374578 3.9258084 -0.81224012
10.513442 3.9047651 -0.82163376
10.631824 3.874655 -0.82934719
10.739902 3.8395464 -0.83622062
10.703036 3.7524688 -0.83133286
10.707001 3.6802454 -0.82980543
10.725601 3.6132064 -0.82949996
10.726738 3.5404541 -0.82781976
10.726439 3.4675176 -0.82606328
10.71424 3.3911092 -0.82339025
10.713892 3.3188155 -0.82171011
10.71306 3.246654 -0.82002997
10.717484 3.1763272 -0.81880802
10.711871 3.1032951 -0.81682235
10.721116 3.0347953 -0.81605864
10.737614 2.9684234 -0.81590593
10.745998 2.8998859 -0.81514221
10.749126 2.8300886 -0.81399661
10.744076 2.7583797 -0.81224012
10.736616 2.6863556 -0.81033081
10.738366 2.6168869 -0.80918527
10.743549 2.5484178 -0.8083452
10.766756 2.4842412 -0.80895615
10.790553 2.4200938 -0.80964351
10.784739 2.3493841 -0.80803972
10.781393 2.2794552 -0.806665
10.776617 2.209456 -0.80521399
10.80073 2.145426 -0.80605406
10.809773 2.078361 -0.80574858
10.81154 2.0099909 -0.80490851
10.81091 1.9413251 -0.80391568
10.793145 1.869851 -0.80162454
10.783762 1.8001449 -0.80002075
10.776883 1.7310987 -0.79864609
10.777449 1.6634204 -0.79788238
10.784492 1.5968221 -0.79765326
10.784216 1.5292209 -0.79688954
10.789444 1.4624861 -0.79658407
10.790303 1.3952338 -0.79597306
10.788765 1.3277826 -0.79520935
10.787796 1.2605184 -0.79452205
10.790372 1.1937544 -0.79414016
10.796501 1.1274199 -0.79406381
10.795278 1.0603738 -0.79345286
10.789666 0.99302 -0.79253638
10.775687 0.92509359 -0.79100895
10.767245 0.85785067 -0.78993976
10.76634 0.79133004 -0.78948152
10.772983 0.72538787 -0.78963429
10.784197 0.65969783 -0.79016888
10.797002 0.59400684 -0.79085624
10.813391 0.52837771 -0.79184908
10.829379 0.4625698 -0.79284185
10.842975 0.3965129 -0.79368198
10.859156 0.33039722 -0.79475117
10.875931 0.26412198 -0.79589671
10.886318 0.19754539 -0.79658407
10.893308 0.13081567 -0.79704225
10.893906 0.063973129 -0.79704225
10.892098 -0.0028710808 -0.79688954
10.889882 -0.069690712 -0.79673678
10.888252 -0.13649586 -0.79666042
10.879234 -0.20315257 -0.79604948
10.868813 -0.26967892 -0.79536211
10.86197 -0.33620885 -0.79498029
10.853724 -0.40262789 -0.79452205
10.855034 -0.46939024 -0.79482752
10.853941 -0.53608525 -0.79498029
10.856421 -0.60300606 -0.79543847
10.852516 -0.66960847 -0.79543847
10.843229 -0.73584759 -0.79505664
10.843482 -0.80273515 -0.79543847
10.841334 -0.86949384 -0.79566759
10.835795 -0.93599868 -0.79566759
10.833819 -1.0028362 -0.79597306
10.828454 -1.0693905 -0.79604948
10.815739 -1.1351874 -0.79559124
10.799651 -1.2005378 -0.79490387
10.78416 -1.2658498 -0.79429293
10.767283 -1.3308946 -0.79360557
10.753971 -1.3962939 -0.79322374
10.742237 -1.4618491 -0.79299462
10.736027 -1.5281565 -0.79322374
10.72842 -1.5942961 -0.79337645
10.722377 -1.6607053 -0.79368198
10.716908 -1.7272592 -0.79406381
10.712008 -1.7939731 -0.79452205
10.707674 -1.8608627 -0.79505664
10.709792 -1.9290047 -0.79612583
10.709517 -1.9968768 -0.79704225
10.697062 -2.0625515 -0.79704225
10.677361 -2.1267846 -0.79650766
10.656297 -2.1906526 -0.79589671
10.63095 -2.2535148 -0.79498029
10.611078 -2.3174255 -0.79452205
10.590822 -2.3811772 -0.79406381
10.569213 -2.4445429 -0.79352921
10.545284 -2.5072718 -0.79284185
10.519047 -2.5693257 -0.79200178
10.489544 -2.630424 -0.7909326
10.457757 -2.6907601 -0.78971064
10.428517 -2.751569 -0.78871787
10.410475 -2.8152449 -0.78864145
10.394927 -2.879602 -0.78879422
10.397205 -2.9490457 -0.790398
10.377957 -3.0125082 -0.79032165
10.36788 -3.0786848 -0.79100895
10.355473 -3.1442714 -0.79154354
10.34265 -3.2098217 -0.79207814
10.32181 -3.2729211 -0.79200178
10.301534 -3.3361931 -0.79200178
10.297909 -3.4049752 -0.79337645
10.273988 -3.4671412 -0.79314739
10.334538 -3.5583658 -0.79979163
10.238194 -3.5956018 -0.79375833
10.162434 -3.6391878 -0.78940517
10.121181 -3.6946347 -0.78787774
10.145044 -3.774055 -0.79169631
10.172975 -3.8556738 -0.79589671
10.155636 -3.9205358 -0.7964313
10.149019 -3.9897087 -0.79788238
10.141009 -4.0585771 -0.79925704
10.133459 -4.1278734 -0.80070806
10.11623 -4.1934109 -0.80139542
10.09674 -4.2581167 -0.80193001
10.081418 -4.324707 -0.80284649
10.062917 -4.3900733 -0.80353379
10.044905 -4.4557796 -0.80429751
10.031918 -4.5238895 -0.80551946
10.01666 -4.591177 -0.80658865
10.00005 -4.6580257 -0.80758148
9.9811926 -4.7239904 -0.80842155
9.9628019 -4.7903309 -0.80933803
9.9439716 -4.8566232 -0.81025445
9.9282761 -4.9246373 -0.81147641
9.9112291 -4.9921932 -0.81262195
8.2346525 -4.2110419 -0.67103016
8.2086592 -4.2614894 -0.67103016
8.1726542 -4.3066621 -0.6701901
8.1557455 -4.3619013 -0.67103016
8.1402197 -4.4180465 -0.672023
9.9076576 -5.4565701 -0.82896537
9.8844347 -5.523097 -0.82988179
9.8729105 -5.5964293 -0.83186746
9.8522148 -5.6648564 -0.83308941
9.8293285 -5.7322354 -0.8341586
9.8137093 -5.8041153 -0.83591509
8.9220219 -5.3507905 -0.75946778
8.9009485 -5.4126883 -0.76053697
8.8735104 -5.4708652 -0.76107156
8.8609104 -5.5384235 -0.76298082
8.8638172 -5.6161737 -0.76634115
8.2696457 -5.3110056 -0.71540171
8.8477077 -5.7593422 -0.77122891
8.8205242 -5.8190136 -0.77199256
9.604372 -6.4211841 -0.84752351
9.5631409 -6.4788761 -0.84737074
9.5314274 -6.543076 -0.84813446
9.5041962 -6.6105475 -0.84935641
9.47894 -6.6796536 -0.85080743
7.3856339 -5.2723398 -0.65766525
7.3507209 -5.315805 -0.65743613
7.3163567 -5.3596292 -0.65728337
7.3233652 -5.4341335 -0.66110194
9.3253708 -7.0092163 -0.85615343
7.3306975 -5.5803728 -0.66828078
7.3105311 -5.6362081 -0.6696555
7.2805252 -5.6846409 -0.67011368
7.2775717 -5.7545667 -0.67324489
7.2405686 -5.7978659 -0.67309219
9.1253366 -7.3998389 -0.8624922
9.0882359 -7.4626527 -0.86333227
9.0553074 -7.5291147 -0.86463058
9.0478363 -7.6172891 -0.86852551
9.0100317 -7.6804252 -0.86944199
8.9816055 -7.7518535 -0.87135124
8.9578953 -7.8278151 -0.87379509
8.9328442 -7.9031157 -0.87616265
8.9168587 -7.9870524 -0.87952292
8.9371061 -8.1045828 -0.88670182
8.8930845 -8.1646624 -0.88731277
8.8712997 -8.2455521 -0.89029127
8.7980309 -8.2786465 -0.88792378
8.6647739 -8.2540655 -0.87921745
8.5615768 -8.2565451 -0.87364239
8.4793663 -8.2782717 -0.87028205
8.422739 -8.3245363 -0.86967111
8.4553709 -8.4599924 -0.87875921
8.436923 -8.5457754 -0.88242507
8.3975544 -8.6109467 -0.88387609
8.3341846 -8.6515388 -0.88273054
7.8603411 -8.2604122 -0.8359915
8.1952972 -8.7190104 -0.87914109
8.1341829 -8.7610931 -0.87830102
8.0445585 -8.7718887 -0.87425333
7.9604645 -8.7878275 -0.87081665
7.3499756 -8.2145081 -0.80689412
7.3047156 -8.2654295 -0.80750513
7.2610741 -8.3183584 -0.8083452
7.2170577 -8.3710623 -0.80918527
3.0451477 -3.5751665 -0.32232022
2.9962034 -3.5617306 -0.31911266
2.9488139 -3.5493641 -0.3160578
2.9130702 -3.5504291 -0.31437764
2.8680124 -3.539567 -0.31155193
2.8362761 -3.5446391 -0.31032997
2.818799 -3.5674529 -0.31086457
2.8483603 -3.6507285 -0.31727973
2.7188442 -3.5290937 -0.30383846
2.7321389 -3.5917466 -0.30826795
2.697479 -3.591697 -0.30666417
2.6267097 -3.5424922 -0.30040175
2.5978591 -3.5488861 -0.2994853
0 -0 -0
2.5083869 -3.5163605 -0.29345199
2.4201999 -3.437098 -0.28459296
2.3967896 -3.4486077 -0.28428748
2.3366838 -3.4065044 -0.27901787
2.2933891 -3.3877444 -0.27596304
2.2620399 -3.3859971 -0.27451199
2.2423184 -3.4014781 -0.27466473
2.2273827 -3.4243684 -0.2755048
2.2100973 -3.443846 -0.27603942
2.1803946 -3.4438608 -0.27481747
2.1565828 -3.4529452 -0.27443561
2.1306505 -3.4584713 -0.27374828
2.0985217 -3.4535823 -0.2721445
2.063972 -3.4441528 -0.27015886
2.0392511 -3.4507425 -0.26962423
2.0165341 -3.4606051 -0.26939514
1.9888084 -3.4616723 -0.26840231
1.9645836 -3.4686038 -0.2679441
1.9316045 -3.4596956 -0.26611117
1.8992894 -3.4513876 -0.26435465
1.8728504 -3.4533336 -0.26351458
1.8483381 -3.4586036 -0.26297998
1.8256888 -3.4672325 -0.26275086
1.8057566 -3.4810252 -0.26297998
1.7830031 -3.4893756 -0.26275086
1.7561835 -3.4895608 -0.26183441
1.7298715 -3.490442 -0.26099432
1.703615 -3.4911325 -0.26015425
1.6800041 -3.4970255 -0.25977239
1.6576632 -3.505465 -0.25961965
1.6331799 -3.5092413 -0.25908506
1.6165954 -3.5300763 -0.26000151
1.5989978 -3.5490212 -0.26076522
1.5775951 -3.5596774 -0.26084158
1.5585104 -3.5756893 -0.26137617
1.5400736 -3.5934339 -0.2620635
1.5133533 -3.5917885 -0.26114705
1.4893799 -3.5964 -0.26076522
0 -0 -0
0 -0 -0
1.4294852 -3.6399126 -0.26213989
1.4121432 -3.6616409 -0.26320907
1.390002 -3.6711693 -0.26328546
1.3716146 -3.6908457 -0.26420191
0 -0 -0
1.3319235 -3.7233613 -0.26550022
0 -0 -0
0 -0 -0
0 -0 -0
1.3141887 -3.9793353 -0.28360012
1.2928132 -3.9968119 -0.28436384
1.2760849 -4.0293856 -0.28634951
1.2584155 -4.059999 -0.28818241
1.23666 -4.0781407 -0.28902248
1.298563 -4.3791466 -0.31246838
1.1659979 -4.0221372 -0.28337103
1.1396677 -4.0234594 -0.28291279
1.2312816 -4.4513211 -0.31636328
1.2538034 -4.6436253 -0.33102652
1.2565 -4.7698331 -0.34042016
1.2524891 -4.8759632 -0.34820998
1.2363361 -4.9386921 -0.35256314
1.2392817 -5.0827794 -0.36333144
1.2299232 -5.1824551 -0.37058669
1.2292464 -5.3249536 -0.38120225
1.2318822 -5.4900112 -0.39357436
1.220022 -5.5978146 -0.40144056
1.209152 -5.7164063 -0.41014686
1.2060788 -5.880003 -0.42236623
1.1977416 -6.0271459 -0.43328726
1.1803051 -6.1362147 -0.44122985
1.1861637 -6.3776336 -0.45948252
1.1859322 -6.6016812 -0.4763605
1.1732988 -6.769958 -0.48888534
1.1794804 -7.0632248 -0.51110929
1.151764 -7.1677923 -0.51867002
1.3672009 -8.8568497 -0.64903533
1.3121008 -8.8601398 -0.64865345
1.2588303 -8.8759222 -0.6492644
1.2009995 -8.858777 -0.64735514
1.1448318 -8.8521357 -0.64628595
1.0890343 -8.8471184 -0.64536947
1.0340353 -8.8476915 -0.64491129
0.97907019 -8.8479233 -0.64445305
0.92496884 -8.8557482 -0.64460582
0.86993206 -8.854311 -0.64407122
0.81485647 -8.8515387 -0.64346021
0.75959212 -8.8454437 -0.64262015
0.70514506 -8.84795 -0.64246738
0.65120667 -8.8570824 -0.64284927
0.59671462 -8.858922 -0.6426965
0.54216379 -8.8594303 -0.64246738
0.48757446 -8.8586082 -0.64216191
0.43291855 -8.8554583 -0.64170367
0.37976274 -8.8858404 -0.6438421
0.20171051 -5.5001841 -0.38418072
0.14638428 -4.7897305 -0.32965183
0.11653439 -4.7715998 -0.32820079
0.086894549 -4.7522864 -0.32667336
0.057638504 -4.7447543 -0.32606241
0.028437933 -4.7300625 -0.32491684
-0.00058202329 -4.7201772 -0.32415313
-0.029505549 -4.7141023 -0.32369491
-0.05832934 -4.7058568 -0.32308394
-0.087202832 -4.70541 -0.32308394
-0.11614756 -4.707777 -0.32331306
-0.1439793 -4.6730914 -0.32071644
-0.17342858 -4.6930442 -0.32232022
-0.20183265 -4.6829262 -0.32163289
-0.23026699 -4.6756244 -0.32117465
-0.2584531 -4.6651635 -0.32048732
-0.28787279 -4.6764274 -0.32148015
-0.3173728 -4.6865106 -0.32239661
-0.34708104 -4.6974015 -0.32338941
-0.37493941 -4.6832566 -0.32247296
-0.40341052 -4.6778879 -0.32224387
-0.4319219 -4.6733389 -0.3220911
-0.46127552 -4.6775465 -0.3226257
-0.49173886 -4.6914854 -0.32392401
-0.51908255 -4.6754975 -0.3229312
-0.54764473 -4.6712341 -0.32285482
-0.57690871 -4.6727338 -0.32323667
-0.60441279 -4.6602068 -0.32254934
-0.63326502 -4.6583867 -0.32270208
-0.6678828 -4.6968589 -0.32598603
-0.69976962 -4.7133837 -0.32758981
-0.73234242 -4.7326488 -0.32942274
-0.76184392 -4.731019 -0.32965183
-0.79184729 -4.7321558 -0.33011007
-0.82223499 -4.7350664 -0.33072102
-0 -0 -0
-0.88631427 -4.7569656 -0.33324128
-0.91831899 -4.7661228 -0.33438686
-0.94930005 -4.7691994 -0.33507419
-0 -0 -0
-1.8830136 -8.884038 -0.65819985
-1.9374896 -8.8723173 -0.65819985
-1.9918927 -8.8602619 -0.65819985
-2.0502667 -8.8653584 -0.65957451
-2.1087785 -8.8700714 -0.66094917
-2.1667149 -8.8714943 -0.66209477
-2.2235348 -8.8677034 -0.66285843
-2.2826269 -8.8722401 -0.6643095
-2.3395677 -8.8677073 -0.66507322
-2.3944557 -8.8551102 -0.66522598
-2.4562006 -8.8671551 -0.66736436
-2.5100179 -8.8499994 -0.66721159
-2.5690002 -8.850709 -0.6685099
-2.6275177 -8.8491163 -0.6696555
-2.6762595 -8.8147011 -0.66820443
-2.7190607 -8.7619286 -0.66530234
-2.7655363 -8.72227 -0.66346943
-2.8079402 -8.670989 -0.66072005
-2.8401127 -8.5901718 -0.65560323
-2.8643837 -8.4885054 -0.64880621
-2.9014776 -8.4274044 -0.64529312
-2.9356167 -8.3595848 -0.64124548
-2.9754224 -8.3095007 -0.63864887
-3.0113041 -8.249877 -0.63528854
-3.0354388 -8.1602249 -0.62948436
-3.0642433 -8.0855064 -0.62490207
-3.0994298 -8.0293474 -0.62184721
-3.124191 -7.9480085 -0.61673039
-3.1554832 -7.8851833 -0.61314094
-3.1977866 -7.8508992 -0.61191899
-3.2077076 -7.7390261 -0.6042819
-3.2489324 -7.7044992 -0.60305995
-3.2698019 -7.6230283 -0.59794313
-3.2957771 -7.5553012 -0.59397185
-3.3238757 -7.4939241 -0.5905351
-3.3517559 -7.4333968 -0.58717483
-3.3815122 -7.3782492 -0.58427268
-3.4022968 -7.3049421 -0.57984316
-3.4329758 -7.254189 -0.57732296
-3.4549496 -7.1862631 -0.57335168
-3.4770954 -7.1201344 -0.56953311
-3.5003328 -7.0575786 -0.56602007
-3.5179996 -6.9852128 -0.56166691
-3.5489879 -6.9404154 -0.55968124
-3.5735853 -6.8839984 -0.55670279
-3.5883257 -6.8099012 -0.55219692
-3.6112292 -6.7525887 -0.54914206
-3.6288075 -6.6864901 -0.54532349
-3.6360898 -6.6029649 -0.53997755
-3.6541598 -6.540493 -0.53646445
-3.6853707 -6.502336 -0.53508979
-3.7078006 -6.4493489 -0.53241682
-3.7282126 -6.3937492 -0.52951473
-3.7455442 -6.3338518 -0.52623075
-3.775105 -6.2953596 -0.52485609
-3.798635 -6.2473731 -0.5226413
-3.8164852 -6.1908493 -0.51966286
-3.8332567 -6.1334972 -0.516608
-3.8612115 -6.0947022 -0.51523334
-3.883446 -6.0474062 -0.51309496
-3.8769557 -5.9566183 -0.50698525
-3.8958588 -5.9060864 -0.5045414
-3.9314702 -5.8812418 -0.50446504
-3.9473469 -5.8272929 -0.50171566
-3.9734337 -5.7889891 -0.50041735
-4.0003381 -5.7522225 -0.49927181
-3.9924757 -5.6664448 -0.49354398
-4.0080485 -5.6150632 -0.49102375
-4.0219727 -5.562089 -0.48835075
-4.0300946 -5.5019178 -0.48499042
-4.0465446 -5.4538674 -0.48277566
-4.0703464 -5.4161839 -0.48155373
-4.0805492 -5.3609619 -0.47865164
-4.1249356 -5.3508248 -0.48010269
-4.12148 -5.2790508 -0.47559679
-4.1438975 -5.2411499 -0.47437486
-4.1622658 -5.198504 -0.47269469
-4.1808949 -5.1566048 -0.47109091
-4.1941047 -5.1085091 -0.46887615
-4.2036943 -5.0566134 -0.46627954
-4.2230821 -5.0169964 -0.46490484
-4.2440825 -4.9796085 -0.4637593
-4.264132 -4.9413972 -0.46253735
-4.2871542 -4.9068818 -0.46169728
-4.3185029 -4.8819776 -0.46185002
-4.3270864 -4.8316236 -0.45940614
-4.3399043 -4.7865186 -0.45749688
-4.3435655 -4.7318916 -0.45459476
-4.3324637 -4.662065 -0.45008889
-4.365088 -4.6397505 -0.4505471
-4.389348 -4.6085482 -0.45008889
-4.4036989 -4.5671759 -0.44856146
-4.4107418 -4.5186682 -0.44627035
-4.4068413 -4.45961 -0.44283363
-4.4200158 -4.4183903 -0.44130623
-4.4250455 -4.369473 -0.43893874
-4.4303555 -4.3213568 -0.43664759
-4.4524784 -4.2899413 -0.43618935
-4.4823294 -4.2659769 -0.43657121
-4.4720912 -4.2042532 -0.43275267
-4.5043807 -4.1828389 -0.43344
-4.5130582 -4.1396232 -0.43168348
-4.5117683 -4.0877581 -0.42893413
-4.5241323 -4.048696 -0.42763582
-4.5294623 -4.003695 -0.42565018
-4.5426745 -3.9659934 -0.42450461
-4.5654135 -3.9367435 -0.42435187
-4.5811315 -3.9015467 -0.42351177
-4.5782738 -3.8509057 -0.4208388
-4.5811048 -3.8055432 -0.41877678
-4.5982013 -3.7723043 -0.4181658
-4.5972404 -3.7245665 -0.41579831
-4.6098847 -3.6881924 -0.4148055
-4.6026931 -3.6363549 -0.41190338
-4.5911093 -3.5816798 -0.40861943
-4.5995693 -3.5431006 -0.40732113
-4.6196351 -3.5136046 -0.40716839
-4.6291461 -3.4762144 -0.40602282
-4.6471844 -3.4453704 -0.40571734
-4.6561666 -3.4079599 -0.40457177
-4.6705232 -3.3746557 -0.40396082
-4.69033 -3.3453555 -0.40388444
-4.6969066 -3.3067582 -0.40258613
-4.7203836 -3.2801516 -0.40289161
-4.7182169 -3.2359042 -0.40082961
-4.7338538 -3.2040992 -0.40044776
-4.7434735 -3.1683488 -0.3995313
-4.7644901 -3.140281 -0.39968404
-4.7819972 -3.1099005 -0.3995313
-4.7842031 -3.0697346 -0.39800388
-4.8172727 -3.0493846 -0.39930218
-4.7927547 -2.9928439 -0.39540726
-4.7753677 -2.9414246 -0.39219967
-4.8018484 -2.9172432 -0.39296338
-4.8153811 -2.8851633 -0.39258152
-4.8106713 -2.8423798 -0.39059588
-4.8150969 -2.8052824 -0.38945031
-4.8218427 -2.7697272 -0.38853386
-4.8187885 -2.7287927 -0.38677734
-4.8006124 -2.6797416 -0.38372251
-4.7828908 -2.6314976 -0.38074404
-4.8059602 -2.6059015 -0.38135499
-4.8165822 -2.5735455 -0.38089678
-4.8578715 -2.5574074 -0.38311154
-4.8327522 -2.506444 -0.37959847
-4.8311682 -2.4681284 -0.37814742
-4.8328595 -2.4317191 -0.37700185
-4.8405414 -2.3984795 -0.37639087
-4.8605442 -2.3713553 -0.37684911
-4.8830929 -2.3453703 -0.37753645
-4.8829679 -2.3085487 -0.37631452
-4.870822 -2.2663512 -0.37409976
-4.8782897 -2.2335176 -0.37356517
-4.9009943 -2.2076361 -0.37432888
-4.8880091 -2.1658146 -0.37211412
-4.8838372 -2.1282175 -0.37066305
-4.8940539 -2.0970333 -0.37043396
-4.8856931 -2.0580664 -0.36867741
-4.9055996 -2.0310993 -0.36928838
-4.9262829 -2.0043409 -0.36997572
-0.24401511 -0.098737091 0.01722518
-0.25853911 -0.10270099 0.016079614
-0.26195562 -0.10218819 0.015850501
-0.26257771 -0.10057894 0.015850501
-0.2659941 -0.10000706 0.015621388
-0.26472902 -0.097690448 0.015774131
-0.26626238 -0.096399821 0.015697761
-0.26496693 -0.09410467 0.015850501
-0.26365346 -0.091829069 0.016003244
-0.26421192 -0.090209596 0.016003244
-0 -0 -0
-0 -0 -0
-0.26487699 -0.085030265 0.016079614
-0.26539376 -0.083403409 0.016079614
-0.267809 -0.08235158 0.015926873
-0.26926529 -0.080990002 0.015850501
-0.26879942 -0.079058945 0.015926873
-0.27023888 -0.077679604 0.015850501
-0.26974937 -0.075754412 0.015926873
-0.26828375 -0.073578484 0.016079614
-0.27065867 -0.072438471 0.015926873
-0 -0 -0
-0 -0 -0
-0.27485242 -0.068152174 0.015697761
-0.27332506 -0.066004381 0.015850501
-0.27372491 -0.064326048 0.015850501
-0.27216861 -0.062209088 0.016003244
-0.27157092 -0.060325794 0.016079614
-0.27388704 -0.059070621 0.015926873
-0.27522111 -0.057589125 0.015850501
-0.27850327 -0.05648179 0.015621388
-0.28178209 -0.055336323 0.015392276
-0.28211632 -0.053606298 0.015392276
-0.28243995 -0.051874258 0.015392276
-0.28275293 -0.050140262 0.015392276
-0 -0 -0
-0.28039351 -0.046192583 0.015621388
-0.28067166 -0.044471253 0.015621388
-0 -0 -0
-0.28218347 -0.041163512 0.015545018
-0 -0 -0
-0.28464508 -0.037953101 0.015392276
-0.28685185 -0.036449209 0.015239534
-0 -0 -0
-0 -0 -0
-0.28648245 -0.031059578 0.015315904
-0 -0 -0
-0.28386337 -0.027267843 0.015545018
-0 -0 -0
-0 -0 -0
-0 -0 -0
-0.2744987 -0.019624494 0.016308727
-0 -0 -0
-0 -0 -0
-0.27780113 -0.014714211 0.016079614
-0 -0 -0
-0 -0 -0
-0.28201139 -0.0097191706 0.015774131
-0.28306249 -0.008012698 0.015697761
-0 -0 -0
-0.28313953 -0.0045384825 0.015697761
-0 -0 -0
-0 0 -0
-0.28018391 0.0006544955 0.015926873
-0 0 -0
-0 0 -0
-0.2801244 0.005811654 0.015926873
-0.27609706 0.0074065365 0.016232356
-0.27505004 0.0090634273 0.016308727
-0 0 -0
-0.27193052 0.012290151 0.016537841
-0 0 -0
-0 0 -0
-0 0 -0
-0 -0 -0
-0 -0 -0
-0 -0 -0
-0 -0 -0
-0 -0 -0
-0 0 -0
-0 0 -0
-0 0 -0
-0 0 -0
-0 0 -0
-0 0 -0
-0 0 -0
-0 0 -0
-0 0 -0
-0 0 -0
-0 0 -0
-0 0 -0
-0 0 -0
-0 0 -0
-0 0 -0
-0 0 -0
-0 0 -0
-0 0 -0
-0 0 -0
-0 0 -0
-0 0 -0
-0 0 -0
-0 0 -0
-0 0 -0
-0 0 -0
-0 0 -0
-0 0 -0
-0 0 -0
-0 0 -0
-0 0 -0
-0 0 -0
-0 0 -0
-0 0 -0
-0 0 -0
-0 0 -0
-0 0 -0
-0 0 -0
-0 0 -0
-0 0 -0
-0 0 -0
-0 0 -0
-0 0 -0
-0 0 -0
-0 0 -0
-0 0 -0
-0 0 -0
-0 0 -0
-0 0 -0
-0 0 -0
-0 0 -0
-0 0 -0
-0 0 -0
-0 0 -0
-0 0 -0
-0 0 -0
-0 0 -0
-0 0 -0
-0 0 -0
-0 0 -0
-0 0 -0
-0 0 -0
-0 0 -0
-0 0 -0
-0 0 -0
-0 0 -0
-0 0 -0
-0 0 -0
-0 0 -0
-0 0 -0
-0 0 -0
-0 0 -0
-0 0 -0
-0 0 -0
-0 0 -0
-0 0 -0
-0 0 -0
-0 0 -0
-0 0 -0
-0 0 -0
-0 0 -0
-0 0 -0
-0 0 -0
-0 0 -0
-0 0 -0
-0 0 -0
-0 0 -0
-0 0 -0
-0 0 -0
-0 0 -0
-0 0 -0
-0 0 -0
-0 0 -0
-0 0 -0
-0 0 -0
-0 0 -0
-0 0 -0
-0 0 -0
-0 0 -0
-0 0 -0
-0 0 -0
-0 0 -0
-0 0 -0
-0 0 -0
-0 0 -0
-0 0 -0
-0 0 -0
-0 0 -0
-0 0 -0
-0 0 -0
-0 0 -0
-0 0 -0
-0 0 -0
-0 0 -0
-0 0 -0
-0 0 -0
-0 0 -0
-0 0 -0
-0 0 -0
-0 0 -0
-0 0 -0
-0 0 -0
-0 0 -0
-0 0 -0
-0.25520995 0.24340405 0.0062928633
-0.25586373 0.24703866 0.0060277451
-0.25220382 0.24651754 0.0062928633
-0.23792775 0.23546337 0.007883573
-0.25338674 0.25381893 0.0057626269
-0.26652822 0.27024701 0.0039067985
-0.26347339 0.27045178 0.004083544
-0.25696895 0.26704419 0.0047021536
-0.25257751 0.26573089 0.0050556445
-0.27005443 0.2875883 0.0025812073
-0.23166661 0.24984016 0.0073533361
