# .PCD v0.7 - Point Cloud Data file format
VERSION 0.7
FIELDS x y z intensity normal_x normal_y normal_z curvature
SIZE 4 4 4 4 4 4 4 4
TYPE F F F F F F F F
COUNT 1 1 1 1 1 1 1 1
WIDTH 456
HEIGHT 1
VIEWPOINT 0 0 0 1 0 0 0
POINTS 456
DATA ascii
3.6153085 2.8850298 0.54268044 1303 0 0 -1 0
3.5630932 2.9466 0.46196574 1280 0 0 -1 0
3.613976 2.8839664 0.46196574 1299 0 0 -1 0
3.5644069 2.9476864 0.54268044 1300 0 0 -1 0
-1.6149806 5.7920151 0.52548462 4447 6.7751327 -24.29854 0.31260523 -4.195179
-1.7151868 5.7608242 0.42055547 4323 7.1955156 -24.167688 0.75280184 -4.195179
-1.6143854 5.7898808 0.42055547 4340 6.7726355 -24.289585 0.75280184 -4.195179
-1.513092 5.817174 0.42055547 4392 6.347692 -24.404085 0.75280184 -4.195179
-1.7158192 5.762948 0.52548462 4398 7.1981688 -24.176598 0.31260523 -4.195179
-1.5136499 5.8193188 0.52548462 4430 6.3500323 -24.413084 0.31260523 -4.195179
-2.4481094 7.432847 -0.17282587 1280 10.054041 -30.525656 3.173887 -4.1068592
-2.5726223 7.3751292 -0.30928415 1210 10.565397 -30.288618 3.7343018 -4.1068592
-2.443517 7.4189043 -0.30928415 1222 10.03518 -30.468395 3.7343018 -4.1068592
-2.3136671 7.4604197 -0.30928415 1248 9.5019045 -30.638893 3.7343018 -4.1068592
-2.5774572 7.3889894 -0.17282587 1258 10.585254 -30.345539 3.173887 -4.1068592
-2.3180153 7.4744401 -0.17282587 1260 9.519763 -30.696474 3.173887 -4.1068592
-1.4365709 9.1320343 0.23840484 1085 6.0901108 -38.713787 1.5329243 -4.2393389
-1.5943958 9.0979691 0.077124 1045 6.7591839 -38.569374 2.2166483 -4.2393389
-1.4353713 9.1244097 0.077124 1073 6.0850253 -38.681465 2.2166483 -4.2393389
-1.2759098 9.1480703 0.077124 1074 5.4090137 -38.781769 2.2166483 -4.2393389
-1.5957282 9.1055727 0.23840484 1065 6.7648325 -38.601608 1.5329243 -4.2393389
-1.276976 9.155715 0.23840484 1059 5.4135342 -38.814178 1.5329243 -4.2393389
-1.5965744 9.1104012 0.39979586 1072 6.7684202 -38.622078 0.84873307 -4.2393389
-1.4373327 9.136878 0.39979586 1061 6.0933404 -38.734322 0.84873307 -4.2393389
-1.2776532 9.1605711 0.39979586 1080 5.4164047 -38.834766 0.84873307 -4.2393389
-1.3951162 9.1384592 0.23840484 1082 5.9143705 -38.741024 1.5329243 -4.2393389
-1.5530941 9.1051102 0.077124 1074 6.5840926 -38.599648 2.2166483 -4.2393389
-1.3939514 9.1308289 0.077124 1066 5.9094324 -38.708679 2.2166483 -4.2393389
-1.2343842 9.1537666 0.077124 1065 5.2329726 -38.80592 2.2166483 -4.2393389
-1.5543921 9.1127195 0.23840484 1059 6.5895948 -38.631905 1.5329243 -4.2393389
-1.2354157 9.1614161 0.23840484 1062 5.2373457 -38.838348 1.5329243 -4.2393389
-1.5552164 9.1175528 0.39979586 1080 6.5930896 -38.652397 0.84873307 -4.2393389
-1.3958561 9.1433058 0.39979586 1073 5.9175072 -38.76157 0.84873307 -4.2393389
-1.2360709 9.166275 0.39979586 1064 5.2401233 -38.858948 0.84873307 -4.2393389
-1.4586506 9.127059 0.20291188 158 0.9662053 -6.0457335 0.26302981 -0.66239667
-1.6177176 9.1002121 0.20291188 156 1.0715708 -6.0279503 0.26302981 -0.66239667
-1.2991393 9.1511259 0.20291188 144 0.86054552 -6.0616755 0.26302981 -0.66239667
-1.6186841 9.105649 0.36428288 155 1.0722109 -6.0315514 0.15613821 -0.66239667
-1.459522 9.1325121 0.36428288 149 0.96678251 -6.0493455 0.15613821 -0.66239667
-1.521199 9.1196575 0.2739031 155 1.0076371 -6.0408306 0.21600547 -0.66239667
-1.6788372 9.0847397 0.11259383 151 1.1120561 -6.0177011 0.32285619 -0.66239667
-1.520031 9.1126547 0.11259383 148 1.0068635 -6.0361919 0.32285619 -0.66239667
-1.6801273 9.0917206 0.2739031 144 1.1129107 -6.0223255 0.21600547 -0.66239667
-1.3618072 9.1448174 0.2739031 145 0.90205657 -6.0574965 0.21600547 -0.66239667
-1.6809057 9.095933 0.43531179 141 1.1134263 -6.0251155 0.1090889 -0.66239667
-1.5219038 9.1238823 0.43531179 139 1.008104 -6.0436292 0.1090889 -0.66239667
-1.3624382 9.1490545 0.43531179 146 0.90247452 -6.0603032 0.1090889 -0.66239667
5.0375161 8.3048363 0.47962901 4959 0 0 -1 0
4.8900056 8.3883953 0.31012809 4758 0 0 -1 0
5.0356593 8.3017759 0.31012809 4840 0 0 -1 0
5.1797781 8.2126274 0.31012809 4865 0 0 -1 0
4.8918085 8.3914881 0.47962901 4853 0 0 -1 0
5.1816878 8.2156553 0.47962901 4951 0 0 -1 0
5.0751495 8.2818918 0.47962901 4994 0 0 -1 0
4.928021 8.3661194 0.31012809 4865 0 0 -1 0
5.0732789 8.2788401 0.31012809 4874 0 0 -1 0
5.2169924 8.1890373 0.31012809 4816 0 0 -1 0
4.9298377 8.3692036 0.47962901 4951 0 0 -1 0
5.2189159 8.1920557 0.47962901 4916 0 0 -1 0
-7.2614217 12.897471 0.41657758 14251 0 0 -1 0
-7.4826484 12.764071 0.15829045 13427 0 0 -1 0
-7.2587452 12.892717 0.15829045 13689 0 0 -1 0
-7.0326304 13.017437 0.15829045 13815 0 0 -1 0
-7.4854074 12.768778 0.41657758 14033 0 0 -1 0
-7.0352235 13.022237 0.41657758 14023 0 0 -1 0
-7.2005634 12.931547 0.41657758 14260 0 0 -1 0
-7.4224162 12.799191 0.15829045 13815 0 0 -1 0
-7.1979094 12.926781 0.15829045 13510 0 0 -1 0
-6.9712095 13.050433 0.15829045 13593 0 0 -1 0
-7.4251528 12.803909 0.41657758 14023 0 0 -1 0
-6.9737797 13.055244 0.41657758 13846 0 0 -1 0
-6.8279438 16.179758 1.3544674 260 8.1410532 -19.291353 -0.899562 -1.192314
-7.1135263 16.067726 1.0478624 248 8.4815569 -19.157776 -0.53399271 -1.192314
-6.8320231 16.189425 1.0478624 254 8.1459169 -19.302877 -0.53399271 -1.192314
-6.5484381 16.306194 1.0478624 252 7.8077946 -19.442104 -0.53399271 -1.192314
-7.1092792 16.058132 1.3544674 251 8.4764929 -19.146336 -0.899562 -1.192314
-6.544528 16.296459 1.3544674 255 7.8031325 -19.430496 -0.899562 -1.192314
-7.1028657 16.043646 1.6608424 256 8.4688463 -19.129065 -1.2648574 -1.192314
-6.821784 16.165163 1.6608424 249 8.133709 -19.273951 -1.2648574 -1.192314
-6.7124081 16.221201 1.4893062 263 8.0032988 -19.340765 -1.0603323 -1.192314
-6.9996033 16.113365 1.182791 255 8.3457251 -19.212191 -0.69486988 -1.192314
-6.7173204 16.23307 1.182791 248 8.0091553 -19.354918 -0.69486988 -1.192314
-6.4329915 16.347832 1.182791 252 7.670146 -19.491749 -0.69486988 -1.192314
-6.9944844 16.101582 1.4893062 259 8.3396215 -19.198141 -1.0603323 -1.192314
-6.428287 16.335876 1.4893062 253 7.664537 -19.477495 -1.0603323 -1.192314
-6.987236 16.084894 1.7955506 259 8.3309793 -19.178246 -1.4254719 -1.192314
-6.4216251 16.318947 1.7955506 255 7.6565938 -19.45731 -1.4254719 -1.192314
-6.7845793 16.187305 1.5567065 273 8.0893488 -19.300352 -1.1406947 -1.192314
-7.0716987 16.079271 1.2502427 263 8.4316854 -19.171541 -0.77529365 -1.192314
-6.79 16.200239 1.2502427 264 8.0958118 -19.315773 -0.77529365 -1.192314
-6.5062327 16.316273 1.2502427 259 7.7574725 -19.454121 -0.77529365 -1.192314
-7.0660529 16.066435 1.5567065 262 8.4249544 -19.156235 -1.1406947 -1.192314
-6.5010386 16.303247 1.5567065 259 7.7512794 -19.438591 -1.1406947 -1.192314
-7.0582547 16.048704 1.8628788 267 8.4156561 -19.135096 -1.505748 -1.192314
-6.7770915 16.169441 1.8628788 258 8.0804214 -19.279051 -1.505748 -1.192314
-6.4938636 16.285254 1.8628788 264 7.7427244 -19.417137 -1.505748 -1.192314
-6.7799473 16.176254 1.7557576 265 8.0838261 -19.287174 -1.3780259 -1.192314
-6.7867117 16.192392 1.4494725 262 8.0918913 -19.306417 -1.0128381 -1.192314
-6.5030813 16.308371 1.4494725 264 7.753715 -19.444698 -1.0128381 -1.192314
-7.0612288 16.055466 1.7557576 258 8.4192019 -19.143156 -1.3780259 -1.192314
-6.4966002 16.292116 1.7557576 262 7.7459874 -19.425318 -1.3780259 -1.192314
-7.0520325 16.034557 2.0616903 251 8.4082375 -19.118227 -1.742794 -1.192314
-6.7711177 16.155188 2.0616903 256 8.0732985 -19.262056 -1.742794 -1.192314
-6.4881392 16.270899 2.0616903 254 7.7358994 -19.400021 -1.742794 -1.192314
4.7624302 19.301863 -0.024776578 3752 0 0 -1 0
4.4217401 19.368456 -0.3716476 3671 0 0 -1 0
4.7590928 19.288336 -0.3716476 3662 0 0 -1 0
5.094996 19.202341 -0.3716476 3743 0 0 -1 0
4.4248409 19.382038 -0.024776578 3669 0 0 -1 0
5.0985689 19.215807 -0.024776578 3681 0 0 -1 0
4.4265938 19.389717 0.32228485 3697 0 0 -1 0
4.764317 19.309509 0.32228485 3736 0 0 -1 0
5.1005888 19.223421 0.32228485 3734 0 0 -1 0
-7.7800488 24.363436 7.0098872 825 0 0 -1 0
-8.2387009 24.326212 6.5625567 803 0 0 -1 0
-7.8128943 24.466291 6.5625567 810 0 0 -1 0
-7.3847094 24.598919 6.5625567 788 0 0 -1 0
-8.2040653 24.223946 7.0098872 824 0 0 -1 0
-7.3536639 24.495504 7.0098872 817 0 0 -1 0
4.0097194 36.319588 0.14717591 341 0 0 -1 0
3.4376483 36.36652 -0.4267177 340 0 0 -1 0
4.0084443 36.308037 -0.4267177 321 0 0 -1 0
4.5782518 36.240597 -0.4267177 328 0 0 -1 0
3.4387419 36.37809 0.14717591 337 0 0 -1 0
4.5797086 36.252125 0.14717591 329 0 0 -1 0
5.1907902 41.733536 -1.2067506 259 0 0 -1 0
4.5784082 41.805149 -1.2067506 250 0 0 -1 0
5.8020558 41.652954 -1.2067506 256 0 0 -1 0
4.5808001 41.826988 -0.59001857 251 0 0 -1 0
5.1935015 41.755333 -0.59001857 254 0 0 -1 0
5.8050866 41.674713 -0.59001857 252 0 0 -1 0
-1.4907513 5.3464756 0.53121656 3569 6.2539682 -22.429422 0.28855866 -4.195179
-1.5832493 5.3176837 0.43435889 3488 6.6420145 -22.308636 0.69489396 -4.195179
-1.4902018 5.3445053 0.43435889 3490 6.2516632 -22.421156 0.69489396 -4.195179
-1.3967003 5.3696985 0.43435889 3473 5.8594074 -22.526846 0.69489396 -4.195179
-1.5838331 5.319644 0.53121656 3561 6.6444635 -22.316858 0.28855866 -4.195179
-1.3972152 5.3716784 0.53121656 3464 5.861568 -22.535152 0.28855866 -4.195179
-1.2086993 5.8883243 0.43314469 21 5.9247241 -28.863007 0.81788033 -4.9017353
-1.3104458 5.8625975 0.32826194 20 6.4234586 -28.7369 1.3319879 -4.9017353
-1.2079298 5.8845754 0.32826194 20 5.9209523 -28.844631 1.3319879 -4.9017353
-1.1050458 5.9047604 0.32826194 20 5.4166422 -28.943573 1.3319879 -4.9017353
-1.3112807 5.8663325 0.43314469 20 6.4275513 -28.755209 0.81788033 -4.9017353
-1.1057498 5.9085221 0.43314469 19 5.4200931 -28.962011 0.81788033 -4.9017353
-1.1061171 5.9104848 0.53807825 19 5.4218936 -28.971632 0.30352381 -4.9017353
-1.2088193 5.8889089 0.45622683 21 5.925312 -28.865873 0.70473778 -4.9017353
-1.3106637 5.8635721 0.35133016 20 6.4245267 -28.741678 1.2189136 -4.9017353
-1.1052296 5.9057422 0.35133016 19 5.4175429 -28.948385 1.2189136 -4.9017353
-1.1058595 5.9091082 0.45622683 19 5.4206305 -28.964884 0.70473778 -4.9017353
-1.2091397 5.8904696 0.5611673 20 5.9268827 -28.873522 0.19034746 -4.9017353
-1.564369 6.2836847 0.51975268 633 6.562808 -26.361181 0.33665177 -4.195179
-1.6731793 6.2531204 0.40675205 614 7.0192866 -26.23296 0.8107096 -4.195179
-1.5637925 6.2813687 0.40675205 602 6.5603895 -26.351465 0.8107096 -4.195179
-1.4539292 6.307704 0.40675205 593 6.099493 -26.461946 0.8107096 -4.195179
-1.6737962 6.2554259 0.51975268 625 7.0218744 -26.242632 0.33665177 -4.195179
-1.4544653 6.3100295 0.51975268 617 6.1017423 -26.471703 0.33665177 -4.195179
-2.5169089 5.9641647 0.42030969 422 10.225444 -24.230608 0.73002756 -4.0626993
-2.6189458 5.9155612 0.30735904 419 10.63999 -24.033146 1.188912 -4.0626993
-2.5153062 5.9603672 0.30735904 417 10.218933 -24.215179 1.188912 -4.0626993
-2.4109006 6.0033579 0.30735904 412 9.7947645 -24.389837 1.188912 -4.0626993
-2.6206143 5.9193301 0.42030969 414 10.646768 -24.048458 0.73002756 -4.0626993
-2.4124365 6.0071826 0.42030969 407 9.8010044 -24.405376 0.73002756 -4.0626993
-2.6214848 5.9212966 0.53331506 415 10.650305 -24.056448 0.27092072 -4.0626993
-2.5177448 5.966146 0.53331506 417 10.22884 -24.238657 0.27092072 -4.0626993
-2.413238 6.0091782 0.53331506 415 9.8042603 -24.413485 0.27092072 -4.0626993
-1.3316017 6.8060923 0.38205463 279 5.6451111 -28.853331 0.92394406 -4.2393389
-1.4491655 6.7770638 0.26105312 273 6.1435037 -28.73027 1.4369105 -4.2393389
-1.3306686 6.8013229 0.26105312 275 5.6411548 -28.833113 1.4369105 -4.2393389
-1.2117665 6.8235102 0.26105312 278 5.1370888 -28.927172 1.4369105 -4.2393389
-1.4501817 6.781816 0.38205463 278 6.1478119 -28.750416 0.92394406 -4.2393389
-1.2126162 6.8282952 0.38205463 271 5.1406908 -28.947458 0.92394406 -4.2393389
-1.3321294 6.8087888 0.50312257 275 5.6473479 -28.864763 0.410696 -4.2393389
-1.347187 6.8037915 0.40747464 279 5.7111826 -28.843578 0.81618005 -4.2393389
-1.4647911 6.7749271 0.28645611 264 6.2097459 -28.721212 1.3292186 -4.2393389
-1.3463293 6.7994595 0.28645611 278 5.7075462 -28.825212 1.3292186 -4.2393389
-1.4657243 6.7792435 0.40747464 272 6.2137022 -28.73951 0.81618005 -4.2393389
-1.2282391 6.8262668 0.40747464 275 5.2069216 -28.938858 0.81618005 -4.2393389
-1.4662112 6.7814951 0.52855182 272 6.215766 -28.749056 0.30289277 -4.2393389
-1.3476346 6.8060517 0.52855182 276 5.7130795 -28.853159 0.30289277 -4.2393389
-1.2286471 6.8285341 0.52855182 278 5.2086515 -28.948471 0.30289277 -4.2393389
-1.3162986 6.8098345 0.40747464 279 5.580236 -28.869196 0.81618005 -4.2393389
-1.3154604 6.8054986 0.28645611 271 5.5766826 -28.850815 1.3292186 -4.2393389
-1.1964878 6.8274202 0.28645611 276 5.0723171 -28.943748 1.3292186 -4.2393389
-1.4349461 6.7858243 0.40747464 275 6.0832224 -28.767408 0.81618005 -4.2393389
-1.19725 6.8317699 0.40747464 271 5.0755486 -28.962189 0.81618005 -4.2393389
-1.4354228 6.7880788 0.52855182 278 6.0852437 -28.776966 0.30289277 -4.2393389
-1.3167359 6.8120966 0.52855182 277 5.5820894 -28.878786 0.30289277 -4.2393389
-1.1976478 6.8340397 0.52855182 271 5.0772347 -28.971809 0.30289277 -4.2393389
-1.3319908 6.8080812 0.46074355 278 5.6467605 -28.861763 0.5903551 -4.2393389
-1.4498763 6.7803879 0.33969471 276 6.1465168 -28.744362 1.1035222 -4.2393389
-1.2123607 6.8268571 0.33969471 277 5.1396079 -28.94136 1.1035222 -4.2393389
-1.4506055 6.7837977 0.46074355 275 6.1496081 -28.758818 0.5903551 -4.2393389
-1.2129705 6.8302903 0.46074355 274 5.1421928 -28.955915 0.5903551 -4.2393389
-1.4508928 6.7851415 0.58183491 273 6.1508265 -28.764515 0.077007912 -4.2393389
-1.3322546 6.8094292 0.58183491 273 5.6478791 -28.867477 0.077007912 -4.2393389
-1.2132107 6.8316431 0.58183491 267 5.1432114 -28.961651 0.077007912 -4.2393389
-2.2812836 7.0335979 0.28232953 209 9.4696522 -29.1966 1.3186561 -4.1510191
-2.4036894 6.9927125 0.28232953 200 9.9777603 -29.026882 1.3186561 -4.1510191
-2.4051254 6.9968901 0.41142631 195 9.9837217 -29.044224 0.78277284 -4.1510191
-2.2826467 7.0378003 0.41142631 201 9.4753103 -29.214043 0.78277284 -4.1510191
-2.159472 7.0765657 0.41142631 206 8.9640093 -29.37496 0.78277284 -4.1510191
-2.2493427 7.0438776 0.28232953 211 9.3370647 -29.239271 1.3186561 -4.1510191
-2.3719327 7.0035481 0.28232953 209 9.8459377 -29.071861 1.3186561 -4.1510191
-2.1260676 7.0820608 0.28232953 207 8.8253469 -29.39777 1.3186561 -4.1510191
-2.3733499 7.0077324 0.41142631 206 9.8518209 -29.089231 0.78277284 -4.1510191
-2.2506864 7.0480862 0.41142631 200 9.3426418 -29.256741 0.78277284 -4.1510191
-2.1273377 7.0862923 0.41142631 201 8.8306198 -29.415335 0.78277284 -4.1510191
4.852735 7.8756824 0.48536098 973 0 0 -1 0
4.7128081 7.9562411 0.32393149 945 0 0 -1 0
4.8509464 7.8727798 0.32393149 945 0 0 -1 0
4.987606 7.7869201 0.32393149 955 0 0 -1 0
4.7145457 7.9591742 0.48536098 956 0 0 -1 0
4.9894452 7.7897911 0.48536098 952 0 0 -1 0
5.4523873 7.4634004 0.20291188 326 0 0 -1 0
5.3213024 7.5574207 0.20291188 324 0 0 -1 0
5.5818114 7.367106 0.20291188 319 0 0 -1 0
5.324482 7.5619359 0.36428288 301 0 0 -1 0
5.4556446 7.4678593 0.36428288 303 0 0 -1 0
5.585146 7.3715072 0.36428288 294 0 0 -1 0
-1.4648721 9.5953827 0.22032508 124 6.2100892 -40.678078 1.6095705 -4.2393389
-1.6307487 9.5603657 0.05098021 119 6.9132967 -40.529629 2.3274808 -4.2393389
-1.463649 9.5873709 0.05098021 120 6.2049041 -40.644115 2.3274808 -4.2393389
-1.2961032 9.611454 0.05098021 120 5.4946208 -40.746212 2.3274808 -4.2393389
-1.6321115 9.5683546 0.22032508 118 6.9190741 -40.563499 1.6095705 -4.2393389
-1.6329771 9.5734301 0.38978565 123 6.9227433 -40.585014 0.89116967 -4.2393389
-1.465649 9.6004715 0.38978565 122 6.2133827 -40.699654 0.89116967 -4.2393389
-1.2978743 9.624588 0.38978565 123 5.5021291 -40.801891 0.89116967 -4.2393389
-1.4873511 9.5966253 0.36775106 127 6.3053851 -40.683346 0.98458183 -4.2393389
-1.6536663 9.563755 0.1983026 123 7.0104518 -40.543999 1.7029313 -4.2393389
-1.4865037 9.5911579 0.1983026 124 6.3017931 -40.660168 1.7029313 -4.2393389
-1.3188885 9.6156406 0.1983026 125 5.5912156 -40.763958 1.7029313 -4.2393389
-1.6546088 9.5692062 0.36775106 124 7.0144477 -40.567108 0.98458183 -4.2393389
-1.3196404 9.6211214 0.36775106 124 5.5944028 -40.787193 0.98458183 -4.2393389
-1.6550474 9.571743 0.53727025 125 7.0163069 -40.577862 0.26593244 -4.2393389
-1.4877454 9.5991688 0.53727025 123 6.3070569 -40.69413 0.26593244 -4.2393389
-1.3199902 9.6236715 0.53727025 125 5.5958858 -40.798004 0.26593244 -4.2393389
-1.4876622 9.5986319 0.47962901 124 6.306704 -40.691853 0.51029325 -4.2393389
-1.6543449 9.5676804 0.31012809 123 7.0133286 -40.560638 1.2288651 -4.2393389
-1.3194299 9.6195869 0.31012809 122 5.5935102 -40.780689 1.2288651 -4.2393389
-1.6549549 9.571207 0.47962901 120 7.0159149 -40.575588 0.51029325 -4.2393389
-1.3199164 9.6231337 0.47962901 120 5.5955729 -40.795723 0.51029325 -4.2393389
-1.6550608 9.5718193 0.64916658 114 7.0163636 -40.578186 -0.20843409 -4.2393389
-1.4877573 9.599246 0.64916658 119 6.3071074 -40.694458 -0.20843409 -4.2393389
-1.3200008 9.6237497 0.64916658 120 5.5959306 -40.798336 -0.20843409 -4.2393389
4.1979361 10.276473 0.46243316 1081 0 0 -1 0
4.0164661 10.344358 0.26871783 1023 0 0 -1 0
4.1963887 10.272685 0.26871783 1036 0 0 -1 0
4.3750329 10.197884 0.26871783 1042 0 0 -1 0
4.0179472 10.348172 0.46243316 1054 0 0 -1 0
4.376646 10.201644 0.46243316 1079 0 0 -1 0
-7.0345025 12.494426 0.42230952 811 0 0 -1 0
-7.2488155 12.365195 0.17209384 764 0 0 -1 0
-7.0319099 12.48982 0.17209384 776 0 0 -1 0
-6.812861 12.610642 0.17209384 787 0 0 -1 0
-7.2514882 12.369754 0.42230952 797 0 0 -1 0
-6.8153729 12.615292 0.42230952 793 0 0 -1 0
-6.9755454 12.527436 0.42230952 816 0 0 -1 0
-7.1904659 12.399217 0.17209384 787 0 0 -1 0
-6.9729743 12.52282 0.17209384 778 0 0 -1 0
-6.7533593 12.642607 0.17209384 779 0 0 -1 0
-7.1931171 12.403788 0.42230952 793 0 0 -1 0
-6.7558494 12.647268 0.42230952 793 0 0 -1 0
-7.4883409 13.300517 0.41084564 2673 0 0 -1 0
-7.7164817 13.16295 0.14448702 2523 0 0 -1 0
-7.4855809 13.295615 0.14448702 2562 0 0 -1 0
-7.2524004 13.424232 0.14448702 2589 0 0 -1 0
-7.7193265 13.167803 0.41084564 2631 0 0 -1 0
-7.2550745 13.429182 0.41084564 2621 0 0 -1 0
-7.4255805 13.335657 0.41084564 2673 0 0 -1 0
-7.654367 13.199165 0.14448702 2589 0 0 -1 0
-7.4228439 13.330743 0.14448702 2537 0 0 -1 0
-7.1890597 13.458259 0.14448702 2547 0 0 -1 0
-7.6571889 13.204032 0.41084564 2621 0 0 -1 0
-7.1917105 13.463221 0.41084564 2592 0 0 -1 0
-6.6097465 15.770173 1.3346128 53 7.8808932 -18.802999 -0.87588924 -1.192314
-6.6136951 15.779594 1.0360765 50 7.8856015 -18.814232 -0.5199402 -1.192314
-6.337296 15.892616 1.0360765 47 7.556047 -18.94899 -0.5199402 -1.192314
-6.8839669 15.652415 1.3346128 52 8.2078505 -18.662594 -0.87588924 -1.192314
-6.8777566 15.638295 1.6329255 51 8.2004461 -18.64576 -1.2315716 -1.192314
-6.5767031 15.783982 1.3346128 53 7.8414955 -18.819464 -0.87588924 -1.192314
-6.8552623 15.676159 1.0360765 50 8.173625 -18.690905 -0.5199402 -1.192314
-6.5806322 15.793412 1.0360765 47 7.84618 -18.830708 -0.5199402 -1.192314
-6.3039966 15.905853 1.0360765 47 7.5163436 -18.964771 -0.5199402 -1.192314
-6.3002329 15.896357 1.3346128 51 7.5118561 -18.953449 -0.87588924 -1.192314
-6.2945495 15.882016 1.6329255 51 7.5050797 -18.93635 -1.2315716 -1.192314
-6.5011292 15.812073 1.400264 52 7.7513876 -18.852957 -0.954166 -1.192314
-6.7806015 15.706635 1.101769 51 8.0846062 -18.727242 -0.5982663 -1.192314
-6.5054498 15.822581 1.101769 49 7.7565389 -18.865486 -0.5982663 -1.192314
-6.2283173 15.933708 1.101769 47 7.4261103 -18.997984 -0.5982663 -1.192314
-6.7760978 15.696204 1.400264 51 8.079236 -18.714804 -0.954166 -1.192314
-6.2241807 15.923125 1.400264 49 7.4211779 -18.985365 -0.954166 -1.192314
-6.4948282 15.796747 1.6985152 50 7.743875 -18.834682 -1.309775 -1.192314
-6.2181478 15.907693 1.6985152 48 7.4139848 -18.966965 -1.309775 -1.192314
-6.6073704 15.764504 1.4659033 54 7.8780603 -18.79624 -1.0324287 -1.192314
-6.886528 15.658239 1.1674542 51 8.2109041 -18.669538 -0.67658377 -1.192314
-6.612206 15.776041 1.1674542 53 7.8838258 -18.809996 -0.67658377 -1.192314
-6.3358688 15.889037 1.1674542 53 7.5543451 -18.944721 -0.67658377 -1.192314
-6.8814921 15.646789 1.4659033 52 8.2048998 -18.655886 -1.0324287 -1.192314
-6.3312354 15.877418 1.4659033 51 7.548821 -18.930868 -1.0324287 -1.192314
-6.6445293 15.745133 1.5315299 54 7.9223657 -18.773144 -1.1106763 -1.192314
-6.9238348 15.639258 1.2331311 53 8.2553854 -18.646908 -0.7548911 -1.192314
-6.649838 15.757713 1.2331311 52 7.9286952 -18.788143 -0.7548911 -1.192314
-6.9183073 15.626773 1.5315299 52 8.2487946 -18.632021 -1.1106763 -1.192314
-6.9106722 15.609527 1.8296449 53 8.2396917 -18.611458 -1.466123 -1.192314
-6.6371965 15.727757 1.8296449 53 7.9136224 -18.752424 -1.466123 -1.192314
-6.3616977 15.841197 1.8296449 53 7.5851412 -18.887682 -1.466123 -1.192314
-6.6060371 15.761323 1.5315299 54 7.8764706 -18.792446 -1.1106763 -1.192314
-6.8856006 15.65613 1.2331311 52 8.2097979 -18.667023 -0.7548911 -1.192314
-6.3350153 15.886896 1.2331311 51 7.5533276 -18.942169 -0.7548911 -1.192314
-6.8725104 15.626367 1.8296449 53 8.194191 -18.631536 -1.466123 -1.192314
-6.5987463 15.743928 1.8296449 53 7.8677778 -18.771706 -1.466123 -1.192314
-6.3229718 15.856694 1.8296449 52 7.5389681 -18.906158 -1.466123 -1.192314
-6.5730119 15.775124 1.5315299 54 7.8370943 -18.808901 -1.1106763 -1.192314
-6.5782638 15.787728 1.2331311 51 7.8433561 -18.823931 -0.7548911 -1.192314
-6.3017278 15.900129 1.2331311 52 7.5136385 -18.957947 -0.7548911 -1.192314
-6.2966971 15.887435 1.5315299 53 7.5076404 -18.942812 -1.1106763 -1.192314
-6.8397675 15.640726 1.8296449 53 8.1551504 -18.648657 -1.466123 -1.192314
-6.5657582 15.757714 1.8296449 52 7.8284454 -18.788143 -1.466123 -1.192314
-6.2897477 15.869902 1.8296449 51 7.4993544 -18.921906 -1.466123 -1.192314
-6.6773157 15.723139 1.6597595 53 7.9614573 -18.74692 -1.2635661 -1.192314
-6.9571724 15.618728 1.3614714 52 8.2951345 -18.622429 -0.90791315 -1.192314
-6.9507055 15.604209 1.6597595 51 8.2874241 -18.605118 -1.2635661 -1.192314
-6.942121 15.584937 1.9577248 51 8.2771883 -18.58214 -1.6188343 -1.192314
-6.6690688 15.70372 1.9577248 52 7.9516244 -18.723766 -1.6188343 -1.192314
-6.3939853 15.81772 1.9577248 52 7.6236382 -18.85969 -1.6188343 -1.192314
-6.6031485 15.754431 1.6597595 54 7.8730264 -18.784229 -1.2635661 -1.192314
-6.8834934 15.65134 1.3614714 53 8.2072859 -18.661312 -0.90791315 -1.192314
-6.609292 15.76909 1.3614714 53 7.8803515 -18.801706 -0.90791315 -1.192314
-6.333077 15.882035 1.3614714 52 7.5510163 -18.936373 -0.90791315 -1.192314
-6.8770952 15.63679 1.6597595 53 8.1996574 -18.643965 -1.2635661 -1.192314
-6.3271899 15.867272 1.6597595 51 7.5439973 -18.918772 -1.2635661 -1.192314
-6.8686013 15.617478 1.9577248 52 8.1895294 -18.620939 -1.6188343 -1.192314
-6.5949931 15.734973 1.9577248 51 7.8633027 -18.761028 -1.6188343 -1.192314
-6.3193755 15.847675 1.9577248 52 7.5346799 -18.895405 -1.6188343 -1.192314
-6.4598961 15.813709 1.6597595 49 7.7022247 -18.854908 -1.2635661 -1.192314
-6.7411652 15.713167 1.3614714 48 8.0375862 -18.735029 -0.90791315 -1.192314
-6.1886773 15.938858 1.3614714 44 7.3788466 -19.004124 -0.90791315 -1.192314
-6.734899 15.698561 1.6597595 48 8.0301142 -18.717613 -1.2635661 -1.192314
-6.1829243 15.924042 1.6597595 45 7.3719873 -18.986458 -1.2635661 -1.192314
-6.7265811 15.679172 1.9577248 48 8.0201969 -18.694496 -1.6188343 -1.192314
-6.4519176 15.794178 1.9577248 48 7.6927118 -18.831619 -1.6188343 -1.192314
-6.4924731 15.791019 1.7909093 50 7.7410669 -18.827854 -1.419938 -1.192314
-6.4993873 15.807837 1.4927522 48 7.7493105 -18.847906 -1.064441 -1.192314
-6.2225132 15.918859 1.4927522 48 7.4191899 -18.98028 -1.064441 -1.192314
-6.7670755 15.675304 1.7909093 46 8.0684795 -18.689886 -1.419938 -1.192314
-6.2158933 15.901924 1.7909093 47 7.4112968 -18.960087 -1.419938 -1.192314
-6.7578073 15.653835 2.0887036 47 8.0574284 -18.664288 -1.7750022 -1.192314
-6.4835806 15.769391 2.0887036 48 7.730464 -18.802067 -1.7750022 -1.192314
-6.6364369 15.725958 1.8564584 53 7.9127169 -18.75028 -1.498093 -1.192314
-6.917706 15.625416 1.5583732 51 8.2480783 -18.630402 -1.142682 -1.192314
-6.6439524 15.743766 1.5583732 52 7.9216776 -18.771513 -1.142682 -1.192314
-6.3681731 15.857322 1.5583732 51 7.5928621 -18.906908 -1.142682 -1.192314
-6.9098816 15.607741 1.8564584 51 8.2387486 -18.609329 -1.498093 -1.192314
-6.36097 15.839385 1.8564584 50 7.5842738 -18.885521 -1.498093 -1.192314
-6.8999519 15.585313 2.1541607 51 8.2269096 -18.582586 -1.8530477 -1.192314
-6.6269007 15.70336 2.1541607 52 7.9013467 -18.723335 -1.8530477 -1.192314
4.4575086 27.860292 0.25035101 437 0 0 -1 0
3.9691367 27.923546 -0.24200886 418 0 0 -1 0
4.4558659 27.850023 -0.24200886 431 0 0 -1 0
4.941237 27.768015 -0.24200886 421 0 0 -1 0
3.9706001 27.933842 0.25035101 432 0 0 -1 0
4.943059 27.778254 0.25035101 417 0 0 -1 0
4.5838881 27.839775 0.25035101 423 0 0 -1 0
4.0958085 27.905247 -0.24200886 421 0 0 -1 0
4.5821986 27.829515 -0.24200886 406 0 0 -1 0
5.067193 27.745306 -0.24200886 399 0 0 -1 0
4.0973186 27.915535 0.25035101 417 0 0 -1 0
5.0690613 27.755537 0.25035101 401 0 0 -1 0
6.7620044 41.657738 6.0737205 143 0 0 -1 0
6.168776 41.825378 5.4618053 135 0 0 -1 0
6.7739997 41.731632 5.4618053 137 0 0 -1 0
7.3778014 41.629131 5.4618053 141 0 0 -1 0
6.1578526 41.751316 6.0737205 133 0 0 -1 0
6.145637 41.668495 6.6844869 139 0 0 -1 0
6.7485905 41.5751 6.6844869 137 0 0 -1 0
7.3501277 41.47298 6.6844869 134 0 0 -1 0
6.8565054 41.642288 6.0737205 143 0 0 -1 0
6.2636585 41.811275 5.4618053 137 0 0 -1 0
6.8686681 41.716156 5.4618053 141 0 0 -1 0
7.4722366 41.612282 5.4618053 128 0 0 -1 0
7.4590054 41.538593 6.0737205 132 0 0 -1 0
6.2401638 41.654442 6.6844869 137 0 0 -1 0
6.8429041 41.559681 6.6844869 134 0 0 -1 0
7.4442086 41.456192 6.6844869 131 0 0 -1 0
6.6535702 41.586102 6.7138901 142 0 0 -1 0
6.0625558 41.761391 6.1031828 126 0 0 -1 0
6.6668639 41.669189 6.1031828 141 0 0 -1 0
7.269773 41.568245 6.1031828 132 0 0 -1 0
6.050467 41.67812 6.7138901 133 0 0 -1 0
7.2552772 41.485359 6.7138901 136 0 0 -1 0
6.0371084 41.586102 7.3233156 132 0 0 -1 0
6.6388803 41.494286 7.3233156 129 0 0 -1 0
7.2392588 41.393764 7.3233156 139 0 0 -1 0
6.8383479 41.532009 6.875555 151 0 0 -1 0
6.2488232 41.712246 6.2651739 136 0 0 -1 0
6.8523998 41.617352 6.2651739 146 0 0 -1 0
7.4545388 41.513721 6.2651739 144 0 0 -1 0
6.2360086 41.626705 6.875555 139 0 0 -1 0
7.4392519 41.428593 6.875555 136 0 0 -1 0
6.2218866 41.532436 7.4846187 136 0 0 -1 0
6.8228612 41.437954 7.4846187 142 0 0 -1 0
7.4224048 41.33477 7.4846187 136 0 0 -1 0
6.4535508 41.543514 7.1986041 134 0 0 -1 0
6.4675465 41.63361 6.5889053 130 0 0 -1 0
7.0699606 41.535549 6.5889053 129 0 0 -1 0
5.8510861 41.632637 7.1986041 119 0 0 -1 0
7.0546613 41.445667 7.1986041 128 0 0 -1 0
5.8371692 41.533615 7.8069177 123 0 0 -1 0
6.438201 41.444702 7.8069177 121 0 0 -1 0
7.0378819 41.347088 7.8069177 127 0 0 -1 0
6.8303165 41.483234 7.1986041 142 0 0 -1 0
6.2421932 41.667988 6.5889053 136 0 0 -1 0
7.4466295 41.469677 6.5889053 136 0 0 -1 0
6.2286849 41.57782 7.1986041 140 0 0 -1 0
7.4305153 41.379936 7.1986041 137 0 0 -1 0
6.21387 41.478928 7.8069177 137 0 0 -1 0
6.8140707 41.384563 7.8069177 141 0 0 -1 0
7.4128418 41.281513 7.8069177 128 0 0 -1 0
-10.442392 87.184235 4.3723364 348 0 0 -1 0
-9.9705296 87.239464 4.3723364 332 0 0 -1 0
-10.911253 87.104927 4.8473625 344 0 0 -1 0
-10.439812 87.162697 4.8473625 329 0 0 -1 0
5.2737699 8.6943235 0.20224532 1899 0 0 -1 0
5.1169529 8.7777052 0.024836421 1859 0 0 -1 0
5.2693663 8.6870642 0.024836421 1869 0 0 -1 0
5.4201732 8.5937786 0.024836421 1895 0 0 -1 0
5.1212292 8.7850409 0.20224532 1835 0 0 -1 0
5.4247026 8.6009598 0.20224532 1860 0 0 -1 0
5.1239452 8.7896996 0.37977546 1854 0 0 -1 0
5.276567 8.6989346 0.37977546 1832 0 0 -1 0
5.4275799 8.6055212 0.37977546 1888 0 0 -1 0
5.9284477 8.8224611 0.14334872 1887 0 0 -1 0
5.7683635 8.9165325 -0.042088866 1665 0 0 -1 0
5.773572 8.9245834 0.14334872 1817 0 0 -1 0
6.0815182 8.7176514 0.14334872 1856 0 0 -1 0
5.7770209 8.9299154 0.32892534 1834 0 0 -1 0
5.9319897 8.8277321 0.32892534 1857 0 0 -1 0
6.0851512 8.7228594 0.32892534 1864 0 0 -1 0
4.6516762 18.852983 -0.010246933 2010 0 0 -1 0
4.3189087 18.918028 -0.34905118 1966 0 0 -1 0
4.6484165 18.839771 -0.34905118 1993 0 0 -1 0
4.9765077 18.755775 -0.34905118 1992 0 0 -1 0
4.3219371 18.931295 -0.010246933 1955 0 0 -1 0
4.9799976 18.768929 -0.010246933 1974 0 0 -1 0
4.3236494 18.938795 0.32874334 1987 0 0 -1 0
4.6535192 18.860453 0.32874334 1965 0 0 -1 0
4.9819708 18.776365 0.32874334 1998 0 0 -1 0
24.394461 28.40126 -0.86446029 126 0 0 -1 0
23.932926 28.755795 -1.4458251 111 0 0 -1 0
24.376698 28.380579 -1.4458251 116 0 0 -1 0
23.950369 28.776749 -0.86446029 119 0 0 -1 0
24.40634 28.415091 -0.28274208 121 0 0 -1 0
24.844761 28.032564 -0.28274208 119 0 0 -1 0
24.282022 28.531281 0.13571203 177 0 0 -1 0
23.828457 28.895952 -0.44617361 170 0 0 -1 0
23.835922 28.905003 0.13571203 169 0 0 -1 0
24.722263 28.150669 0.13571203 164 0 0 -1 0
