# .PCD v0.7 - Point Cloud Data file format
VERSION 0.7
FIELDS x y z intensity normal_x normal_y normal_z curvature
SIZE 4 4 4 4 4 4 4 4
TYPE F F F F F F F F
COUNT 1 1 1 1 1 1 1 1
WIDTH 341
HEIGHT 1
VIEWPOINT 0 0 0 1 0 0 0
POINTS 341
DATA ascii
5.0375161 8.3048363 0.47962901 4992 0 0 -1 0
4.8900056 8.3883953 0.31012809 4745 0 0 -1 0
5.0356593 8.3017759 0.31012809 4871 0 0 -1 0
5.1797781 8.2126274 0.31012809 4923 0 0 -1 0
4.8918085 8.3914881 0.47962901 4901 0 0 -1 0
5.1816878 8.2156553 0.47962901 4893 0 0 -1 0
5.0751495 8.2818918 0.47962901 5012 0 0 -1 0
4.928021 8.3661194 0.31012809 4923 0 0 -1 0
5.0732789 8.2788401 0.31012809 4847 0 0 -1 0
5.2169924 8.1890373 0.31012809 4853 0 0 -1 0
4.9298377 8.3692036 0.47962901 4893 0 0 -1 0
5.2189159 8.1920557 0.47962901 4904 0 0 -1 0
-7.2298851 12.915176 0.41657758 14577 0 0 -1 0
-7.4514375 12.782318 0.15829045 14057 0 0 -1 0
-7.2272205 12.910417 0.15829045 14182 0 0 -1 0
-7.000802 13.034582 0.15829045 13900 0 0 -1 0
-7.454185 12.787031 0.41657758 14487 0 0 -1 0
-7.0033832 13.039388 0.41657758 14478 0 0 -1 0
4.7629466 19.303957 0.048094094 3761 0 0 -1 0
4.422503 19.371799 -0.29882574 3712 0 0 -1 0
4.7599144 19.291666 -0.29882574 3742 0 0 -1 0
5.0958753 19.205656 -0.29882574 3754 0 0 -1 0
4.4253206 19.38414 0.048094094 3663 0 0 -1 0
5.099122 19.217892 0.048094094 3685 0 0 -1 0
4.4267907 19.390579 0.39518201 3692 0 0 -1 0
4.7645292 19.310369 0.39518201 3683 0 0 -1 0
5.1008158 19.224276 0.39518201 3734 0 0 -1 0
-7.4849877 22.370272 0.3076705 1278 0 0 -1 0
-7.8713613 22.228037 -0.10397464 1234 0 0 -1 0
-7.4822288 22.362026 -0.10397464 1233 0 0 -1 0
-7.0908179 22.489202 -0.10397464 1222 0 0 -1 0
-7.8742633 22.236233 0.3076705 1245 0 0 -1 0
-7.4342122 22.387196 0.3076705 1278 0 0 -1 0
-7.8209066 22.24584 -0.10397464 1233 0 0 -1 0
-7.4314723 22.378944 -0.10397464 1222 0 0 -1 0
-7.0397735 22.505232 -0.10397464 1210 0 0 -1 0
-7.0423689 22.513531 0.3076705 1217 0 0 -1 0
-1.8725014 24.903471 0.09867698 760 9.1785059 -122.07022 2.4573526 -4.9017353
-2.3056822 24.854498 -0.33709896 747 11.301844 -121.83017 4.593411 -4.9017353
-1.8715601 24.890951 -0.33709896 748 9.173892 -122.00886 4.593411 -4.9017353
-1.4368681 24.919825 -0.33709896 752 7.0431471 -122.15038 4.593411 -4.9017353
-2.3068419 24.866999 0.09867698 732 11.307528 -121.89145 2.4573526 -4.9017353
-1.4375907 24.932358 0.09867698 751 7.046689 -122.21181 2.4573526 -4.9017353
-2.3072987 24.871923 0.53460568 746 11.309768 -121.91559 0.32054538 -4.9017353
-1.8728722 24.908403 0.53460568 746 9.1803236 -122.0944 0.32054538 -4.9017353
-1.4378754 24.937296 0.53460568 741 7.0480847 -122.23602 0.32054538 -4.9017353
-0.94895172 24.928755 1.8637509 110 3.9810224 -104.58059 -5.3016615 -4.195179
-0.94964617 24.946999 1.4281766 101 3.9839356 -104.65713 -3.4743493 -4.195179
-0.51411629 24.959772 1.4281766 101 2.1568098 -104.71071 -3.4743493 -4.195179
-1.3838738 24.908396 1.8637509 107 5.8055983 -104.49518 -5.3016615 -4.195179
-0.51374036 24.941521 1.8637509 106 2.1552327 -104.63414 -5.3016615 -4.195179
-1.3824396 24.882582 2.2989404 107 5.7995815 -104.38689 -7.1273589 -4.195179
-0.94796824 24.90292 2.2989404 104 3.9768965 -104.47221 -7.1273589 -4.195179
-0.51320791 24.915672 2.2989404 109 2.1529992 -104.5257 -7.1273589 -4.195179
-1.0618502 24.919161 1.9595304 108 4.4546518 -104.54034 -5.7034731 -4.195179
-1.4977837 24.916727 1.5240293 102 6.2834706 -104.53013 -3.8764679 -4.195179
-1.0626986 24.939072 1.5240293 99 4.4582109 -104.62387 -3.8764679 -4.195179
-0.62729001 24.953819 1.5240293 107 2.6315939 -104.68574 -3.8764679 -4.195179
-1.4965879 24.896833 1.9595304 101 6.2784538 -104.44667 -5.7034731 -4.195179
-0.62678921 24.933897 1.9595304 107 2.629493 -104.60216 -5.7034731 -4.195179
-1.4949362 24.869358 2.3946171 105 6.2715249 -104.33141 -7.5287404 -4.195179
-0.6260975 24.906382 2.3946171 105 2.626591 -104.48673 -7.5287404 -4.195179
-1.1790233 24.908735 2.0509372 108 4.9462137 -104.4966 -6.0869417 -4.195179
-1.180041 24.930237 1.6155121 105 4.9504828 -104.58681 -4.2602549 -4.195179
-0.74476856 24.947033 1.6155121 101 3.1244373 -104.65726 -4.2602549 -4.195179
-1.613561 24.884365 2.0509372 101 6.7691774 -104.39436 -6.0869417 -4.195179
-0.74412626 24.925518 2.0509372 105 3.121743 -104.56701 -6.0869417 -4.195179
-1.6116767 24.855305 2.4859204 101 6.7612724 -104.27245 -7.9117742 -4.195179
-1.1776464 24.879648 2.4859204 103 4.9404373 -104.37458 -7.9117742 -4.195179
-0.74325728 24.896412 2.4859204 101 3.1180973 -104.4449 -7.9117742 -4.195179
-0.89181751 24.914913 2.1466761 117 3.741334 -104.52252 -6.4885826 -4.195179
-1.327741 24.918716 1.7113369 109 5.5701113 -104.53848 -4.6622567 -4.195179
-0.89264727 24.938093 1.7113369 115 3.7448151 -104.61977 -4.6622567 -4.195179
-0.4572815 24.949875 1.7113369 112 1.9183778 -104.66919 -4.6622567 -4.195179
-1.3265069 24.895554 2.1466761 116 5.5649338 -104.4413 -6.4885826 -4.195179
-1.3248686 24.864807 2.5815442 112 5.5580606 -104.31232 -8.312933 -4.195179
-0.89071602 24.884142 2.5815442 114 3.7367132 -104.39343 -8.312933 -4.195179
-0.45629218 24.895897 2.5815442 110 1.9142274 -104.44274 -8.312933 -4.195179
-0.83528507 24.916874 2.1466761 117 3.5041704 -104.53075 -6.4885826 -4.195179
-1.2711989 24.921665 1.7113369 115 5.3329067 -104.55084 -4.6622567 -4.195179
-0.83606225 24.940056 1.7113369 112 3.5074308 -104.628 -4.6622567 -4.195179
-0.40067098 24.95085 1.7113369 107 1.6808865 -104.67328 -4.6622567 -4.195179
-0.40029854 24.927656 2.1466761 107 1.679324 -104.57598 -6.4885826 -4.195179
-1.2684487 24.867748 2.5815442 114 5.3213692 -104.32465 -8.312933 -4.195179
-0.83425343 24.886099 2.5815442 110 3.4998424 -104.40164 -8.312933 -4.195179
-0.39980415 24.89687 2.5815442 109 1.6772499 -104.44682 -8.312933 -4.195179
-1.008968 24.904316 2.2423923 117 4.2328014 -104.47807 -6.8901296 -4.195179
-1.4448947 24.90774 1.8071451 105 6.0615916 -104.49242 -5.0641904 -4.195179
-1.0099746 24.929163 1.8071451 109 4.2370243 -104.5823 -5.0641904 -4.195179
-0.57474703 24.942993 1.8071451 116 2.4111667 -104.64032 -5.0641904 -4.195179
-1.4434546 24.882914 2.2423923 111 6.0555506 -104.38828 -6.8901296 -4.195179
-0.57417417 24.918133 2.2423923 112 2.4087634 -104.53603 -6.8901296 -4.195179
-1.4415748 24.85051 2.6771388 110 6.0476642 -104.25233 -8.7139692 -4.195179
-1.007654 24.871883 2.6771388 111 4.2272887 -104.342 -8.7139692 -4.195179
-0.57342643 24.885681 2.6771388 112 2.4056265 -104.39989 -8.7139692 -4.195179
-0.94760472 24.89337 2.4337502 121 3.9753714 -104.43214 -7.6929107 -4.195179
-1.3834743 24.901205 1.9987071 111 5.8039227 -104.46501 -5.8678265 -4.195179
-0.94867778 24.921558 1.9987071 112 3.9798732 -104.5504 -5.8678265 -4.195179
-0.513592 24.93432 1.9987071 119 2.1546104 -104.60394 -5.8678265 -4.195179
-1.3819095 24.873039 2.4337502 110 5.7973576 -104.34686 -7.6929107 -4.195179
-0.5130111 24.906116 2.4337502 114 2.1521733 -104.48562 -7.6929107 -4.195179
-12.609365 24.201733 0.26181492 743 63.478245 -121.83672 1.7024961 -5.0342145
-13.025019 23.969145 -0.21440202 723 65.57074 -120.66582 4.0998745 -5.0342145
-12.604717 24.192812 -0.21440202 728 63.454849 -121.7918 4.0998745 -5.0342145
-12.180574 24.409111 -0.21440202 698 61.319626 -122.8807 4.0998745 -5.0342145
-13.029821 23.977983 0.26181492 741 65.594917 -120.71031 1.7024961 -5.0342145
-12.185065 24.41811 0.26181492 690 61.342232 -122.926 1.7024961 -5.0342145
0.31674856 86.420364 4.3127732 178 0 0 -1 0
-0.18099944 86.420753 4.3127732 162 0 0 -1 0
0.81448609 86.417107 4.3127732 170 0 0 -1 0
0.31666493 86.397545 4.8104577 157 0 0 -1 0
0.81427097 86.394287 4.8104577 163 0 0 -1 0
-13.857179 86.707054 4.3723364 410 0 0 -1 0
-14.326104 86.630806 4.3723364 400 0 0 -1 0
-13.387847 86.780762 4.3723364 409 0 0 -1 0
-14.322564 86.609398 4.8473625 391 0 0 -1 0
-13.853755 86.685631 4.8473625 402 0 0 -1 0
-13.384539 86.759315 4.8473625 385 0 0 -1 0
4.852735 7.8756824 0.48536098 3889 0 0 -1 0
4.7128081 7.9562411 0.32393149 3760 0 0 -1 0
4.8509464 7.8727798 0.32393149 3818 0 0 -1 0
4.987606 7.7869201 0.32393149 3840 0 0 -1 0
4.7145457 7.9591742 0.48536098 3844 0 0 -1 0
4.9894452 7.7897911 0.48536098 3853 0 0 -1 0
5.4193177 7.4892445 0.23840484 2961 0 0 -1 0
5.283371 7.5763531 0.077124 2906 0 0 -1 0
5.4147925 7.4829912 0.077124 2958 0 0 -1 0
5.5445638 7.3873506 0.077124 2916 0 0 -1 0
5.2877865 7.582684 0.23840484 2928 0 0 -1 0
5.5491977 7.3935242 0.23840484 2938 0 0 -1 0
5.2905908 7.5867057 0.39979586 2948 0 0 -1 0
5.4221916 7.4932165 0.39979586 2934 0 0 -1 0
5.5521407 7.3974452 0.39979586 2914 0 0 -1 0
4.1979361 10.276473 0.46243316 4320 0 0 -1 0
4.0164661 10.344358 0.26871783 4144 0 0 -1 0
4.1963887 10.272685 0.26871783 4092 0 0 -1 0
4.3750329 10.197884 0.26871783 4196 0 0 -1 0
4.0179472 10.348172 0.46243316 4196 0 0 -1 0
4.376646 10.201644 0.46243316 4305 0 0 -1 0
-6.9755454 12.527436 0.42230952 835 0 0 -1 0
-7.1904659 12.399217 0.17209384 813 0 0 -1 0
-6.9729743 12.52282 0.17209384 796 0 0 -1 0
-6.7533593 12.642607 0.17209384 804 0 0 -1 0
-7.1931171 12.403788 0.42230952 833 0 0 -1 0
-6.7558494 12.647268 0.42230952 825 0 0 -1 0
-7.4558191 13.318776 0.41084564 2737 0 0 -1 0
-7.6842952 13.181765 0.14448702 2644 0 0 -1 0
-7.4530711 13.313867 0.14448702 2665 0 0 -1 0
-7.2195768 13.441913 0.14448702 2608 0 0 -1 0
-7.6871281 13.186625 0.41084564 2728 0 0 -1 0
-7.2222385 13.446868 0.41084564 2725 0 0 -1 0
-7.6317515 22.808903 0.30193856 330 0 0 -1 0
-8.0257015 22.663879 -0.11777806 320 0 0 -1 0
-7.6289387 22.800495 -0.11777806 322 0 0 -1 0
-7.2298536 22.930166 -0.11777806 322 0 0 -1 0
-8.0286608 22.672235 0.30193856 329 0 0 -1 0
-7.2325191 22.938622 0.30193856 318 0 0 -1 0
-7.5241842 22.844612 0.30193856 323 0 0 -1 0
-7.9188118 22.70145 -0.11777806 322 0 0 -1 0
-7.5214109 22.836193 -0.11777806 316 0 0 -1 0
-7.1217184 22.963982 -0.11777806 305 0 0 -1 0
-7.9217315 22.70982 0.30193856 318 0 0 -1 0
-7.1243443 22.972448 0.30193856 311 0 0 -1 0
-0.99151647 24.47356 1.6522834 210 4.9039364 -121.04366 -5.2044835 -4.9458952
-1.4184879 24.452528 1.6522834 209 7.0156927 -120.93964 -5.2044835 -4.9458952
-0.56424296 24.487137 1.6522834 200 2.7906866 -121.11081 -5.2044835 -4.9458952
-1.4172083 24.430468 2.079596 206 7.0093637 -120.83054 -7.3179269 -4.9458952
-0.99062198 24.451481 2.079596 201 4.8995123 -120.93446 -7.3179269 -4.9458952
-0.56373394 24.465046 2.079596 191 2.7881689 -121.00156 -7.3179269 -4.9458952
-1.157879 24.462027 1.7463241 21 4.8063779 -101.54234 -4.7584133 -4.1510191
-1.1586485 24.478285 1.3187504 19 4.8095722 -101.60983 -2.9835465 -4.1510191
-0.73126692 24.494778 1.3187504 20 3.0355029 -101.67829 -2.9835465 -4.1510191
-1.5830879 24.41441 2.1735487 19 6.5714283 -101.34468 -6.5318313 -4.1510191
-1.1576623 24.457449 1.840348 21 4.8054781 -101.52334 -5.1487088 -4.1510191
-1.5843272 24.433521 1.840348 19 6.5765724 -101.42401 -5.1487088 -4.1510191
-0.99116009 24.464762 1.840348 23 4.1143246 -101.5537 -5.1487088 -4.1510191
-1.4190158 24.461626 1.41284 22 5.8903613 -101.54068 -3.3741145 -4.1510191
-0.99188542 24.482666 1.41284 21 4.1173353 -101.62801 -3.3741145 -4.1510191
-0.56445295 24.496248 1.41284 21 2.343055 -101.68439 -3.3741145 -4.1510191
-1.417978 24.443739 1.840348 22 5.886054 -101.46643 -5.1487088 -4.1510191
-0.56404012 24.478334 1.840348 21 2.3413413 -101.61003 -5.1487088 -4.1510191
-0.56345558 24.452967 2.2674785 22 2.3389149 -101.50473 -6.9217353 -4.1510191
-1.0421863 24.457695 1.9343538 23 4.3261352 -101.52436 -5.538928 -4.1510191
-1.4700469 24.455305 1.5069175 21 6.1021929 -101.51443 -3.7646322 -4.1510191
-1.0430189 24.477236 1.5069175 22 4.3295918 -101.60548 -3.7646322 -4.1510191
-1.4688733 24.435781 1.9343538 21 6.097321 -101.4334 -5.538928 -4.1510191
-1.4672521 24.408813 2.3613834 22 6.0905914 -101.32145 -7.3115368 -4.1510191
-0.61450315 24.445152 2.3613834 22 2.5508144 -101.4723 -7.3115368 -4.1510191
-0.99096 24.459824 1.9343538 23 4.1134939 -101.5332 -5.538928 -4.1510191
-1.4188246 24.45833 1.5069175 22 5.8895679 -101.52699 -3.7646322 -4.1510191
-0.56437689 24.492949 1.5069175 21 2.3427393 -101.6707 -3.7646322 -4.1510191
-0.56392628 24.473394 1.9343538 22 2.3408687 -101.58953 -5.538928 -4.1510191
-0.98986638 24.432831 2.3613834 22 4.1089544 -101.42115 -7.3115368 -4.1510191
-1.0419711 24.452644 2.0240681 23 4.325242 -101.5034 -5.911334 -4.1510191
-1.4698375 24.451822 1.5967064 21 6.1013236 -101.49998 -4.1373472 -4.1510191
-1.4685699 24.430735 2.0240681 22 6.0960617 -101.41245 -5.911334 -4.1510191
-0.61505497 24.467106 2.0240681 22 2.5531049 -101.56342 -5.911334 -4.1510191
-0.61433673 24.438534 2.4509959 22 2.5501235 -101.44482 -7.6835198 -4.1510191
-0.93099821 24.457123 2.0240681 23 3.8645914 -101.52198 -5.911334 -4.1510191
-0.9318018 24.478233 1.5967064 22 3.8679271 -101.60961 -4.1373472 -4.1510191
-0.5044558 24.490765 1.5967064 22 2.0940056 -101.66163 -4.1373472 -4.1510191
-1.3576919 24.437147 2.0240681 22 5.6358051 -101.43906 -5.911334 -4.1510191
-0.50402075 24.469645 2.0240681 21 2.0921998 -101.57396 -5.911334 -4.1510191
-1.3561064 24.408611 2.4509959 22 5.6292233 -101.32061 -7.6835198 -4.1510191
-0.92991102 24.428562 2.4509959 21 3.8600783 -101.40343 -7.6835198 -4.1510191
-0.50343215 24.441069 2.4509959 22 2.0897565 -101.45535 -7.6835198 -4.1510191
-1.1014628 24.444384 2.1180339 23 4.5721931 -101.4691 -6.3013883 -4.1510191
-1.5293299 24.44416 1.6907566 22 6.3482776 -101.46818 -4.5277514 -4.1510191
-1.1024877 24.467127 1.6907566 22 4.5764475 -101.56351 -4.5277514 -4.1510191
-1.5279083 24.421438 2.1180339 22 6.3423767 -101.37386 -6.3013883 -4.1510191
-1.0417306 24.447001 2.1180339 23 4.324244 -101.47997 -6.3013883 -4.1510191
-1.4695971 24.447823 1.6907566 22 6.1003256 -101.48338 -4.5277514 -4.1510191
-0.61548519 24.484219 1.6907566 22 2.5548909 -101.63446 -4.5277514 -4.1510191
-0.61491305 24.46146 2.1180339 22 2.5525157 -101.53999 -6.3013883 -4.1510191
-0.61415362 24.431248 2.5448489 22 2.5493634 -101.41457 -8.0731058 -4.1510191
-0.81981689 24.45545 2.1180339 23 3.4030755 -101.51504 -6.3013883 -4.1510191
-1.2476583 24.460154 1.6907566 21 5.1790533 -101.53456 -4.5277514 -4.1510191
-0.82057965 24.478203 1.6907566 21 3.4062419 -101.60949 -4.5277514 -4.1510191
-0.39325115 24.488796 1.6907566 22 1.632393 -101.65346 -4.5277514 -4.1510191
-1.2464985 24.437416 2.1180339 22 5.1742392 -101.44018 -6.3013883 -4.1510191
-0.3928856 24.466032 2.1180339 21 1.6308756 -101.55897 -6.3013883 -4.1510191
-0.81880438 24.425245 2.5448489 22 3.3988726 -101.38966 -8.0731058 -4.1510191
-0.39240035 24.435816 2.5448489 22 1.6288613 -101.43354 -8.0731058 -4.1510191
-1.1566385 24.43582 2.2119775 23 4.8012285 -101.43356 -6.6913495 -4.1510191
-1.5845052 24.436268 1.7847908 21 6.5773115 -101.43542 -4.9180889 -4.1510191
-1.1577924 24.460197 1.7847908 22 4.8060184 -101.53474 -4.9180889 -4.1510191
-1.582926 24.411913 2.2119775 21 6.5707564 -101.33432 -6.6913495 -4.1510191
-1.5808645 24.380121 2.6386733 21 6.5621991 -101.20235 -8.4625721 -4.1510191
-1.1551322 24.403996 2.6386733 21 4.7949758 -101.30145 -8.4625721 -4.1510191
-1.1011924 24.438381 2.2119775 23 4.5710707 -101.44418 -6.6913495 -4.1510191
-1.529057 24.4398 1.7847908 22 6.3471451 -101.45008 -4.9180889 -4.1510191
-1.5255438 24.383644 2.6386733 21 6.3325615 -101.21697 -8.4625721 -4.1510191
-0.67363763 24.422029 2.6386733 22 2.7962828 -101.37631 -8.4625721 -4.1510191
-1.0414748 24.440998 2.2119775 23 4.3231816 -101.45505 -6.6913495 -4.1510191
-0.6153754 24.479851 1.7847908 22 2.554435 -101.61633 -4.9180889 -4.1510191
-0.61476207 24.455452 2.2119775 22 2.5518892 -101.51505 -6.6913495 -4.1510191
-1.0401185 24.409168 2.6386733 22 4.3175516 -101.32292 -8.4625721 -4.1510191
-0.61396146 24.423603 2.6386733 22 2.5485656 -101.38284 -8.4625721 -4.1510191
-0.93055481 24.445475 2.2119775 22 3.8627508 -101.47363 -6.6913495 -4.1510191
-0.93148321 24.469862 1.7847908 21 3.8666046 -101.57487 -4.9180889 -4.1510191
-0.50378072 24.457989 2.2119775 20 2.0912035 -101.52558 -6.6913495 -4.1510191
-0.92934293 24.413639 2.6386733 20 3.8577201 -101.34148 -8.4625721 -4.1510191
-1.1009057 24.432018 2.3058972 23 4.5698805 -101.41778 -7.081212 -4.1510191
-1.5271354 24.409084 2.3058972 21 6.3391681 -101.32258 -7.081212 -4.1510191
-0.67434043 24.44751 2.3058972 22 2.7992001 -101.48208 -7.081212 -4.1510191
-1.5250437 24.375652 2.7324674 21 6.3304858 -101.1838 -8.8519135 -4.1510191
-0.67341685 24.414024 2.7324674 22 2.7953663 -101.34308 -8.8519135 -4.1510191
-0.81940216 24.443077 2.3058972 23 3.4013541 -101.46368 -7.081212 -4.1510191
-0.82027477 24.469109 1.8788073 22 3.4049761 -101.57174 -5.3083534 -4.1510191
-0.39310503 24.479698 1.8788073 22 1.6317865 -101.61569 -5.3083534 -4.1510191
-1.2458678 24.425053 2.3058972 22 5.1716213 -101.38886 -7.081212 -4.1510191
-0.39268684 24.453655 2.3058972 21 1.6300505 -101.50759 -7.081212 -4.1510191
-1.2441615 24.3916 2.7324674 22 5.1645379 -101.24999 -8.8519135 -4.1510191
-0.81827986 24.409599 2.7324674 21 3.3966954 -101.32471 -8.8519135 -4.1510191
-1.1006026 24.425293 2.3997917 23 4.5686226 -101.38985 -7.4709702 -4.1510191
-1.5284439 24.429998 1.972805 21 6.3445997 -101.40939 -5.6985402 -4.1510191
-0.67491823 24.468458 1.972805 22 2.8015985 -101.56904 -5.6985402 -4.1510191
-1.526715 24.402367 2.3997917 21 6.3374233 -101.29469 -7.4709702 -4.1510191
-0.67415482 24.440781 2.3997917 22 2.7984295 -101.45415 -7.4709702 -4.1510191
-0.67318606 24.405661 2.8262303 21 2.7944083 -101.30836 -9.2411251 -4.1510191
-0.93005645 24.432383 2.3997917 23 3.860682 -101.41929 -7.4709702 -4.1510191
-1.3578545 24.440073 1.972805 22 5.6364799 -101.45121 -5.6985402 -4.1510191
-0.50408107 24.472572 1.972805 22 2.0924501 -101.58611 -5.6985402 -4.1510191
-0.50351089 24.444893 2.3997917 22 2.0900834 -101.47121 -7.4709702 -4.1510191
-1.3543695 24.377348 2.8262303 21 5.6220136 -101.19083 -9.2411251 -4.1510191
-0.92872 24.397274 2.8262303 21 3.8551345 -101.27355 -9.2411251 -4.1510191
-6.3129754 37.846581 -0.75330192 22 0 0 -1 0
-6.3088112 37.821613 -1.342432 20 0 0 -1 0
-5.7271914 37.914043 -1.342432 21 0 0 -1 0
-5.7309718 37.939072 -0.75330192 20 0 0 -1 0
-6.8964114 37.761154 -0.16385245 21 0 0 -1 0
-6.3156509 37.862617 -0.16385245 21 0 0 -1 0
-5.7334003 37.955147 -0.16385245 21 0 0 -1 0
-6.1360092 37.884869 -0.4653067 23 0 0 -1 0
-6.7134771 37.765598 -1.0546103 21 0 0 -1 0
-5.5504165 37.953968 -1.0546103 21 0 0 -1 0
-6.717133 37.78616 -0.4653067 21 0 0 -1 0
-6.7192044 37.797813 0.12424812 22 0 0 -1 0
-6.1379018 37.896549 0.12424812 22 0 0 -1 0
-6.1371365 37.891827 -0.17055207 28 0 0 -1 0
-6.7183671 37.793102 -0.17055207 27 0 0 -1 0
-5.5544586 37.981609 -0.17055207 25 0 0 -1 0
-6.719646 37.800297 0.41907626 27 0 0 -1 0
-6.1383047 37.89904 0.41907626 26 0 0 -1 0
-5.5555162 37.988842 0.41907626 25 0 0 -1 0
-5.9658694 37.924015 0.12424812 25 0 0 -1 0
-5.9640303 37.912323 -0.4653067 23 0 0 -1 0
-5.3827181 38.011166 0.12424812 23 0 0 -1 0
-13.377647 86.314705 4.3524818 61 0 0 -1 0
-13.859509 86.23864 4.3524818 58 0 0 -1 0
-12.89537 86.388069 4.3524818 60 0 0 -1 0
-13.855968 86.216599 4.8402486 60 0 0 -1 0
-13.374228 86.292641 4.8402486 59 0 0 -1 0
-12.892075 86.36599 4.8402486 58 0 0 -1 0
5.2941637 8.6800451 0.16320309 473 0 0 -1 0
5.1372313 8.7632065 -0.014171958 417 0 0 -1 0
5.14187 8.7711191 0.16320309 466 0 0 -1 0
5.4448452 8.5863266 0.16320309 461 0 0 -1 0
5.1449418 8.7763586 0.34071118 472 0 0 -1 0
5.2973266 8.6852303 0.34071118 461 0 0 -1 0
5.4480982 8.5914564 0.34071118 471 0 0 -1 0
-7.4895124 14.871835 0.39364976 495 0 0 -1 0
-7.7450657 14.733427 0.10307676 466 0 0 -1 0
-7.486752 14.866353 0.10307676 476 0 0 -1 0
-7.2261591 14.99475 0.10307676 486 0 0 -1 0
-7.747921 14.738859 0.39364976 475 0 0 -1 0
-7.2288232 15.000278 0.39364976 491 0 0 -1 0
-7.4128442 17.455095 0.36499 377 0 0 -1 0
-7.7135043 17.316679 0.034059644 356 0 0 -1 0
-7.4101124 17.448662 0.034059644 364 0 0 -1 0
-7.1044621 17.575329 0.034059644 371 0 0 -1 0
-7.7163486 17.323065 0.36499 365 0 0 -1 0
-7.1070819 17.581808 0.36499 371 0 0 -1 0
-7.3305073 17.489834 0.36499 378 0 0 -1 0
-7.6318159 17.352839 0.034059644 371 0 0 -1 0
-7.3278055 17.483387 0.034059644 369 0 0 -1 0
-7.0215621 17.608612 0.034059644 367 0 0 -1 0
-7.6346297 17.359236 0.36499 371 0 0 -1 0
-7.0241508 17.615105 0.36499 376 0 0 -1 0
-9.8528891 20.881668 1.9434605 184 0 0 -1 0
-10.224643 20.724403 1.5402889 177 0 0 -1 0
-9.8613939 20.899693 1.5402889 183 0 0 -1 0
-9.495142 21.068615 1.5402889 179 0 0 -1 0
-10.215824 20.706532 1.9434605 182 0 0 -1 0
-9.4869537 21.050446 1.9434605 178 0 0 -1 0
-9.841383 20.857283 2.3462226 180 0 0 -1 0
-9.4758749 21.025862 2.3462226 174 0 0 -1 0
4.0921159 36.310394 0.14717591 328 0 0 -1 0
3.5201521 36.358627 -0.4267177 326 0 0 -1 0
4.0908146 36.298847 -0.4267177 317 0 0 -1 0
4.6604676 36.230114 -0.4267177 305 0 0 -1 0
3.5212719 36.370193 0.14717591 321 0 0 -1 0
4.6619501 36.241642 0.14717591 315 0 0 -1 0
4.0592237 36.76799 -0.42680162 255 0 0 -1 0
3.4792492 36.80661 -1.0077105 240 0 0 -1 0
4.056953 36.747425 -1.0077105 246 0 0 -1 0
4.633656 36.679165 -1.0077105 240 0 0 -1 0
3.4811966 36.827209 -0.42680162 249 0 0 -1 0
4.6362495 36.699692 -0.42680162 237 0 0 -1 0
4.0604925 36.779488 0.15436038 252 0 0 -1 0
4.6376987 36.711166 0.15436038 241 0 0 -1 0
