# .PCD v0.7 - Point Cloud Data file format
VERSION 0.7
FIELDS x y z intensity normal_x normal_y normal_z curvature
SIZE 4 4 4 4 4 4 4 4
TYPE F F F F F F F F
COUNT 1 1 1 1 1 1 1 1
WIDTH 368
HEIGHT 1
VIEWPOINT 0 0 0 1 0 0 0
POINTS 368
DATA ascii
3.6153085 2.8850298 0.54268044 1304 0 0 -1 0
3.5630932 2.9466 0.46196574 1283 0 0 -1 0
3.613976 2.8839664 0.46196574 1303 0 0 -1 0
3.5644069 2.9476864 0.54268044 1298 0 0 -1 0
-1.7878504 7.181354 0.50828874 3737 8.3688135 -33.615459 0.42929429 -4.6809363
-1.912205 7.1464229 0.37914521 3572 8.9509096 -33.45195 1.033807 -4.6809363
-1.7871914 7.1787071 0.37914521 3570 8.3657293 -33.603069 1.033807 -4.6809363
-1.6616335 7.2088046 0.37914521 3540 7.7780004 -33.743954 1.033807 -4.6809363
-1.91291 7.1490579 0.50828874 3686 8.9542103 -33.464283 0.42929429 -4.6809363
-1.6622461 7.2114625 0.50828874 3633 7.7808681 -33.756397 0.42929429 -4.6809363
5.0375161 8.3048363 0.47962901 4964 0 0 -1 0
4.8900056 8.3883953 0.31012809 4762 0 0 -1 0
5.0356593 8.3017759 0.31012809 4850 0 0 -1 0
5.1797781 8.2126274 0.31012809 4876 0 0 -1 0
4.8918085 8.3914881 0.47962901 4854 0 0 -1 0
5.1816878 8.2156553 0.47962901 4951 0 0 -1 0
5.0751495 8.2818918 0.47962901 5002 0 0 -1 0
4.928021 8.3661194 0.31012809 4876 0 0 -1 0
5.0732789 8.2788401 0.31012809 4880 0 0 -1 0
5.2169924 8.1890373 0.31012809 4828 0 0 -1 0
4.9298377 8.3692036 0.47962901 4951 0 0 -1 0
5.2189159 8.1920557 0.47962901 4915 0 0 -1 0
-7.2614217 12.897471 0.41657758 14543 0 0 -1 0
-7.4826484 12.764071 0.15829045 13697 0 0 -1 0
-7.2587452 12.892717 0.15829045 13973 0 0 -1 0
-7.0326304 13.017437 0.15829045 14125 0 0 -1 0
-7.4854074 12.768778 0.41657758 14307 0 0 -1 0
-7.0352235 13.022237 0.41657758 14293 0 0 -1 0
-7.2005634 12.931547 0.41657758 14589 0 0 -1 0
-7.4224162 12.799191 0.15829045 14125 0 0 -1 0
-7.1979094 12.926781 0.15829045 13857 0 0 -1 0
-6.9712095 13.050433 0.15829045 13937 0 0 -1 0
-7.4251528 12.803909 0.41657758 14293 0 0 -1 0
-6.9737797 13.055244 0.41657758 14141 0 0 -1 0
4.7624302 19.301863 -0.024776578 3741 0 0 -1 0
4.4217401 19.368456 -0.3716476 3659 0 0 -1 0
4.7590928 19.288336 -0.3716476 3659 0 0 -1 0
4.4248409 19.382038 -0.024776578 3666 0 0 -1 0
5.0985689 19.215807 -0.024776578 3671 0 0 -1 0
4.4265938 19.389717 0.32228485 3680 0 0 -1 0
4.764317 19.309509 0.32228485 3718 0 0 -1 0
5.1005888 19.223421 0.32228485 3722 0 0 -1 0
-7.7800488 24.363436 7.0098872 828 0 0 -1 0
-8.2387009 24.326212 6.5625567 804 0 0 -1 0
-7.8128943 24.466291 6.5625567 811 0 0 -1 0
-7.3847094 24.598919 6.5625567 796 0 0 -1 0
-8.2040653 24.223946 7.0098872 827 0 0 -1 0
-7.3536639 24.495504 7.0098872 823 0 0 -1 0
3.5391316 28.454334 0.02440685 595 0 0 -1 0
3.0454605 28.497091 -0.47092658 576 0 0 -1 0
3.5373757 28.440216 -0.47092658 586 0 0 -1 0
4.028235 28.374853 -0.47092658 592 0 0 -1 0
3.0469723 28.511236 0.02440685 578 0 0 -1 0
4.0302343 28.388939 0.02440685 593 0 0 -1 0
3.047574 28.516869 0.51991218 587 0 0 -1 0
3.5398307 28.459955 0.51991218 593 0 0 -1 0
4.0310307 28.394547 0.51991218 585 0 0 -1 0
-1.9845003 52.132393 3.8365629 217 0 0 -1 0
-2.6412907 52.139843 3.1807353 197 0 0 -1 0
-1.9858907 52.168919 3.1807353 209 0 0 -1 0
-1.3301772 52.189751 3.1807353 214 0 0 -1 0
-2.6394413 52.10334 3.8365629 199 0 0 -1 0
-1.3292459 52.153214 3.8365629 212 0 0 -1 0
-2.6371753 52.058609 4.4918795 204 0 0 -1 0
-1.9827965 52.087635 4.4918795 211 0 0 -1 0
-1.3281047 52.108437 4.4918795 213 0 0 -1 0
-1.7465464 52.100143 4.4372921 218 0 0 -1 0
-2.4031324 52.118137 3.7819285 210 0 0 -1 0
-1.748024 52.144222 3.7819285 215 0 0 -1 0
-2.4011009 52.074081 4.4372921 210 0 0 -1 0
-1.0917159 52.117973 4.4372921 214 0 0 -1 0
-2.3986902 52.021801 5.0920491 205 0 0 -1 0
-1.7447929 52.047836 5.0920491 202 0 0 -1 0
-1.0906199 52.065651 5.0920491 205 0 0 -1 0
-5.8508401 51.916008 -1.0418546 182 0 0 -1 0
-6.4996753 51.813824 -1.6982334 173 0 0 -1 0
-5.8480678 51.891407 -1.6982334 181 0 0 -1 0
-5.1955366 51.960796 -1.6982334 172 0 0 -1 0
-6.5027566 51.838387 -1.0418546 177 0 0 -1 0
-5.1979995 51.985432 -1.0418546 176 0 0 -1 0
-6.5048118 51.854767 -0.38521647 179 0 0 -1 0
-5.8526888 51.932411 -0.38521647 174 0 0 -1 0
-6.0870271 51.894554 -0.85035723 185 0 0 -1 0
-6.7357721 51.791801 -1.5068226 172 0 0 -1 0
-6.0844231 51.872356 -1.5068226 184 0 0 -1 0
-5.4321122 51.944714 -1.5068226 177 0 0 -1 0
-6.7386546 51.813965 -0.85035723 178 0 0 -1 0
-5.4344368 51.966946 -0.85035723 179 0 0 -1 0
-6.7404733 51.82795 -0.19366306 172 0 0 -1 0
-6.0886698 51.908558 -0.19366306 183 0 0 -1 0
-5.4359035 51.980968 -0.19366306 179 0 0 -1 0
-5.9703627 51.917767 -0.44906479 193 0 0 -1 0
-6.6200981 51.821468 -1.1056821 183 0 0 -1 0
-5.9683852 51.90057 -1.1056821 179 0 0 -1 0
-5.3157291 51.97147 -1.1056821 187 0 0 -1 0
-6.6222916 51.838642 -0.44906479 186 0 0 -1 0
-5.3174906 51.988693 -0.44906479 184 0 0 -1 0
-6.6234393 51.847626 0.20771831 191 0 0 -1 0
-5.3184118 51.997704 0.20771831 190 0 0 -1 0
-6.3244028 51.882389 -0.047710359 190 0 0 -1 0
-6.9742227 51.786667 -0.70444137 175 0 0 -1 0
-6.3229184 51.870213 -0.70444137 187 0 0 -1 0
-5.6706161 51.945572 -0.70444137 188 0 0 -1 0
-6.9758596 51.79882 -0.047710359 182 0 0 -1 0
-5.6719475 51.957764 -0.047710359 185 0 0 -1 0
-5.971107 51.92424 -0.047710359 196 0 0 -1 0
-6.621563 51.832935 -0.70444137 191 0 0 -1 0
-5.9697056 51.912056 -0.70444137 193 0 0 -1 0
-5.316905 51.982971 -0.70444137 190 0 0 -1 0
-6.6231174 51.845104 -0.047710359 190 0 0 -1 0
-5.3181534 51.995174 -0.047710359 192 0 0 -1 0
-4.1332436 87.32132 -0.48333853 1037 0 0 -1 0
-4.6204786 87.289467 -0.97155935 996 0 0 -1 0
-4.1328931 87.313911 -0.97155935 985 0 0 -1 0
-3.6451778 87.335632 -0.97155935 992 0 0 -1 0
-4.6208706 87.296875 -0.48333853 1014 0 0 -1 0
-3.6454871 87.34304 -0.48333853 1032 0 0 -1 0
-2.4759772 7.4560938 0.26247513 2946 11.371215 -34.242985 1.5501223 -4.592617
-2.6057267 7.4117465 0.26247513 2911 11.967105 -34.039314 1.5501223 -4.592617
-2.3454731 7.4981699 0.26247513 2943 10.771859 -34.436222 1.5501223 -4.592617
-2.6072834 7.4161744 0.39964044 2822 11.974254 -34.05965 0.92017448 -4.592617
-2.4774563 7.4605484 0.39964044 2893 11.378008 -34.263443 0.92017448 -4.592617
-2.3468742 7.5026498 0.39964044 2879 10.778295 -34.456799 0.92017448 -4.592617
-2.442117 7.4672527 0.26247513 2974 11.215708 -34.294231 1.5501223 -4.592617
-2.5720665 7.4234948 0.26247513 2943 11.812516 -34.093269 1.5501223 -4.592617
-2.3114235 7.5087361 0.26247513 2949 10.615483 -34.484749 1.5501223 -4.592617
-2.5736032 7.4279299 0.39964044 2879 11.819573 -34.113636 0.92017448 -4.592617
-2.4435759 7.471714 0.39964044 2895 11.222408 -34.31472 0.92017448 -4.592617
-2.3128045 7.5132222 0.39964044 2861 10.621825 -34.505352 0.92017448 -4.592617
-2.5664439 7.912797 0.24262074 2388 11.786695 -36.340446 1.6413059 -4.592617
-2.7041502 7.8668013 0.24262074 2327 12.419127 -36.129204 1.6413059 -4.592617
-2.4279556 7.9563828 0.24262074 2367 11.15067 -36.540619 1.6413059 -4.592617
-2.7057657 7.8715014 0.38785461 2218 12.426546 -36.150791 0.97430241 -4.592617
-2.5679772 7.9175243 0.38785461 2266 11.793736 -36.362156 0.97430241 -4.592617
-2.4294062 7.9611363 0.38785461 2298 11.157332 -36.56245 0.97430241 -4.592617
-2.5305104 7.9243617 0.24262074 2427 11.621665 -36.393559 1.6413059 -4.592617
-2.6684241 7.8789911 0.24262074 2367 12.25505 -36.185188 1.6413059 -4.592617
-2.3918257 7.9673185 0.24262074 2401 10.984739 -36.590843 1.6413059 -4.592617
-2.6700184 7.883698 0.38785461 2298 12.262372 -36.206806 0.97430241 -4.592617
-2.5320222 7.9290962 0.38785461 2307 11.628609 -36.415302 0.97430241 -4.592617
-2.3932548 7.9720783 0.38785461 2304 10.991302 -36.612701 0.97430241 -4.592617
-2.0774014 8.5153847 1.2452084 214 9.6324463 -39.483936 -2.9916873 -4.6367764
-2.2282197 8.4874325 1.0921376 203 10.331757 -39.354328 -2.2819324 -4.6367764
-2.0797539 8.5250273 1.0921376 203 9.6433535 -39.528645 -2.2819324 -4.6367764
-1.9306551 8.5600262 1.0921376 204 8.9520159 -39.690929 -2.2819324 -4.6367764
-2.2256992 8.4778318 1.2452084 212 10.320069 -39.309811 -2.9916873 -4.6367764
-1.9284713 8.5503435 1.2452084 213 8.9418907 -39.64603 -2.9916873 -4.6367764
-2.0193918 8.5293274 1.2452084 208 9.3634682 -39.548584 -2.9916873 -4.6367764
-2.1703961 8.5024023 1.0921376 201 10.063642 -39.42374 -2.2819324 -4.6367764
-2.0216784 8.5389862 1.0921376 198 9.3740711 -39.593369 -2.2819324 -4.6367764
-1.8723445 8.5729694 1.0921376 192 8.6816425 -39.750942 -2.2819324 -4.6367764
-1.8702267 8.5632725 1.2452084 204 8.6718235 -39.705978 -2.9916873 -4.6367764
4.852735 7.8756824 0.48536098 972 0 0 -1 0
4.7128081 7.9562411 0.32393149 945 0 0 -1 0
4.8509464 7.8727798 0.32393149 943 0 0 -1 0
4.987606 7.7869201 0.32393149 956 0 0 -1 0
4.7145457 7.9591742 0.48536098 954 0 0 -1 0
4.9894452 7.7897911 0.48536098 950 0 0 -1 0
5.4184637 7.4880648 0.20291188 743 0 0 -1 0
5.2821841 7.5746503 0.041661799 654 0 0 -1 0
5.4135756 7.4813099 0.041661799 655 0 0 -1 0
5.2869534 7.5814896 0.20291188 719 0 0 -1 0
5.5483232 7.3923593 0.20291188 725 0 0 -1 0
5.290112 7.586019 0.36428288 739 0 0 -1 0
5.421701 7.4925385 0.36428288 739 0 0 -1 0
5.5516381 7.3967757 0.36428288 736 0 0 -1 0
5.401773 7.5035357 0.2739031 741 0 0 -1 0
5.2659492 7.5908341 0.11259383 719 0 0 -1 0
5.3976254 7.4977741 0.11259383 739 0 0 -1 0
5.527657 7.4024305 0.11259383 739 0 0 -1 0
5.2699957 7.5966668 0.2739031 719 0 0 -1 0
5.2724371 7.6001863 0.43531179 724 0 0 -1 0
5.4042754 7.5070119 0.43531179 726 0 0 -1 0
5.5344677 7.411551 0.43531179 735 0 0 -1 0
5.4200916 7.490314 0.2739031 741 0 0 -1 0
5.284481 7.5779443 0.11259383 739 0 0 -1 0
5.4159298 7.4845629 0.11259383 739 0 0 -1 0
5.5457287 7.3889022 0.11259383 736 0 0 -1 0
5.5499897 7.3945799 0.2739031 727 0 0 -1 0
5.2909918 7.5872808 0.43531179 726 0 0 -1 0
5.4226027 7.4937844 0.43531179 735 0 0 -1 0
5.5525613 7.398006 0.43531179 711 0 0 -1 0
4.1979361 10.276473 0.46243316 1081 0 0 -1 0
4.0164661 10.344358 0.26871783 1024 0 0 -1 0
4.1963887 10.272685 0.26871783 1039 0 0 -1 0
4.3750329 10.197884 0.26871783 1042 0 0 -1 0
4.0179472 10.348172 0.46243316 1055 0 0 -1 0
4.376646 10.201644 0.46243316 1080 0 0 -1 0
-7.0345025 12.494426 0.42230952 827 0 0 -1 0
-7.2488155 12.365195 0.17209384 779 0 0 -1 0
-7.0319099 12.48982 0.17209384 794 0 0 -1 0
-6.812861 12.610642 0.17209384 808 0 0 -1 0
-7.2514882 12.369754 0.42230952 812 0 0 -1 0
-6.8153729 12.615292 0.42230952 815 0 0 -1 0
-6.9755454 12.527436 0.42230952 837 0 0 -1 0
-7.1904659 12.399217 0.17209384 808 0 0 -1 0
-6.9729743 12.52282 0.17209384 800 0 0 -1 0
-6.7533593 12.642607 0.17209384 800 0 0 -1 0
-7.1931171 12.403788 0.42230952 815 0 0 -1 0
-6.7558494 12.647268 0.42230952 817 0 0 -1 0
-7.4883409 13.300517 0.41084564 2735 0 0 -1 0
-7.7164817 13.16295 0.14448702 2581 0 0 -1 0
-7.4855809 13.295615 0.14448702 2623 0 0 -1 0
-7.2524004 13.424232 0.14448702 2648 0 0 -1 0
-7.7193265 13.167803 0.41084564 2687 0 0 -1 0
-7.2550745 13.429182 0.41084564 2678 0 0 -1 0
-7.4255805 13.335657 0.41084564 2742 0 0 -1 0
-7.654367 13.199165 0.14448702 2648 0 0 -1 0
-7.4228439 13.330743 0.14448702 2610 0 0 -1 0
-7.1890597 13.458259 0.14448702 2617 0 0 -1 0
-7.6571889 13.204032 0.41084564 2678 0 0 -1 0
-7.1917105 13.463221 0.41084564 2663 0 0 -1 0
3.4160581 27.983051 -0.61111861 101 0 0 -1 0
2.9245255 28.013113 -1.1029313 90 0 0 -1 0
3.4129763 27.957808 -1.1029313 89 0 0 -1 0
2.927166 28.038408 -0.61111861 100 0 0 -1 0
3.903909 27.91917 -0.61111861 100 0 0 -1 0
2.9289148 28.055159 -0.11893713 98 0 0 -1 0
3.4180989 27.999769 -0.11893713 100 0 0 -1 0
3.4800892 27.979637 -0.50286514 101 0 0 -1 0
3.4771833 27.956274 -0.99477178 100 0 0 -1 0
2.9912469 28.03611 -0.50286514 100 0 0 -1 0
3.9678707 27.914639 -0.50286514 100 0 0 -1 0
3.4819348 27.994476 -0.010622561 100 0 0 -1 0
3.9699752 27.929443 -0.010622561 100 0 0 -1 0
3.2851403 28.00725 -0.39459544 99 0 0 -1 0
2.7936993 28.038773 -0.88658875 95 0 0 -1 0
3.2826178 27.985746 -0.88658875 96 0 0 -1 0
3.7705362 27.924191 -0.88658875 98 0 0 -1 0
2.795846 28.060318 -0.39459544 95 0 0 -1 0
3.7734334 27.945648 -0.39459544 98 0 0 -1 0
2.7971413 28.073318 0.097701073 94 0 0 -1 0
3.2866623 28.020226 0.097701073 94 0 0 -1 0
3.4170842 27.991457 -0.39459544 101 0 0 -1 0
2.9257972 28.025295 -0.88658875 98 0 0 -1 0
3.4144604 27.969965 -0.88658875 100 0 0 -1 0
2.9280453 28.046829 -0.39459544 98 0 0 -1 0
3.9050817 27.927557 -0.39459544 100 0 0 -1 0
2.9294019 28.059824 0.097701073 99 0 0 -1 0
3.4186673 28.004427 0.097701073 100 0 0 -1 0
3.9068909 27.940496 0.097701073 98 0 0 -1 0
3.4178925 27.998079 -0.18293625 100 0 0 -1 0
2.9268732 28.035603 -0.67507845 99 0 0 -1 0
3.9035184 27.916378 -0.67507845 98 0 0 -1 0
2.9287379 28.053465 -0.18293625 97 0 0 -1 0
3.9060054 27.934164 -0.18293625 96 0 0 -1 0
2.9297109 28.062782 0.30944428 98 0 0 -1 0
3.4190278 28.00738 0.30944428 95 0 0 -1 0
3.9073031 27.943443 0.30944428 95 0 0 -1 0
3.4187586 28.005175 0.14201745 94 0 0 -1 0
3.4172695 27.992975 -0.35029882 92 0 0 -1 0
2.9294801 28.060574 0.14201745 89 0 0 -1 0
3.9069953 27.941242 0.14201745 90 0 0 -1 0
2.9298637 28.064249 0.63447326 90 0 0 -1 0
3.4192064 28.008842 0.63447326 89 0 0 -1 0
3.9075069 27.944902 0.63447326 86 0 0 -1 0
3.5310431 28.924967 0.23888713 110 0 0 -1 0
3.0296519 28.971127 -0.26453179 104 0 0 -1 0
3.5297599 28.914455 -0.26453179 108 0 0 -1 0
4.0288143 28.849152 -0.26453179 108 0 0 -1 0
3.0307531 28.981657 0.23888713 106 0 0 -1 0
4.0302787 28.859638 0.23888713 108 0 0 -1 0
1.6167958 51.734879 2.823693 41 0 0 -1 0
0.95753324 51.751278 2.823693 39 0 0 -1 0
2.2757957 51.710079 2.823693 39 0 0 -1 0
2.2743654 51.677582 3.4829657 37 0 0 -1 0
1.6165171 51.725964 3.0224209 41 0 0 -1 0
0.95786142 51.769016 2.3628848 39 0 0 -1 0
2.2765758 51.727806 2.3628848 39 0 0 -1 0
2.2754035 51.701168 3.0224209 37 0 0 -1 0
1.6154218 51.690918 3.6815636 37 0 0 -1 0
2.2738619 51.666138 3.6815636 37 0 0 -1 0
1.9685645 51.71376 3.0224209 38 0 0 -1 0
1.310217 51.761295 2.3628848 35 0 0 -1 0
1.9695786 51.740406 2.3628848 35 0 0 -1 0
1.3095424 51.734642 3.0224209 36 0 0 -1 0
2.6272666 51.684483 3.0224209 35 0 0 -1 0
1.9672307 51.678722 3.6815636 36 0 0 -1 0
2.3295438 51.698761 3.0224209 32 0 0 -1 0
1.6715443 51.750889 2.3628848 31 0 0 -1 0
2.3307438 51.725395 2.3628848 30 0 0 -1 0
1.6706836 51.724239 3.0224209 31 0 0 -1 0
2.3279653 51.663731 3.6815636 30 0 0 -1 0
2.9860013 51.629875 3.6815636 30 0 0 -1 0
1.7332009 51.702045 3.4197664 40 0 0 -1 0
1.0750061 51.751652 2.7604544 37 0 0 -1 0
1.7342639 51.733753 2.7604544 37 0 0 -1 0
2.3932402 51.707458 2.7604544 38 0 0 -1 0
2.3917732 51.675766 3.4197664 37 0 0 -1 0
1.0735139 51.679813 4.0786209 38 0 0 -1 0
1.7318566 51.661942 4.0786209 38 0 0 -1 0
2.3899181 51.635685 4.0786209 36 0 0 -1 0
1.7324431 51.679436 3.8079207 39 0 0 -1 0
1.0746391 51.733982 3.1488655 38 0 0 -1 0
1.7336718 51.716091 3.1488655 38 0 0 -1 0
2.3924232 51.689804 3.1488655 36 0 0 -1 0
1.0738775 51.697315 3.8079207 37 0 0 -1 0
2.3907275 51.653172 3.8079207 35 0 0 -1 0
1.0729414 51.652256 4.4664555 37 0 0 -1 0
1.7309331 51.634392 4.4664555 35 0 0 -1 0
2.3886437 51.60815 4.4664555 36 0 0 -1 0
-4.1113744 86.859299 -0.47760659 91 0 0 -1 0
-4.5960317 86.827621 -0.96324426 87 0 0 -1 0
-4.1110258 86.851929 -0.96324426 88 0 0 -1 0
-3.6258912 86.873543 -0.96324426 87 0 0 -1 0
-4.5964217 86.834984 -0.47760659 90 0 0 -1 0
-3.6261988 86.880913 -0.47760659 90 0 0 -1 0
-3.5200508 86.885277 -0.47760659 87 0 0 -1 0
-4.0049133 86.856895 -0.96324426 85 0 0 -1 0
-3.5197523 86.877907 -0.96324426 80 0 0 -1 0
-3.0344822 86.89621 -0.96324426 81 0 0 -1 0
-4.0052528 86.864265 -0.47760659 86 0 0 -1 0
-3.0347397 86.90358 -0.47760659 80 0 0 -1 0
-4.1551127 87.78334 -0.48907048 138 0 0 -1 0
-4.6296248 87.752403 -0.96453756 132 0 0 -1 0
-4.1547732 87.776169 -0.96453756 130 0 0 -1 0
-3.6797996 87.797371 -0.96453756 131 0 0 -1 0
-4.630003 87.759575 -0.48907048 134 0 0 -1 0
-3.6801002 87.804535 -0.48907048 134 0 0 -1 0
5.2941637 8.6800451 0.16320309 474 0 0 -1 0
5.14187 8.7711191 0.16320309 468 0 0 -1 0
5.4448452 8.5863266 0.16320309 470 0 0 -1 0
5.1449418 8.7763586 0.34071118 472 0 0 -1 0
5.2973266 8.6852303 0.34071118 467 0 0 -1 0
5.4480982 8.5914564 0.34071118 473 0 0 -1 0
5.295754 8.6826525 0.24129343 473 0 0 -1 0
5.1394649 8.7670164 0.063853204 472 0 0 -1 0
5.291688 8.6759853 0.063853204 467 0 0 -1 0
5.1434145 8.7737532 0.24129343 460 0 0 -1 0
5.4464808 8.5889063 0.24129343 470 0 0 -1 0
5.1457973 8.7778187 0.41884297 467 0 0 -1 0
5.2982073 8.6866751 0.41884297 465 0 0 -1 0
5.4490042 8.592885 0.41884297 458 0 0 -1 0
-7.5232372 14.854803 0.39364976 1950 0 0 -1 0
-7.7784753 14.715816 0.10307676 1806 0 0 -1 0
-7.5204644 14.849328 0.10307676 1858 0 0 -1 0
-7.2601619 14.978317 0.10307676 1920 0 0 -1 0
-7.781343 14.721242 0.39364976 1852 0 0 -1 0
-7.2628388 14.98384 0.39364976 1944 0 0 -1 0
24.265329 28.511667 -0.86446029 134 0 0 -1 0
24.24766 28.490904 -1.4458251 124 0 0 -1 0
24.687279 28.110832 -1.4458251 123 0 0 -1 0
23.819536 28.885134 -0.86446029 126 0 0 -1 0
24.705269 28.131317 -0.86446029 118 0 0 -1 0
24.277145 28.525549 -0.28274208 132 0 0 -1 0
24.717299 28.145016 -0.28274208 119 0 0 -1 0
-3.8743081 48.470585 6.9066782 189 0 0 -1 0
-4.5168872 48.414932 6.9066782 179 0 0 -1 0
-3.2310481 48.517708 6.9066782 182 0 0 -1 0
-4.508719 48.327381 7.5510936 175 0 0 -1 0
-3.8673022 48.382931 7.5510936 175 0 0 -1 0
-3.2252052 48.429974 7.5510936 187 0 0 -1 0
-3.5358279 48.496449 6.9066782 179 0 0 -1 0
-4.1787796 48.445286 6.9066782 173 0 0 -1 0
-2.8922544 48.539082 6.9066782 168 0 0 -1 0
-2.8870242 48.451309 7.5510936 166 0 0 -1 0
-3.5340409 48.471939 7.0933385 179 0 0 -1 0
-4.183702 48.502354 6.4481235 173 0 0 -1 0
-2.8956614 48.59626 6.4481235 168 0 0 -1 0
-2.8907928 48.514553 7.0933385 166 0 0 -1 0
-4.1688986 48.330734 7.7374105 168 0 0 -1 0
-3.5274673 48.381775 7.7374105 160 0 0 -1 0
-3.8127339 49.214008 4.233542 203 0 0 -1 0
-4.4605103 49.203037 3.5871089 189 0 0 -1 0
-3.8160808 49.25721 3.5871089 198 0 0 -1 0
-3.1709964 49.30294 3.5871089 191 0 0 -1 0
-4.4565983 49.159882 4.233542 201 0 0 -1 0
-3.1682153 49.259697 4.233542 195 0 0 -1 0
