# .PCD v0.7 - Point Cloud Data file format
VERSION 0.7
FIELDS x y z intensity normal_x normal_y normal_z curvature
SIZE 4 4 4 4 4 4 4 4
TYPE F F F F F F F F
COUNT 1 1 1 1 1 1 1 1
WIDTH 143
HEIGHT 1
VIEWPOINT 0 0 0 1 0 0 0
POINTS 143
DATA ascii
3.6153085 2.8850298 0.54268044 1307 0 0 -1 0
3.5630932 2.9466 0.46196574 1272 0 0 -1 0
3.613976 2.8839664 0.46196574 1303 0 0 -1 0
3.5644069 2.9476864 0.54268044 1302 0 0 -1 0
5.0751495 8.2818918 0.47962901 4995 0 0 -1 0
4.928021 8.3661194 0.31012809 4942 0 0 -1 0
5.0732789 8.2788401 0.31012809 4837 0 0 -1 0
5.2169924 8.1890373 0.31012809 4868 0 0 -1 0
4.9298377 8.3692036 0.47962901 4979 0 0 -1 0
5.2189159 8.1920557 0.47962901 4898 0 0 -1 0
-7.2298851 12.915176 0.41657758 14694 0 0 -1 0
-7.4514375 12.782318 0.15829045 13766 0 0 -1 0
-7.2272205 12.910417 0.15829045 14289 0 0 -1 0
-7.000802 13.034582 0.15829045 14229 0 0 -1 0
-7.454185 12.787031 0.41657758 14617 0 0 -1 0
-7.0033832 13.039388 0.41657758 14605 0 0 -1 0
-7.4342122 22.387196 0.3076705 1295 0 0 -1 0
-7.8209066 22.24584 -0.10397464 1242 0 0 -1 0
-7.4314723 22.378944 -0.10397464 1266 0 0 -1 0
-7.0397735 22.505232 -0.10397464 1237 0 0 -1 0
-7.8237901 22.254042 0.3076705 1291 0 0 -1 0
-7.0423689 22.513531 0.3076705 1263 0 0 -1 0
-15.436799 33.119411 0.14717591 164 68.850243 -147.71712 2.0196576 -4.4601374
-15.950037 32.862404 -0.4267177 156 71.139359 -146.57083 4.5793018 -4.4601374
-15.43189 33.108879 -0.4267177 155 68.828354 -147.67015 4.5793018 -4.4601374
-14.909935 33.347191 -0.4267177 155 66.500359 -148.73305 4.5793018 -4.4601374
-15.955112 32.872856 0.14717591 157 71.161987 -146.61745 2.0196576 -4.4601374
-14.914678 33.3578 0.14717591 162 66.521507 -148.78036 2.0196576 -4.4601374
4.8334761 7.887516 0.48536098 3866 0 0 -1 0
4.6933537 7.9677329 0.32393149 3703 0 0 -1 0
4.8316946 7.8846087 0.32393149 3720 0 0 -1 0
4.9685645 7.7990832 0.32393149 3851 0 0 -1 0
4.6950841 7.9706707 0.48536098 3679 0 0 -1 0
4.9703965 7.801959 0.48536098 3849 0 0 -1 0
4.8705916 7.8646512 0.48536098 3904 0 0 -1 0
4.7308483 7.945528 0.32393149 3851 0 0 -1 0
4.8687963 7.8617525 0.32393149 3828 0 0 -1 0
5.0052619 7.7755828 0.32393149 3781 0 0 -1 0
4.7325926 7.9484572 0.48536098 3849 0 0 -1 0
5.0071073 7.77845 0.48536098 3742 0 0 -1 0
5.4193177 7.4892445 0.23840484 2972 0 0 -1 0
5.283371 7.5763531 0.077124 2936 0 0 -1 0
5.4147925 7.4829912 0.077124 2935 0 0 -1 0
5.5445638 7.3873506 0.077124 2931 0 0 -1 0
5.2877865 7.582684 0.23840484 2882 0 0 -1 0
5.5491977 7.3935242 0.23840484 2897 0 0 -1 0
5.2905908 7.5867057 0.39979586 2939 0 0 -1 0
5.4221916 7.4932165 0.39979586 2935 0 0 -1 0
5.5521407 7.3974452 0.39979586 2934 0 0 -1 0
4.1746087 10.285971 0.46243316 4295 0 0 -1 0
3.992986 10.353444 0.26871783 4075 0 0 -1 0
4.17307 10.28218 0.26871783 4164 0 0 -1 0
4.3518834 10.207784 0.26871783 4173 0 0 -1 0
3.9944582 10.357262 0.46243316 4224 0 0 -1 0
4.353488 10.211548 0.46243316 4267 0 0 -1 0
4.2230334 10.266185 0.46243316 4325 0 0 -1 0
4.0417309 10.334513 0.26871783 4173 0 0 -1 0
4.221477 10.262401 0.26871783 4173 0 0 -1 0
4.3999376 10.187163 0.26871783 4150 0 0 -1 0
4.043221 10.338324 0.46243316 4267 0 0 -1 0
4.4015598 10.19092 0.46243316 4272 0 0 -1 0
-7.0039511 12.511578 0.42230952 3368 0 0 -1 0
-7.2185802 12.38287 0.17209384 3153 0 0 -1 0
-7.00137 12.506966 0.17209384 3278 0 0 -1 0
-6.7820272 12.627252 0.17209384 3265 0 0 -1 0
-7.2212415 12.387436 0.42230952 3334 0 0 -1 0
-6.7845278 12.631907 0.42230952 3339 0 0 -1 0
-7.4558191 13.318776 0.41084564 11067 0 0 -1 0
-7.6842952 13.181765 0.14448702 10378 0 0 -1 0
-7.4530711 13.313867 0.14448702 10748 0 0 -1 0
-7.2195768 13.441913 0.14448702 10695 0 0 -1 0
-7.6871281 13.186625 0.41084564 11013 0 0 -1 0
-7.2222385 13.446868 0.41084564 10971 0 0 -1 0
-0.10752893 34.227409 0.1758357 161 0.5175814 -164.75075 2.0416789 -4.8134155
-0.66283393 34.209763 -0.37965113 153 3.190495 -164.6658 4.7154679 -4.8134155
-0.10749314 34.216019 -0.37965113 157 0.51740915 -164.69592 4.7154679 -4.8134155
0.44787604 34.213253 -0.37965113 156 -2.1558135 -164.6826 4.7154679 -4.8134155
-0.66305465 34.221153 0.1758357 160 3.1915574 -164.72063 2.0416789 -4.8134155
-0.035843026 34.227558 0.1758357 161 0.17252737 -164.75146 2.0416789 -4.8134155
-0.59118378 34.211079 -0.37965113 157 2.8456132 -164.67213 4.7154679 -4.8134155
-0.035831098 34.216167 -0.37965113 156 0.17246996 -164.69662 4.7154679 -4.8134155
0.51953101 34.212242 -0.37965113 152 -2.5007186 -164.67773 4.7154679 -4.8134155
0.51970404 34.223633 0.1758357 156 -2.5015516 -164.73256 2.0416789 -4.8134155
-0.10898204 34.689945 0.1701037 148 0.51976329 -165.44524 2.0502853 -4.7692561
-0.66574317 34.672352 -0.38683718 142 3.1750996 -165.36133 4.7064791 -4.7692561
-0.10894631 34.67857 -0.38683718 145 0.51959282 -165.39098 4.7064791 -4.7692561
0.4478786 34.67585 -0.38683718 145 -2.1360478 -165.37801 4.7064791 -4.7692561
-0.66596156 34.683723 0.1701037 143 3.1761413 -165.41556 2.0502853 -4.7692561
0.44802552 34.687225 0.1701037 145 -2.1367486 -165.43227 2.0502853 -4.7692561
0.048436522 34.690083 0.1701037 145 -0.23100618 -165.44589 2.0502853 -4.7692561
0.048420638 34.678707 -0.38683718 144 -0.23093042 -165.39163 4.7064791 -4.7692561
0.60522741 34.673458 -0.38683718 142 -2.8864846 -165.36661 4.7064791 -4.7692561
0.60542595 34.684834 0.1701037 142 -2.8874314 -165.42085 2.0502853 -4.7692561
-3.9559278 87.792542 -0.48907048 131 0 0 -1 0
-4.4305091 87.76268 -0.96453756 127 0 0 -1 0
-3.9556048 87.78537 -0.96453756 126 0 0 -1 0
-3.4805844 87.805481 -0.96453756 121 0 0 -1 0
-4.430871 87.769852 -0.48907048 130 0 0 -1 0
-3.4808686 87.812653 -0.48907048 127 0 0 -1 0
-14.038748 86.677841 4.3723364 103 0 0 -1 0
-14.507512 86.600616 4.3723364 102 0 0 -1 0
-13.569571 86.752533 4.3723364 99 0 0 -1 0
-14.503927 86.579216 4.8473625 98 0 0 -1 0
-14.035278 86.656418 4.8473625 98 0 0 -1 0
-13.566217 86.731094 4.8473625 99 0 0 -1 0
-13.645271 86.740654 4.3723364 99 0 0 -1 0
-13.175763 86.81321 4.3723364 98 0 0 -1 0
-13.6419 86.719223 4.8473625 97 0 0 -1 0
-13.172507 86.791756 4.8473625 95 0 0 -1 0
5.2941637 8.6800451 0.16320309 473 0 0 -1 0
5.1372313 8.7632065 -0.014171958 418 0 0 -1 0
5.14187 8.7711191 0.16320309 471 0 0 -1 0
5.4448452 8.5863266 0.16320309 467 0 0 -1 0
5.1449418 8.7763586 0.34071118 470 0 0 -1 0
5.2973266 8.6852303 0.34071118 470 0 0 -1 0
5.4480982 8.5914564 0.34071118 468 0 0 -1 0
-7.3723016 17.469692 0.21936581 147 0 0 -1 0
-7.6722083 17.329651 -0.1115011 139 0 0 -1 0
-7.3685961 17.460911 -0.1115011 138 0 0 -1 0
-7.0627384 17.586851 -0.1115011 141 0 0 -1 0
-7.6760669 17.338367 0.21936581 139 0 0 -1 0
-7.0662909 17.595697 0.21936581 143 0 0 -1 0
-7.677587 17.341801 0.55034876 146 0 0 -1 0
-7.3737617 17.473152 0.55034876 145 0 0 -1 0
-7.0676904 17.599182 0.55034876 145 0 0 -1 0
-7.3732209 17.47187 0.36499 146 0 0 -1 0
-7.3705034 17.465431 0.034059644 145 0 0 -1 0
-7.0645671 17.591404 0.034059644 145 0 0 -1 0
-7.0671716 17.597891 0.36499 139 0 0 -1 0
-7.5799813 22.826159 0.30193856 224 0 0 -1 0
-7.9742579 22.682032 -0.11777806 220 0 0 -1 0
-7.5771875 22.817745 -0.11777806 220 0 0 -1 0
-7.1778083 22.946512 -0.11777806 212 0 0 -1 0
-7.9771981 22.690395 0.30193856 222 0 0 -1 0
-7.1804547 22.954973 0.30193856 223 0 0 -1 0
4.0602522 36.777309 -0.00063288212 65 0 0 -1 0
4.0587158 36.763393 -0.58174127 61 0 0 -1 0
4.6356697 36.695103 -0.58174127 60 0 0 -1 0
3.4820788 36.836544 -0.00063288212 62 0 0 -1 0
4.6374245 36.708992 -0.00063288212 58 0 0 -1 0
3.482537 36.841393 0.58062387 63 0 0 -1 0
4.0607867 36.78215 0.58062387 63 0 0 -1 0
4.6380348 36.713825 0.58062387 60 0 0 -1 0
