# .PCD v0.7 - Point Cloud Data file format
VERSION 0.7
FIELDS x y z intensity normal_x normal_y normal_z curvature
SIZE 4 4 4 4 4 4 4 4
TYPE F F F F F F F F
COUNT 1 1 1 1 1 1 1 1
WIDTH 282
HEIGHT 1
VIEWPOINT 0 0 0 1 0 0 0
POINTS 282
DATA ascii
3.6151097 2.8848712 0.52492088 1305 0 0 -1 0
3.5626585 2.9462404 0.44421327 1254 0 0 -1 0
3.6135352 2.8836145 0.44421327 1282 0 0 -1 0
3.5642111 2.9475243 0.52492088 1283 0 0 -1 0
3.5646777 2.9479103 0.60565132 1304 0 0 -1 0
3.6155832 2.8852491 0.60565132 1302 0 0 -1 0
-1.899591 7.6301885 0.5025568 4691 9.1435204 -36.727268 0.46903437 -4.8134155
-2.0317178 7.5930743 0.36534178 4451 9.7795019 -36.548622 1.1295073 -4.8134155
-1.8988909 7.6273766 0.36534178 4586 9.140151 -36.713734 1.1295073 -4.8134155
-1.7654855 7.6593547 0.36534178 4509 8.4980154 -36.867657 1.1295073 -4.8134155
-2.0324667 7.5958738 0.5025568 4668 9.7831068 -36.562096 0.46903437 -4.8134155
-1.8822737 7.634479 0.5025568 4691 9.0601654 -36.747921 0.46903437 -4.8134155
-2.0144842 7.5976648 0.36534178 4586 9.6965494 -36.570717 1.1295073 -4.8134155
-1.8815799 7.6316652 0.36534178 4509 9.0568256 -36.734375 1.1295073 -4.8134155
-1.7481025 7.6633406 0.36534178 4490 8.4143438 -36.886841 1.1295073 -4.8134155
-1.7487471 7.6661663 0.5025568 4526 8.4174461 -36.900444 0.46903437 -4.8134155
-1.4910042 7.7136703 0.26247513 93 5.9916601 -30.997692 1.356357 -4.0185399
-1.6253992 7.6864729 0.26247513 91 6.5317316 -30.888397 1.356357 -4.0185399
-1.6263703 7.6910653 0.39964044 89 6.535634 -30.906853 0.80515265 -4.0185399
-1.4918951 7.7182784 0.39964044 90 5.9952397 -31.016211 0.80515265 -4.0185399
-1.3569653 7.7431397 0.39964044 91 5.4530191 -31.116116 0.80515265 -4.0185399
-2.949533 7.7851591 0.46485758 2452 13.806576 -36.441833 0.63259286 -4.6809363
-3.0836096 7.7291288 0.31958395 2419 14.43418 -36.179562 1.3126096 -4.6809363
-2.9482481 7.7817678 0.31958395 2398 13.800562 -36.425961 1.3126096 -4.6809363
-2.8119888 7.832037 0.31958395 2427 13.162741 -36.661266 1.3126096 -4.6809363
-3.0849533 7.7324972 0.46485758 2379 14.44047 -36.195328 0.63259286 -4.6809363
-2.8132141 7.8354497 0.46485758 2432 13.168476 -36.677242 0.63259286 -4.6809363
-3.0853574 7.7335095 0.61017239 2444 14.442362 -36.200066 -0.047616594 -4.6809363
-2.9499192 7.7861786 0.61017239 2440 13.808384 -36.446606 -0.047616594 -4.6809363
-2.8135827 7.8364758 0.61017239 2424 13.170201 -36.682045 -0.047616594 -4.6809363
5.0375161 8.3048363 0.47962901 4952 0 0 -1 0
4.8900056 8.3883953 0.31012809 4759 0 0 -1 0
5.0356593 8.3017759 0.31012809 4837 0 0 -1 0
5.1797781 8.2126274 0.31012809 4865 0 0 -1 0
4.8918085 8.3914881 0.47962901 4850 0 0 -1 0
5.1816878 8.2156553 0.47962901 4942 0 0 -1 0
5.0751495 8.2818918 0.47962901 4989 0 0 -1 0
4.928021 8.3661194 0.31012809 4865 0 0 -1 0
5.0732789 8.2788401 0.31012809 4873 0 0 -1 0
5.2169924 8.1890373 0.31012809 4814 0 0 -1 0
4.9298377 8.3692036 0.47962901 4942 0 0 -1 0
5.2189159 8.1920557 0.47962901 4900 0 0 -1 0
-7.2614217 12.897471 0.41657758 14548 0 0 -1 0
-7.4826484 12.764071 0.15829045 13695 0 0 -1 0
-7.2587452 12.892717 0.15829045 13973 0 0 -1 0
-7.0326304 13.017437 0.15829045 14110 0 0 -1 0
-7.4854074 12.768778 0.41657758 14298 0 0 -1 0
-7.0352235 13.022237 0.41657758 14284 0 0 -1 0
-7.2005634 12.931547 0.41657758 14593 0 0 -1 0
-7.4224162 12.799191 0.15829045 14110 0 0 -1 0
-7.1979094 12.926781 0.15829045 13862 0 0 -1 0
-6.9712095 13.050433 0.15829045 13932 0 0 -1 0
-7.4251528 12.803909 0.41657758 14284 0 0 -1 0
-6.9737797 13.055244 0.41657758 14147 0 0 -1 0
-6.7430367 20.152813 1.6765285 128 6.550962 -19.578762 -1.0458637 -0.97151512
-7.0989161 20.046721 1.3054838 127 6.8967042 -19.475693 -0.68538815 -0.97151512
-6.7479711 20.167562 1.3054838 125 6.5557561 -19.593092 -0.68538815 -0.97151512
-6.3949714 20.282257 1.3054838 127 6.2128115 -19.704519 -0.68538815 -0.97151512
-7.0937252 20.032061 1.6765285 123 6.8916612 -19.461451 -1.0458637 -0.97151512
-6.3902946 20.267426 1.6765285 122 6.2082677 -19.690111 -1.0458637 -0.97151512
-6.7360482 20.131927 2.0472455 127 6.5441728 -19.558472 -1.4060209 -0.97151512
-6.3836722 20.246422 2.0472455 118 6.2018342 -19.669704 -1.4060209 -0.97151512
-6.6452799 20.176123 1.8359835 118 6.4559898 -19.601408 -1.2007768 -0.97151512
-6.6510158 20.193537 1.4650658 114 6.4615622 -19.618326 -0.8404246 -0.97151512
-6.2975774 20.306538 1.4650658 115 6.1181917 -19.728107 -0.8404246 -0.97151512
-6.9963899 20.057072 1.8359835 117 6.7970986 -19.485748 -1.2007768 -0.97151512
-6.6375198 20.152561 2.2065248 107 6.448451 -19.578518 -1.5607631 -0.97151512
-6.6930151 20.155172 1.9175389 118 6.5023656 -19.581055 -1.2800089 -0.97151512
-7.0503054 20.053936 1.5466943 117 6.8494782 -19.482702 -0.91972786 -0.97151512
-6.6992421 20.173925 1.5466943 117 6.5084152 -19.599274 -0.91972786 -0.97151512
-7.0437517 20.035294 1.9175389 117 6.8431115 -19.46459 -1.2800089 -0.97151512
-6.3402386 20.268913 1.9175389 107 6.1596375 -19.691555 -1.2800089 -0.97151512
-7.0350523 20.01055 2.2879822 108 6.8346596 -19.440552 -1.6399002 -0.97151512
-6.6847486 20.13028 2.2879822 107 6.4943342 -19.556871 -1.6399002 -0.97151512
-7.7800488 24.363436 7.0098872 782 0 0 -1 0
-8.2387009 24.326212 6.5625567 741 0 0 -1 0
-7.8128943 24.466291 6.5625567 748 0 0 -1 0
-7.3847094 24.598919 6.5625567 749 0 0 -1 0
-8.2040653 24.223946 7.0098872 760 0 0 -1 0
-7.3536639 24.495504 7.0098872 764 0 0 -1 0
-4.1332436 87.32132 -0.48333853 1080 0 0 -1 0
-4.6204786 87.289467 -0.97155935 1034 0 0 -1 0
-4.1328931 87.313911 -0.97155935 1026 0 0 -1 0
-3.6451778 87.335632 -0.97155935 1026 0 0 -1 0
-4.6208706 87.296875 -0.48333853 1050 0 0 -1 0
-3.6454871 87.34304 -0.48333853 1071 0 0 -1 0
-3.5387745 87.347427 -0.48333853 1028 0 0 -1 0
-4.0262156 87.318893 -0.97155935 1013 0 0 -1 0
-3.5384743 87.340019 -0.97155935 987 0 0 -1 0
-3.0506232 87.358421 -0.97155935 951 0 0 -1 0
-4.0265574 87.326302 -0.48333853 1026 0 0 -1 0
-3.0508821 87.365837 -0.48333853 975 0 0 -1 0
-1.6608297 6.7363052 0.51402068 653 7.9942632 -32.424637 0.41385388 -4.8134155
-1.7774861 6.7038221 0.39294863 639 8.5557795 -32.26828 0.99662417 -4.8134155
-1.6602175 6.7338228 0.39294863 639 7.9913168 -32.412689 0.99662417 -4.8134155
-1.5424435 6.7617717 0.39294863 636 7.4244218 -32.547218 0.99662417 -4.8134155
-1.7781415 6.7062936 0.51402068 641 8.5589342 -32.280178 0.41385388 -4.8134155
-1.5430121 6.7642646 0.51402068 647 7.4271588 -32.559216 0.41385388 -4.8134155
-1.7878504 7.181354 0.50828874 4538 8.6056671 -34.566841 0.44144413 -4.8134155
-1.912205 7.1464229 0.37914521 4412 9.204237 -34.398705 1.0630658 -4.8134155
-1.7871914 7.1787071 0.37914521 4415 8.6024952 -34.5541 1.0630658 -4.8134155
-1.6616335 7.2088046 0.37914521 4421 7.9981322 -34.698971 1.0630658 -4.8134155
-1.91291 7.1490579 0.50828874 4452 9.2076302 -34.411385 0.44144413 -4.8134155
-1.6622461 7.2114625 0.50828874 4399 8.0010815 -34.711765 0.44144413 -4.8134155
-1.7539892 7.1896992 0.50828874 4483 8.4426794 -34.60701 0.44144413 -4.8134155
-1.8785073 7.155355 0.37914521 4421 9.0420361 -34.441696 1.0630658 -4.8134155
-1.7533427 7.1870494 0.37914521 4351 8.4395676 -34.594254 1.0630658 -4.8134155
-1.6276444 7.2165551 0.37914521 4321 7.8345289 -34.736279 1.0630658 -4.8134155
-1.8791999 7.1579928 0.50828874 4399 9.0453701 -34.454395 0.44144413 -4.8134155
-1.6282445 7.2192159 0.50828874 4399 7.8374176 -34.749084 0.44144413 -4.8134155
-2.7858233 7.3530545 0.5025568 564 13.040261 -34.419182 0.45612517 -4.6809363
-2.9126532 7.3006239 0.36534178 555 13.633945 -34.173756 1.09842 -4.6809363
-2.7847965 7.3503447 0.36534178 551 13.035455 -34.406494 1.09842 -4.6809363
-2.6560912 7.3978262 0.36534178 563 12.432994 -34.628754 1.09842 -4.6809363
-2.9137273 7.3033156 0.5025568 550 13.638972 -34.186356 0.45612517 -4.6809363
-2.6570704 7.4005537 0.5025568 561 12.437577 -34.641521 0.45612517 -4.6809363
-2.6572404 7.4010272 0.63980156 511 12.438374 -34.643738 -0.18630862 -4.6809363
-1.4262549 8.6716557 0.49109292 279 6.9281406 -42.123222 0.52902424 -4.8575754
-1.5767976 8.6422567 0.33773491 272 7.6594133 -41.980415 1.2739723 -4.8575754
-1.4257293 8.6684599 0.33773491 268 6.9255877 -42.107697 1.2739723 -4.8575754
-1.2742267 8.6920214 0.33773491 268 6.189652 -42.222149 1.2739723 -4.8575754
-1.577379 8.645443 0.49109292 272 7.6622372 -41.995892 0.52902424 -4.8575754
-1.2746965 8.6952257 0.49109292 274 6.1919341 -42.237713 0.52902424 -4.8575754
-2.7752388 8.2943144 -0.26374662 211 13.11327 -39.191433 4.081286 -4.7250962
-2.9140952 8.2291517 -0.41625887 201 13.76938 -38.883533 4.8019209 -4.7250962
-2.7700329 8.2787561 -0.41625887 201 13.088672 -39.11792 4.8019209 -4.7250962
-2.6251266 8.3258381 -0.41625887 204 12.403975 -39.340385 4.8019209 -4.7250962
-2.9195719 8.2446175 -0.26374662 207 13.795259 -38.956612 4.081286 -4.7250962
-2.6300602 8.341486 -0.26374662 206 12.427287 -39.414326 4.081286 -4.7250962
-2.7361221 8.3073006 -0.26374662 206 12.92844 -39.252796 4.081286 -4.7250962
-2.8752842 8.2427921 -0.41625887 204 13.585995 -38.947987 4.8019209 -4.7250962
-2.7309897 8.2917175 -0.41625887 195 12.904189 -39.179165 4.8019209 -4.7250962
-2.5858634 8.3381166 -0.41625887 194 12.218453 -39.398403 4.8019209 -4.7250962
-2.7187173 8.3130131 -0.26374662 206 12.846201 -39.279785 4.081286 -4.7250962
-2.8580143 8.2487965 -0.41625887 195 13.504393 -38.976357 4.8019209 -4.7250962
-2.7136176 8.2974186 -0.41625887 194 12.822104 -39.2061 4.8019209 -4.7250962
-2.5683942 8.3435144 -0.41625887 193 12.13591 -39.423908 4.8019209 -4.7250962
-2.5732212 8.3591948 -0.26374662 203 12.158718 -39.498001 4.081286 -4.7250962
4.852735 7.8756824 0.48536098 971 0 0 -1 0
4.7128081 7.9562411 0.32393149 943 0 0 -1 0
4.8509464 7.8727798 0.32393149 941 0 0 -1 0
4.987606 7.7869201 0.32393149 953 0 0 -1 0
4.7145457 7.9591742 0.48536098 955 0 0 -1 0
4.9894452 7.7897911 0.48536098 951 0 0 -1 0
5.4184637 7.4880648 0.20291188 743 0 0 -1 0
5.2869534 7.5814896 0.20291188 719 0 0 -1 0
5.5483232 7.3923593 0.20291188 725 0 0 -1 0
5.290112 7.586019 0.36428288 739 0 0 -1 0
5.421701 7.4925385 0.36428288 736 0 0 -1 0
5.5516381 7.3967757 0.36428288 736 0 0 -1 0
5.401773 7.5035357 0.2739031 739 0 0 -1 0
5.2659492 7.5908341 0.11259383 719 0 0 -1 0
5.527657 7.4024305 0.11259383 736 0 0 -1 0
5.2699957 7.5966668 0.2739031 719 0 0 -1 0
5.2724371 7.6001863 0.43531179 722 0 0 -1 0
5.4042754 7.5070119 0.43531179 722 0 0 -1 0
5.5344677 7.411551 0.43531179 732 0 0 -1 0
5.4200916 7.490314 0.2739031 739 0 0 -1 0
5.4159298 7.4845629 0.11259383 736 0 0 -1 0
5.5457287 7.3889022 0.11259383 736 0 0 -1 0
5.5499897 7.3945799 0.2739031 726 0 0 -1 0
5.2909918 7.5872808 0.43531179 722 0 0 -1 0
5.4226027 7.4937844 0.43531179 732 0 0 -1 0
5.5525613 7.398006 0.43531179 708 0 0 -1 0
4.2230334 10.266185 0.46243316 1080 0 0 -1 0
4.0417309 10.334513 0.26871783 1039 0 0 -1 0
4.221477 10.262401 0.26871783 1043 0 0 -1 0
4.3999376 10.187163 0.26871783 1036 0 0 -1 0
4.043221 10.338324 0.46243316 1077 0 0 -1 0
4.4015598 10.19092 0.46243316 1046 0 0 -1 0
-7.0345025 12.494426 0.42230952 828 0 0 -1 0
-7.2488155 12.365195 0.17209384 777 0 0 -1 0
-7.0319099 12.48982 0.17209384 792 0 0 -1 0
-6.812861 12.610642 0.17209384 805 0 0 -1 0
-7.2514882 12.369754 0.42230952 812 0 0 -1 0
-6.8153729 12.615292 0.42230952 816 0 0 -1 0
-6.9755454 12.527436 0.42230952 836 0 0 -1 0
-7.1904659 12.399217 0.17209384 805 0 0 -1 0
-6.9729743 12.52282 0.17209384 802 0 0 -1 0
-6.7533593 12.642607 0.17209384 802 0 0 -1 0
-7.1931171 12.403788 0.42230952 816 0 0 -1 0
-6.7558494 12.647268 0.42230952 820 0 0 -1 0
-7.4883409 13.300517 0.41084564 2734 0 0 -1 0
-7.7164817 13.16295 0.14448702 2584 0 0 -1 0
-7.4855809 13.295615 0.14448702 2623 0 0 -1 0
-7.2524004 13.424232 0.14448702 2654 0 0 -1 0
-7.7193265 13.167803 0.41084564 2688 0 0 -1 0
-7.2550745 13.429182 0.41084564 2680 0 0 -1 0
-7.4255805 13.335657 0.41084564 2746 0 0 -1 0
-7.654367 13.199165 0.14448702 2654 0 0 -1 0
-7.4228439 13.330743 0.14448702 2615 0 0 -1 0
-7.1890597 13.458259 0.14448702 2618 0 0 -1 0
-7.6571889 13.204032 0.41084564 2680 0 0 -1 0
-7.1917105 13.463221 0.41084564 2666 0 0 -1 0
-7.9395695 19.05484 -2.0773635 228 0 0 -1 0
-8.2709122 18.913374 -2.0773635 226 0 0 -1 0
-7.6058073 19.190502 -2.0773635 222 0 0 -1 0
-8.2883739 18.953304 -1.7166898 219 0 0 -1 0
-7.9563322 19.09507 -1.7166898 220 0 0 -1 0
-7.6218653 19.231018 -1.7166898 217 0 0 -1 0
-7.8496876 19.092043 -2.0773635 223 0 0 -1 0
-8.181695 18.952137 -2.0773635 222 0 0 -1 0
-7.5152903 19.226131 -2.0773635 216 0 0 -1 0
-8.1989679 18.992151 -1.7166898 217 0 0 -1 0
-7.8662605 19.132351 -1.7166898 216 0 0 -1 0
-7.531157 19.266724 -1.7166898 212 0 0 -1 0
-6.5988207 19.721798 1.493448 29 6.4108539 -19.160025 -0.86799836 -0.97151512
-6.942009 19.603628 1.493448 28 6.7442665 -19.045221 -0.86799836 -0.97151512
-6.253623 19.833958 1.493448 27 6.0754895 -19.26899 -0.86799836 -0.97151512
-6.9357467 19.585943 1.8562608 28 6.7381825 -19.02804 -1.2204763 -0.97151512
-6.5928679 19.704006 1.8562608 27 6.4050708 -19.14274 -1.2204763 -0.97151512
-6.2479815 19.816065 1.8562608 27 6.0700088 -19.251606 -1.2204763 -0.97151512
-6.4633136 19.76285 1.573294 27 6.2792068 -19.199907 -0.94556993 -0.97151512
-6.8117623 19.660097 1.2102597 26 6.6177301 -19.100082 -0.59287655 -0.97151512
-6.4676089 19.775984 1.2102597 25 6.28338 -19.212667 -0.59287655 -0.97151512
-6.8072381 19.647039 1.573294 26 6.6133347 -19.087397 -0.94556993 -0.97151512
-6.1174192 19.872641 1.573294 25 5.9431653 -19.30657 -0.94556993 -0.97151512
-6.4570489 19.743694 1.9360321 26 6.2731204 -19.181297 -1.2979753 -0.97151512
-6.1114902 19.85338 1.9360321 24 5.9374051 -19.287859 -1.2979753 -0.97151512
-6.5964489 19.714708 1.6531258 29 6.4085498 -19.153137 -1.0231276 -0.97151512
-6.944592 19.610922 1.2901471 28 6.7467761 -19.052307 -0.67048842 -0.97151512
-6.6012764 19.729136 1.2901471 27 6.41324 -19.167154 -0.67048842 -0.97151512
-6.25595 19.841339 1.2901471 27 6.0777502 -19.276161 -0.67048842 -0.97151512
-6.9395137 19.596581 1.6531258 28 6.7418423 -19.038374 -1.0231276 -0.97151512
-6.2513752 19.826828 1.6531258 27 6.0733056 -19.262064 -1.0231276 -0.97151512
-6.5896125 19.694277 2.0157835 28 6.4019079 -19.133287 -1.3754553 -0.97151512
-6.2448964 19.806282 2.0157835 27 6.0670114 -19.242102 -1.3754553 -0.97151512
-6.5034733 19.745573 1.6531258 27 6.3182225 -19.183123 -1.0231276 -0.97151512
-6.5082326 19.760023 1.2901471 26 6.3228464 -19.197161 -0.67048842 -0.97151512
-6.1578746 19.856068 1.6531258 26 5.9824681 -19.29047 -1.0231276 -0.97151512
-6.4967332 19.725109 2.0157835 26 6.3116746 -19.163242 -1.3754553 -0.97151512
-6.1514931 19.835489 2.0157835 26 5.9762683 -19.270477 -1.3754553 -0.97151512
3.5951638 28.904829 -0.31537032 107 0 0 -1 0
3.0930698 28.942581 -0.81849653 99 0 0 -1 0
3.5926752 28.884821 -0.81849653 99 0 0 -1 0
4.0912085 28.818434 -0.81849653 102 0 0 -1 0
3.0952125 28.962629 -0.31537032 102 0 0 -1 0
4.0940423 28.838396 -0.31537032 104 0 0 -1 0
3.096431 28.974031 0.18802932 106 0 0 -1 0
4.095654 28.849751 0.18802932 106 0 0 -1 0
3.3945122 28.939693 0.12700161 107 0 0 -1 0
2.8927445 28.981564 -0.37637281 100 0 0 -1 0
3.3930535 28.927258 -0.37637281 105 0 0 -1 0
2.8939884 28.994022 0.12700161 101 0 0 -1 0
3.894022 28.876722 0.12700161 103 0 0 -1 0
2.8943679 28.997828 0.6305173 102 0 0 -1 0
3.3949575 28.943491 0.6305173 103 0 0 -1 0
3.5966628 28.91688 0.23888713 110 0 0 -1 0
3.0953774 28.964176 -0.26453179 108 0 0 -1 0
3.5953557 28.906372 -0.26453179 109 0 0 -1 0
3.0965028 28.974705 0.23888713 108 0 0 -1 0
4.0957494 28.85042 0.23888713 109 0 0 -1 0
-4.1113744 86.859299 -0.47760659 95 0 0 -1 0
-4.5960317 86.827621 -0.96324426 90 0 0 -1 0
-4.1110258 86.851929 -0.96324426 90 0 0 -1 0
-3.6258912 86.873543 -0.96324426 91 0 0 -1 0
-4.5964217 86.834984 -0.47760659 93 0 0 -1 0
-3.6261988 86.880913 -0.47760659 92 0 0 -1 0
-4.1551127 87.78334 -0.48907048 579 0 0 -1 0
-4.6296248 87.752403 -0.96453756 550 0 0 -1 0
-4.1547732 87.776169 -0.96453756 547 0 0 -1 0
-3.6797996 87.797371 -0.96453756 543 0 0 -1 0
-4.630003 87.759575 -0.48907048 558 0 0 -1 0
-3.6801002 87.804535 -0.48907048 570 0 0 -1 0
5.2941637 8.6800451 0.16320309 1900 0 0 -1 0
5.14187 8.7711191 0.16320309 1860 0 0 -1 0
5.4448452 8.5863266 0.16320309 1874 0 0 -1 0
5.1449418 8.7763586 0.34071118 1894 0 0 -1 0
5.2973266 8.6852303 0.34071118 1871 0 0 -1 0
5.4480982 8.5914564 0.34071118 1886 0 0 -1 0
-7.3305073 17.489834 0.36499 1888 0 0 -1 0
-7.6318159 17.352839 0.034059644 1785 0 0 -1 0
-7.3278055 17.483387 0.034059644 1846 0 0 -1 0
-7.0215621 17.608612 0.034059644 1835 0 0 -1 0
-7.6346297 17.359236 0.36499 1875 0 0 -1 0
-7.0241508 17.615105 0.36499 1868 0 0 -1 0
4.0604753 36.779331 0.14144397 247 0 0 -1 0
3.4811628 36.826851 -0.43971413 241 0 0 -1 0
4.0591841 36.767635 -0.43971413 237 0 0 -1 0
4.6362042 36.699337 -0.43971413 237 0 0 -1 0
3.4822702 36.83857 0.14144397 241 0 0 -1 0
4.6376791 36.71101 0.14144397 231 0 0 -1 0
