# .PCD v0.7 - Point Cloud Data file format
VERSION 0.7
FIELDS x y z intensity normal_x normal_y normal_z curvature
SIZE 4 4 4 4 4 4 4 4
TYPE F F F F F F F F
COUNT 1 1 1 1 1 1 1 1
WIDTH 311
HEIGHT 1
VIEWPOINT 0 0 0 1 0 0 0
POINTS 311
DATA ascii
3.6151097 2.8848712 0.52492088 1307 0 0 -1 0
3.5626585 2.9462404 0.44421327 1255 0 0 -1 0
3.6135352 2.8836145 0.44421327 1277 0 0 -1 0
3.5642111 2.9475243 0.52492088 1283 0 0 -1 0
3.5646777 2.9479103 0.60565132 1296 0 0 -1 0
3.6155832 2.8852491 0.60565132 1299 0 0 -1 0
-1.3011826 6.3388672 0.34688339 100 6.780272 -33.03091 1.3189534 -5.2108536
-1.4104341 6.3099198 0.23398679 93 7.3495655 -32.88007 1.907241 -5.2108536
-1.3000962 6.3335743 0.23398679 94 6.7746105 -33.003326 1.907241 -5.2108536
-1.4116129 6.3151927 0.34688339 95 7.3557081 -32.907543 1.3189534 -5.2108536
-1.1903559 6.3606105 0.34688339 96 6.2027702 -33.144211 1.3189534 -5.2108536
-1.4123615 6.318542 0.45985711 99 7.3596091 -32.924995 0.73026401 -5.2108536
-1.3018727 6.3422289 0.45985711 95 6.7838683 -33.048428 0.73026401 -5.2108536
-1.1909872 6.3639841 0.45985711 98 6.2060599 -33.161789 0.73026401 -5.2108536
-1.3159181 6.337615 0.39658433 101 6.8570566 -33.024384 1.0599689 -5.2108536
-1.4253246 6.3092589 0.28364959 98 7.4271574 -32.876625 1.6484555 -5.2108536
-1.314996 6.3331738 0.28364959 99 6.8522515 -33.00124 1.6484555 -5.2108536
-1.2042664 6.3551588 0.28364959 95 6.2752562 -33.115803 1.6484555 -5.2108536
-1.4263241 6.3136835 0.39658433 98 7.4323664 -32.899681 1.0599689 -5.2108536
-1.2051109 6.3596153 0.39658433 98 6.2796564 -33.139023 1.0599689 -5.2108536
-1.4268892 6.316185 0.50958109 95 7.4353104 -32.912716 0.47115949 -5.2108536
-1.3164395 6.340126 0.50958109 93 6.8597736 -33.037468 0.47115949 -5.2108536
-1.2055883 6.3621354 0.50958109 94 6.2821445 -33.152157 0.47115949 -5.2108536
-1.2864139 6.3455992 0.47002733 112 6.7033143 -33.065987 0.67726839 -5.2108536
-1.3962618 6.3190036 0.35704839 99 7.2757158 -32.927402 1.265985 -5.2108536
-1.2857673 6.3424096 0.35704839 104 6.6999454 -33.049366 1.265985 -5.2108536
-1.1748812 6.363883 0.35704839 106 6.1221342 -33.161263 1.265985 -5.2108536
-1.396964 6.3221817 0.47002733 104 7.2793746 -32.943962 0.67726839 -5.2108536
-1.1754721 6.3670835 0.47002733 107 6.1252131 -33.17794 0.67726839 -5.2108536
-1.3972406 6.3234339 0.5830459 109 7.2808166 -32.950489 0.088345177 -5.2108536
-1.2866687 6.3468561 0.5830459 110 6.7046418 -33.072536 0.088345177 -5.2108536
-1.1757048 6.3683448 0.5830459 106 6.1264257 -33.184513 0.088345177 -5.2108536
-1.5630474 6.2783761 0.87796164 5344 6.8333588 -27.447918 -1.2151977 -4.3718181
-1.6723821 6.2501411 0.87796164 5312 7.3113503 -27.32448 -1.2151977 -4.3718181
-1.4532365 6.3046985 0.87796164 5309 6.3532853 -27.562994 -1.2151977 -4.3718181
-1.6708734 6.2445025 0.99083662 5062 7.3047547 -27.299829 -1.7086669 -4.3718181
-1.5616373 6.2727122 0.99083662 5140 6.8271942 -27.423157 -1.7086669 -4.3718181
-1.4519255 6.2990108 0.99083662 5102 6.3475542 -27.53813 -1.7086669 -4.3718181
-1.377525 6.7950301 0.32880363 85 7.1172504 -35.107841 1.4011885 -5.1666942
-1.4946557 6.7643013 0.20784298 76 7.7224288 -34.949078 2.0261552 -5.1666942
-1.3763748 6.7893562 0.20784298 82 7.1113076 -35.078526 2.0261552 -5.1666942
-1.2576746 6.8123431 0.20784298 80 6.4980197 -35.197292 2.0261552 -5.1666942
-1.4959048 6.7699542 0.32880363 78 7.7288828 -34.978283 1.4011885 -5.1666942
-1.2587255 6.8180361 0.32880363 79 6.5034499 -35.226707 1.4011885 -5.1666942
-1.4966981 6.7735448 0.44984686 84 7.7329817 -34.996834 0.77579504 -5.1666942
-1.3782556 6.7986336 0.44984686 84 7.1210251 -35.126461 0.77579504 -5.1666942
-1.2593931 6.8216519 0.44984686 84 6.5068989 -35.245388 0.77579504 -5.1666942
-1.3641533 6.8022027 0.48738131 104 7.0481629 -35.144901 0.58186615 -5.1666942
-1.4820145 6.774406 0.36631992 98 7.6571159 -35.001286 1.2073534 -5.1666942
-1.3635591 6.7992396 0.36631992 102 7.0450931 -35.129593 1.2073534 -5.1666942
-1.2446883 6.8220015 0.36631992 103 6.4309235 -35.247196 1.2073534 -5.1666942
-1.4826603 6.7773585 0.48738131 100 7.6604524 -35.016541 0.58186615 -5.1666942
-1.2452307 6.8249741 0.48738131 99 6.4337258 -35.262554 0.58186615 -5.1666942
-1.4828545 6.7782459 0.608477 101 7.6614556 -35.021122 -0.043798286 -5.1666942
-1.364332 6.8030934 0.608477 98 7.0490861 -35.149502 -0.043798286 -5.1666942
-1.2453938 6.8258681 0.608477 102 6.4345684 -35.267174 -0.043798286 -5.1666942
-1.3321569 6.8089299 0.51402068 105 6.8828473 -35.179657 0.4442285 -5.1666942
-1.4502516 6.7821431 0.39294863 99 7.4930062 -35.04126 1.0697711 -5.1666942
-1.3316659 6.8064203 0.39294863 94 6.8803105 -35.166691 1.0697711 -5.1666942
-1.2126746 6.8286242 0.39294863 100 6.2655187 -35.281414 1.0697711 -5.1666942
-1.4507864 6.7846437 0.51402068 102 7.4957695 -35.05418 0.4442285 -5.1666942
-1.2131218 6.8311419 0.51402068 101 6.2678289 -35.294422 0.4442285 -5.1666942
-2.8007531 6.8120031 -0.12736553 1421 11.74966 -28.577572 3.0514283 -4.195179
-2.9137366 6.7494011 -0.25579685 1353 12.223646 -28.314945 3.5902209 -4.195179
-2.7954996 6.7992253 -0.25579685 1394 11.727621 -28.523968 3.5902209 -4.195179
-2.6764109 6.8469777 -0.25579685 1381 11.228023 -28.724297 3.5902209 -4.195179
-2.9192126 6.7620859 -0.12736553 1387 12.246619 -28.36816 3.0514283 -4.195179
-2.6814408 6.8598456 -0.12736553 1412 11.249125 -28.77828 3.0514283 -4.195179
-2.538486 7.8875346 -0.21828616 1062 10.8736 -33.78624 3.5051272 -4.2834983
-2.6707363 7.8273211 -0.36277145 1020 11.440094 -33.528316 4.1240296 -4.2834983
-2.5337241 7.8727388 -0.36277145 1005 10.853203 -33.722862 4.1240296 -4.2834983
-2.3959401 7.91576 -0.36277145 1033 10.263005 -33.907146 4.1240296 -4.2834983
-2.6757557 7.842031 -0.21828616 1032 11.461596 -33.591328 3.5051272 -4.2834983
-2.4004428 7.9306369 -0.21828616 1051 10.282292 -33.970871 3.5051272 -4.2834983
5.0375161 8.3048363 0.47962901 4962 0 0 -1 0
4.8900056 8.3883953 0.31012809 4755 0 0 -1 0
5.0356593 8.3017759 0.31012809 4837 0 0 -1 0
5.1797781 8.2126274 0.31012809 4874 0 0 -1 0
4.8918085 8.3914881 0.47962901 4855 0 0 -1 0
5.1816878 8.2156553 0.47962901 4950 0 0 -1 0
5.0751495 8.2818918 0.47962901 4996 0 0 -1 0
4.928021 8.3661194 0.31012809 4874 0 0 -1 0
5.0732789 8.2788401 0.31012809 4877 0 0 -1 0
5.2169924 8.1890373 0.31012809 4816 0 0 -1 0
4.9298377 8.3692036 0.47962901 4950 0 0 -1 0
5.2189159 8.1920557 0.47962901 4914 0 0 -1 0
-3.1148136 9.6782885 0.16320309 878 13.342299 -41.456932 1.8710186 -4.2834983
-3.2832487 9.6224537 0.16320309 877 14.06379 -41.217762 1.8710186 -4.2834983
-2.9454298 9.7311764 0.16320309 861 12.616743 -41.683475 1.8710186 -4.2834983
-3.2852101 9.6282024 0.34071118 847 14.072192 -41.24239 1.1106631 -4.2834983
-3.1166744 9.6840706 0.34071118 842 13.350269 -41.481701 1.1106631 -4.2834983
-2.9471893 9.73699 0.34071118 814 12.62428 -41.708382 1.1106631 -4.2834983
-7.2614217 12.897471 0.41657758 14534 0 0 -1 0
-7.4826484 12.764071 0.15829045 13697 0 0 -1 0
-7.2587452 12.892717 0.15829045 13961 0 0 -1 0
-7.0326304 13.017437 0.15829045 14105 0 0 -1 0
-7.4854074 12.768778 0.41657758 14293 0 0 -1 0
-7.0352235 13.022237 0.41657758 14278 0 0 -1 0
-7.2005634 12.931547 0.41657758 14581 0 0 -1 0
-7.4224162 12.799191 0.15829045 14105 0 0 -1 0
-7.1979094 12.926781 0.15829045 13858 0 0 -1 0
-6.9712095 13.050433 0.15829045 13923 0 0 -1 0
-7.4251528 12.803909 0.41657758 14278 0 0 -1 0
-6.9737797 13.055244 0.41657758 14140 0 0 -1 0
4.7624302 19.301863 -0.024776578 3737 0 0 -1 0
4.4217401 19.368456 -0.3716476 3659 0 0 -1 0
4.7590928 19.288336 -0.3716476 3661 0 0 -1 0
5.094996 19.202341 -0.3716476 3726 0 0 -1 0
4.4248409 19.382038 -0.024776578 3667 0 0 -1 0
5.0985689 19.215807 -0.024776578 3668 0 0 -1 0
4.4265938 19.389717 0.32228485 3684 0 0 -1 0
4.764317 19.309509 0.32228485 3713 0 0 -1 0
5.1005888 19.223421 0.32228485 3714 0 0 -1 0
-7.8905272 24.327881 7.0098872 809 0 0 -1 0
-8.3490038 24.288576 6.5625567 766 0 0 -1 0
-7.9238391 24.430588 6.5625567 777 0 0 -1 0
-7.4962587 24.565157 6.5625567 791 0 0 -1 0
-8.3139048 24.186468 7.0098872 786 0 0 -1 0
-7.4647446 24.461885 7.0098872 807 0 0 -1 0
-7.7800488 24.363436 7.0098872 821 0 0 -1 0
-8.2387009 24.326212 6.5625567 791 0 0 -1 0
-7.8128943 24.466291 6.5625567 789 0 0 -1 0
-7.3847094 24.598919 6.5625567 787 0 0 -1 0
-8.2040653 24.223946 7.0098872 807 0 0 -1 0
-7.3536639 24.495504 7.0098872 808 0 0 -1 0
-1.4393858 5.838131 0.52548462 703 6.2927327 -25.523247 0.32576755 -4.3718181
-1.540488 5.8099794 0.42055547 686 6.7347331 -25.400173 0.78449875 -4.3718181
-1.4388553 5.835979 0.42055547 671 6.2904134 -25.513838 0.78449875 -4.3718181
-1.3367842 5.8602018 0.42055547 661 5.8441777 -25.619736 0.78449875 -4.3718181
-1.5410559 5.8121214 0.52548462 691 6.737216 -25.409536 0.32576755 -4.3718181
-1.3372772 5.8623624 0.52548462 683 5.8463326 -25.629181 0.32576755 -4.3718181
-1.9079379 5.7022257 0.52548462 629 8.1726484 -24.425474 0.31918639 -4.2834983
-2.0064254 5.6659698 0.42055547 600 8.5945196 -24.270172 0.76865023 -4.2834983
-1.9072347 5.7001238 0.42055547 611 8.1696367 -24.41647 0.76865023 -4.2834983
-1.8074634 5.7325416 0.42055547 618 7.7422662 -24.555332 0.76865023 -4.2834983
-2.0071652 5.6680589 0.52548462 618 8.5976887 -24.279121 0.31918639 -4.2834983
-1.8081298 5.7346554 0.52548462 618 7.745121 -24.564386 0.31918639 -4.2834983
-1.8810461 5.711153 0.52548462 631 8.0574579 -24.463715 0.31918639 -4.2834983
-1.9797029 5.6753626 0.42055547 618 8.4800539 -24.310406 0.76865023 -4.2834983
-1.8803527 5.7090483 0.42055547 621 8.0544882 -24.454699 0.76865023 -4.2834983
-1.7804296 5.7409954 0.42055547 615 7.6264672 -24.591543 0.76865023 -4.2834983
-1.9804329 5.6774549 0.52548462 618 8.483181 -24.319368 0.31918639 -4.2834983
-1.7810861 5.7431121 0.52548462 620 7.6292791 -24.600611 0.31918639 -4.2834983
-1.6594266 6.7306142 0.897816 716 7.2547112 -29.42502 -1.3019975 -4.3718181
-1.7766392 6.7006278 0.897816 710 7.7671432 -29.293926 -1.3019975 -4.3718181
-1.5417086 6.7585497 0.897816 711 6.7400694 -29.54715 -1.3019975 -4.3718181
-1.7750365 6.6945834 1.0187535 701 7.7601366 -29.2675 -1.8307146 -4.3718181
-1.6579295 6.7245426 1.0187535 707 7.2481661 -29.398478 -1.8307146 -4.3718181
-1.5403178 6.7524529 1.0187535 701 6.7339892 -29.520494 -1.8307146 -4.3718181
-1.6288671 6.7380753 0.897816 713 7.1211109 -29.45764 -1.3019975 -4.3718181
-1.7462144 6.7086215 0.897816 711 7.6341314 -29.328873 -1.3019975 -4.3718181
-1.5110234 6.7654767 0.897816 687 6.6059194 -29.577433 -1.3019975 -4.3718181
-1.7446392 6.7025695 1.0187535 701 7.6272449 -29.302414 -1.8307146 -4.3718181
-1.6273978 6.7319965 1.0187535 694 7.114687 -29.431065 -1.8307146 -4.3718181
-1.5096604 6.7593732 1.0187535 682 6.5999603 -29.550751 -1.8307146 -4.3718181
-1.4044847 7.2660637 0.50828874 229 6.2021737 -32.086777 0.40499464 -4.415978
-1.5305167 7.2377763 0.37914521 210 6.758728 -31.961861 0.97528976 -4.415978
-1.4039671 7.2633858 0.37914521 220 6.1998878 -32.074951 0.97528976 -4.415978
-1.2769898 7.2867818 0.37914521 222 5.6391587 -32.178268 0.97528976 -4.415978
-1.5310811 7.2404447 0.50828874 221 6.7612205 -31.973644 0.40499464 -4.415978
-1.2774606 7.2894683 0.50828874 225 5.6412377 -32.190132 0.40499464 -4.415978
-2.1809058 7.4872117 1.6114483 184 9.4382153 -32.402092 -4.377203 -4.3276582
-2.0499034 7.5241332 1.6114483 180 8.8712816 -32.561878 -4.377203 -4.3276582
-2.3056593 7.430016 1.7473948 176 9.9781055 -32.154572 -4.9655323 -4.3276582
-2.175637 7.4691238 1.7473948 177 9.4154129 -32.323814 -4.9655323 -4.3276582
-2.0449512 7.5059557 1.7473948 174 8.8498497 -32.483212 -4.9655323 -4.3276582
-3.0508077 7.2293115 1.1170495 151 12.798684 -30.328255 -2.1691148 -4.195179
-3.1796808 7.1821256 0.9800272 145 13.33933 -30.130302 -1.5942822 -4.195179
-3.0538514 7.2365241 0.9800272 145 12.811453 -30.358515 -1.5942822 -4.195179
-2.9270914 7.2887197 0.9800272 144 12.279673 -30.577484 -1.5942822 -4.195179
-3.1765118 7.1749668 1.1170495 149 13.326035 -30.100269 -2.1691148 -4.195179
-2.9241741 7.281455 1.1170495 147 12.267433 -30.547007 -2.1691148 -4.195179
-3.172375 7.1656232 1.2539141 149 13.308681 -30.061071 -2.7432866 -4.195179
-2.9203658 7.2719722 1.2539141 145 12.251457 -30.507225 -2.7432866 -4.195179
-3.0655601 7.2185035 1.1772916 152 12.860574 -30.282913 -2.4218421 -4.195179
-3.1946871 7.1720147 1.0403336 148 13.402285 -30.087885 -1.8472787 -4.195179
-3.0690315 7.2266774 1.0403336 149 12.875136 -30.317205 -1.8472787 -4.195179
-2.942441 7.279139 1.0403336 151 12.344067 -30.537291 -1.8472787 -4.195179
-2.9391129 7.2709055 1.1772916 151 12.330105 -30.50275 -2.4218421 -4.195179
-3.0315096 7.2328696 1.1772916 151 12.717726 -30.343184 -2.4218421 -4.195179
-3.0349424 7.2410603 1.0403336 145 12.732126 -30.377544 -1.8472787 -4.195179
-2.9081063 7.2929239 1.0403336 147 12.200027 -30.595121 -1.8472787 -4.195179
-2.9048171 7.2846746 1.1772916 146 12.186228 -30.560514 -2.4218421 -4.195179
4.852735 7.8756824 0.48536098 973 0 0 -1 0
4.7128081 7.9562411 0.32393149 943 0 0 -1 0
4.8509464 7.8727798 0.32393149 944 0 0 -1 0
4.987606 7.7869201 0.32393149 956 0 0 -1 0
4.7145457 7.9591742 0.48536098 956 0 0 -1 0
4.9894452 7.7897911 0.48536098 949 0 0 -1 0
5.4184637 7.4880648 0.20291188 744 0 0 -1 0
5.2869534 7.5814896 0.20291188 722 0 0 -1 0
5.5483232 7.3923593 0.20291188 726 0 0 -1 0
5.290112 7.586019 0.36428288 739 0 0 -1 0
5.421701 7.4925385 0.36428288 737 0 0 -1 0
5.5516381 7.3967757 0.36428288 737 0 0 -1 0
5.401773 7.5035357 0.2739031 741 0 0 -1 0
5.2659492 7.5908341 0.11259383 719 0 0 -1 0
5.3976254 7.4977741 0.11259383 739 0 0 -1 0
5.527657 7.4024305 0.11259383 737 0 0 -1 0
5.2699957 7.5966668 0.2739031 718 0 0 -1 0
5.5319047 7.4081187 0.2739031 740 0 0 -1 0
5.2724371 7.6001863 0.43531179 724 0 0 -1 0
5.4042754 7.5070119 0.43531179 725 0 0 -1 0
5.5344677 7.411551 0.43531179 734 0 0 -1 0
-7.0345025 12.494426 0.42230952 655 0 0 -1 0
-7.2488155 12.365195 0.17209384 624 0 0 -1 0
-7.0319099 12.48982 0.17209384 634 0 0 -1 0
-6.812861 12.610642 0.17209384 643 0 0 -1 0
-7.2514882 12.369754 0.42230952 640 0 0 -1 0
-6.8153729 12.615292 0.42230952 647 0 0 -1 0
-6.9755454 12.527436 0.42230952 660 0 0 -1 0
-7.1904659 12.399217 0.17209384 643 0 0 -1 0
-6.9729743 12.52282 0.17209384 642 0 0 -1 0
-6.7533593 12.642607 0.17209384 638 0 0 -1 0
-7.1931171 12.403788 0.42230952 647 0 0 -1 0
-6.7558494 12.647268 0.42230952 648 0 0 -1 0
-7.4883409 13.300517 0.41084564 2733 0 0 -1 0
-7.7164817 13.16295 0.14448702 2580 0 0 -1 0
-7.4855809 13.295615 0.14448702 2622 0 0 -1 0
-7.2524004 13.424232 0.14448702 2648 0 0 -1 0
-7.7193265 13.167803 0.41084564 2686 0 0 -1 0
-7.2550745 13.429182 0.41084564 2676 0 0 -1 0
-7.4255805 13.335657 0.41084564 2744 0 0 -1 0
-7.654367 13.199165 0.14448702 2648 0 0 -1 0
-7.4228439 13.330743 0.14448702 2610 0 0 -1 0
-7.1890597 13.458259 0.14448702 2616 0 0 -1 0
-7.6571889 13.204032 0.41084564 2676 0 0 -1 0
-7.1917105 13.463221 0.41084564 2664 0 0 -1 0
-7.8496876 19.092043 3.2773633 338 0 0 -1 0
-8.181695 18.952137 3.2773633 325 0 0 -1 0
-7.5152903 19.226131 3.2773633 337 0 0 -1 0
-8.1619282 18.906351 3.6372213 326 0 0 -1 0
-7.8307238 19.045919 3.6372213 333 0 0 -1 0
-7.4971342 19.179684 3.6372213 337 0 0 -1 0
3.4800892 27.979637 -0.50286514 104 0 0 -1 0
2.9887493 28.012701 -0.99477178 102 0 0 -1 0
3.4771833 27.956274 -0.99477178 100 0 0 -1 0
3.9645576 27.891331 -0.99477178 101 0 0 -1 0
2.9912469 28.03611 -0.50286514 101 0 0 -1 0
3.9678707 27.914639 -0.50286514 101 0 0 -1 0
2.9928334 28.05098 -0.010622561 103 0 0 -1 0
3.4819348 27.994476 -0.010622561 101 0 0 -1 0
3.3543582 28.00576 -0.18293625 101 0 0 -1 0
2.8632553 28.042171 -0.67507845 97 0 0 -1 0
3.3522224 27.987928 -0.67507845 100 0 0 -1 0
2.8650794 28.060038 -0.18293625 99 0 0 -1 0
3.8426154 27.942955 -0.18293625 98 0 0 -1 0
2.8660312 28.069359 0.30944428 97 0 0 -1 0
3.3554723 28.015064 0.30944428 97 0 0 -1 0
3.8438919 27.952236 0.30944428 97 0 0 -1 0
3.5291197 28.90921 -0.42720515 101 0 0 -1 0
3.0268042 28.943897 -0.93025011 92 0 0 -1 0
3.5264423 28.88728 -0.93025011 94 0 0 -1 0
4.0250278 28.822037 -0.93025011 96 0 0 -1 0
3.0291023 28.965872 -0.42720515 97 0 0 -1 0
4.0280833 28.843918 -0.42720515 98 0 0 -1 0
3.0304961 28.9792 0.076146841 100 0 0 -1 0
3.530849 28.923376 0.12700161 110 0 0 -1 0
3.0292842 28.967611 -0.37637281 107 0 0 -1 0
3.5293317 28.910946 -0.37637281 106 0 0 -1 0
4.0283251 28.845652 -0.37637281 108 0 0 -1 0
3.0305865 28.980064 0.12700161 105 0 0 -1 0
4.0300574 28.858053 0.12700161 109 0 0 -1 0
3.0309842 28.983868 0.6305173 108 0 0 -1 0
3.5313122 28.927172 0.6305173 107 0 0 -1 0
4.0305858 28.861839 0.6305173 107 0 0 -1 0
-0.27172852 86.493591 -0.47187465 34 0 0 -1 0
-0.27170461 86.485977 -0.97002405 30 0 0 -1 0
0.22642061 86.486107 -0.97002405 33 0 0 -1 0
-0.76988852 86.490593 -0.47187465 30 0 0 -1 0
5.2941637 8.6800451 0.16320309 1898 0 0 -1 0
5.14187 8.7711191 0.16320309 1871 0 0 -1 0
5.4448452 8.5863266 0.16320309 1869 0 0 -1 0
5.1449418 8.7763586 0.34071118 1894 0 0 -1 0
5.2973266 8.6852303 0.34071118 1860 0 0 -1 0
5.4480982 8.5914564 0.34071118 1890 0 0 -1 0
5.9284477 8.8224611 0.14334872 1883 0 0 -1 0
5.7683635 8.9165325 -0.042088866 1666 0 0 -1 0
5.773572 8.9245834 0.14334872 1820 0 0 -1 0
6.0815182 8.7176514 0.14334872 1857 0 0 -1 0
5.7770209 8.9299154 0.32892534 1843 0 0 -1 0
5.9319897 8.8277321 0.32892534 1859 0 0 -1 0
6.0851512 8.7228594 0.32892534 1857 0 0 -1 0
-7.2753191 14.446513 1.294904 1280 0 0 -1 0
-7.5263371 14.317341 1.294904 1258 0 0 -1 0
-7.0220847 14.571284 1.294904 1257 0 0 -1 0
-7.5195475 14.304425 1.5770917 1196 0 0 -1 0
-7.2687559 14.433481 1.5770917 1219 0 0 -1 0
-7.0157504 14.558139 1.5770917 1200 0 0 -1 0
4.0604753 36.779331 0.14144397 262 0 0 -1 0
4.0591841 36.767635 -0.43971413 256 0 0 -1 0
4.6362042 36.699337 -0.43971413 244 0 0 -1 0
3.4822702 36.83857 0.14144397 251 0 0 -1 0
4.6376791 36.71101 0.14144397 247 0 0 -1 0
24.445419 28.999035 0.12998006 153 0 0 -1 0
23.98452 29.366045 -0.45908934 139 0 0 -1 0
24.437765 28.989954 -0.45908934 150 0 0 -1 0
24.885109 28.606871 -0.45908934 145 0 0 -1 0
23.992031 29.375244 0.12998006 148 0 0 -1 0
24.892904 28.615831 0.12998006 145 0 0 -1 0
24.5818 28.883518 0.12998006 151 0 0 -1 0
24.122637 29.252693 -0.45908934 145 0 0 -1 0
24.574102 28.874475 -0.45908934 144 0 0 -1 0
25.019638 28.489285 -0.45908934 138 0 0 -1 0
24.130194 29.261856 0.12998006 145 0 0 -1 0
25.027475 28.498209 0.12998006 138 0 0 -1 0
24.777834 28.715527 0.12998006 133 0 0 -1 0
24.321194 29.08782 -0.45908934 122 0 0 -1 0
24.770075 28.706535 -0.45908934 120 0 0 -1 0
24.328812 29.096931 0.12998006 130 0 0 -1 0
25.220877 28.327194 0.12998006 121 0 0 -1 0
