# .PCD v0.7 - Point Cloud Data file format
VERSION 0.7
FIELDS x y z intensity normal_x normal_y normal_z curvature
SIZE 4 4 4 4 4 4 4 4
TYPE F F F F F F F F
COUNT 1 1 1 1 1 1 1 1
WIDTH 618
HEIGHT 1
VIEWPOINT 0 0 0 1 0 0 0
POINTS 618
DATA ascii
3.6153085 2.8850298 0.54268044 1308 0 0 -1 0
3.5630932 2.9466 0.46196574 1286 0 0 -1 0
3.613976 2.8839664 0.46196574 1301 0 0 -1 0
3.5644069 2.9476864 0.54268044 1305 0 0 -1 0
-1.3949094 6.7954688 0.46074355 128 5.2975044 -25.80743 0.52885973 -3.7977409
-1.5125334 6.766686 0.33969471 125 5.7442102 -25.69812 0.98857194 -3.7977409
-1.3942082 6.7920527 0.33969471 120 5.2948413 -25.794456 0.98857194 -3.7977409
-1.2754581 6.8153505 0.33969471 123 4.8438592 -25.882936 0.98857194 -3.7977409
-1.5132942 6.7700891 0.46074355 124 5.7470994 -25.711044 0.52885973 -3.7977409
-1.2760997 6.818778 0.46074355 113 4.8462958 -25.895952 0.52885973 -3.7977409
-1.5135939 6.77143 0.58183491 115 5.7482376 -25.716137 0.068986252 -3.7977409
-1.3951856 6.7968149 0.58183491 127 5.2985535 -25.812542 0.068986252 -3.7977409
-1.2763524 6.8201284 0.58183491 123 4.8472557 -25.901081 0.068986252 -3.7977409
-1.3641533 6.8022027 0.48738131 124 5.1807008 -25.833004 0.42769647 -3.7977409
-1.4820145 6.774406 0.36631992 113 5.6283073 -25.727438 0.88745624 -3.7977409
-1.3635591 6.7992396 0.36631992 119 5.1784444 -25.821751 0.88745624 -3.7977409
-1.2446883 6.8220015 0.36631992 120 4.7270036 -25.908194 0.88745624 -3.7977409
-1.4826603 6.7773585 0.48738131 123 5.6307597 -25.738651 0.42769647 -3.7977409
-1.2452307 6.8249741 0.48738131 118 4.7290635 -25.919483 0.42769647 -3.7977409
-1.4828545 6.7782459 0.608477 120 5.6314974 -25.742022 -0.032193612 -3.7977409
-1.364332 6.8030934 0.608477 119 5.1813793 -25.836386 -0.032193612 -3.7977409
-1.2453938 6.8258681 0.608477 113 4.7296829 -25.922878 -0.032193612 -3.7977409
-1.4364544 7.2546253 0.31072387 172 7.4217205 -37.48243 1.4946011 -5.1666942
-1.4352551 7.2485676 0.18169919 158 7.415524 -37.451134 2.1612322 -5.1666942
-1.3085314 7.272512 0.18169919 166 6.7607818 -37.574844 2.1612322 -5.1666942
-1.3096249 7.2785892 0.31072387 169 6.7664313 -37.606243 1.4946011 -5.1666942
-1.563675 7.2322841 0.43983668 157 8.079031 -37.367001 0.82751471 -5.1666942
-1.4372163 7.2584724 0.43983668 166 7.4256568 -37.502308 0.82751471 -5.1666942
-3.3146534 8.114213 1.2452084 312 14.344687 -35.11554 -2.7922416 -4.3276582
-3.4596744 8.06425 1.0921376 293 14.972288 -34.899319 -2.1298037 -4.3276582
-3.3184068 8.1234007 1.0921376 296 14.36093 -35.1553 -2.1298037 -4.3276582
-3.1761284 8.1800776 1.0921376 309 13.745198 -35.400581 -2.1298037 -4.3276582
-3.4557612 8.0551281 1.2452084 295 14.955353 -34.85984 -2.7922416 -4.3276582
-3.1725359 8.170825 1.2452084 307 13.72965 -35.360538 -2.7922416 -4.3276582
5.0751495 8.2818918 0.47962901 5002 0 0 -1 0
4.928021 8.3661194 0.31012809 4862 0 0 -1 0
5.0732789 8.2788401 0.31012809 4887 0 0 -1 0
5.2169924 8.1890373 0.31012809 4813 0 0 -1 0
4.9298377 8.3692036 0.47962901 4964 0 0 -1 0
5.2189159 8.1920557 0.47962901 4915 0 0 -1 0
-3.1806192 9.6568632 0.16320309 801 14.185999 -43.070938 1.948174 -4.4601374
-3.3486702 9.5998831 0.16320309 768 14.93553 -42.816795 1.948174 -4.4601374
-3.0115991 9.7109022 0.16320309 796 13.432145 -43.311958 1.948174 -4.4601374
-3.3506708 9.6056185 0.34071118 746 14.944452 -42.842377 1.1564636 -4.4601374
-3.1825194 9.662632 0.34071118 760 14.194474 -43.096664 1.1564636 -4.4601374
-3.0133982 9.7167034 0.34071118 789 13.440169 -43.337833 1.1564636 -4.4601374
-3.1367648 9.6711969 0.16320309 818 13.990401 -43.134869 1.948174 -4.4601374
-3.3050728 9.6149797 0.16320309 796 14.741078 -42.884129 1.948174 -4.4601374
-2.9675012 9.7244682 0.16320309 817 13.235463 -43.372463 1.948174 -4.4601374
-3.3070474 9.6207247 0.34071118 789 14.749886 -42.909752 1.1564636 -4.4601374
-3.138639 9.6769753 0.34071118 786 13.998761 -43.160641 1.1564636 -4.4601374
-2.969274 9.730278 0.34071118 774 13.24337 -43.398376 1.1564636 -4.4601374
-7.2614217 12.897471 0.41657758 14545 0 0 -1 0
-7.4826484 12.764071 0.15829045 13706 0 0 -1 0
-7.2587452 12.892717 0.15829045 13952 0 0 -1 0
-7.0326304 13.017437 0.15829045 14112 0 0 -1 0
-7.4854074 12.768778 0.41657758 14285 0 0 -1 0
-7.0352235 13.022237 0.41657758 14265 0 0 -1 0
-7.2005634 12.931547 0.41657758 14589 0 0 -1 0
-7.4224162 12.799191 0.15829045 14112 0 0 -1 0
-7.1979094 12.926781 0.15829045 13878 0 0 -1 0
-6.9712095 13.050433 0.15829045 13919 0 0 -1 0
-7.4251528 12.803909 0.41657758 14265 0 0 -1 0
-6.9737797 13.055244 0.41657758 14162 0 0 -1 0
4.7624302 19.301863 -0.024776578 3740 0 0 -1 0
4.4217401 19.368456 -0.3716476 3662 0 0 -1 0
4.7590928 19.288336 -0.3716476 3662 0 0 -1 0
5.094996 19.202341 -0.3716476 3724 0 0 -1 0
4.4248409 19.382038 -0.024776578 3657 0 0 -1 0
5.0985689 19.215807 -0.024776578 3662 0 0 -1 0
4.4265938 19.389717 0.32228485 3676 0 0 -1 0
4.764317 19.309509 0.32228485 3714 0 0 -1 0
5.1005888 19.223421 0.32228485 3716 0 0 -1 0
-7.7800488 24.363436 7.0098872 851 0 0 -1 0
-8.2387009 24.326212 6.5625567 810 0 0 -1 0
-7.8128943 24.466291 6.5625567 833 0 0 -1 0
-7.3847094 24.598919 6.5625567 818 0 0 -1 0
-8.2040653 24.223946 7.0098872 847 0 0 -1 0
-7.3536639 24.495504 7.0098872 845 0 0 -1 0
-4.1332436 87.32132 -0.48333853 1010 0 0 -1 0
-4.6204786 87.289467 -0.97155935 975 0 0 -1 0
-4.1328931 87.313911 -0.97155935 949 0 0 -1 0
-3.6451778 87.335632 -0.97155935 958 0 0 -1 0
-4.6208706 87.296875 -0.48333853 1002 0 0 -1 0
-3.6454871 87.34304 -0.48333853 997 0 0 -1 0
-1.6267426 5.7834458 0.85810721 387 7.327332 -26.05036 -1.1625917 -4.5042973
-1.7274299 5.7541747 0.85810721 366 7.7808576 -25.918514 -1.1625917 -4.5042973
-1.5255599 5.810956 0.85810721 381 6.8715754 -26.174273 -1.1625917 -4.5042973
-1.7258716 5.7489839 0.96291971 354 7.7738385 -25.895132 -1.6346985 -4.5042973
-1.6252751 5.7782288 0.96291971 360 7.3207221 -26.026859 -1.6346985 -4.5042973
-1.5241836 5.8057141 0.96291971 377 6.865376 -26.150661 -1.6346985 -4.5042973
-1.6004815 5.7907686 0.85810721 394 7.2090445 -26.083344 -1.1625917 -4.5042973
-1.7013006 5.7619543 0.85810721 381 7.6631637 -25.953554 -1.1625917 -4.5042973
-1.6997658 5.7567563 0.96291971 377 7.6562505 -25.930141 -1.6346985 -4.5042973
-1.5990376 5.7855449 0.96291971 369 7.2025409 -26.059814 -1.6346985 -4.5042973
-1.4978224 5.8125706 0.96291971 372 6.7466373 -26.181545 -1.6346985 -4.5042973
-1.7377405 6.232285 0.87796164 847 7.8273001 -28.072063 -1.2520219 -4.5042973
-1.8462442 6.2010083 0.87796164 828 8.3160324 -27.931185 -1.2520219 -4.5042973
-1.6287074 6.2616634 0.87796164 834 7.3361821 -28.204393 -1.2520219 -4.5042973
-1.8445787 6.1954141 0.99083662 784 8.3085308 -27.905987 -1.7604446 -4.5042973
-1.7361729 6.2266631 0.99083662 797 7.8202391 -28.046741 -1.7604446 -4.5042973
-1.627238 6.2560148 0.99083662 798 7.3295636 -28.178951 -1.7604446 -4.5042973
-1.3468684 6.8021827 0.35542732 24 7.137289 -36.045944 1.2960328 -5.2991734
-1.4642526 6.7724361 0.23444536 23 7.7593284 -35.888313 1.9371372 -5.2991734
-1.3458343 6.7969594 0.23444536 23 7.1318092 -36.018265 1.9371372 -5.2991734
-1.4653777 6.7776403 0.35542732 23 7.7652903 -35.91589 1.2960328 -5.2991734
-1.2279487 6.8246522 0.35542732 23 6.507113 -36.165016 1.2960328 -5.2991734
-1.3474925 6.8053341 0.47648382 23 7.1405959 -36.062645 0.65453339 -5.2991734
-1.2285175 6.8278141 0.47648382 23 6.5101275 -36.18177 0.65453339 -5.2991734
-1.3636597 6.7997417 0.38205463 24 7.2262692 -36.033009 1.15493 -5.2991734
-1.4810853 6.7701588 0.26105312 23 7.8485279 -35.876244 1.7961382 -5.2991734
-1.3627042 6.7949767 0.26105312 23 7.2212057 -36.007759 1.7961382 -5.2991734
-1.482124 6.7749062 0.38205463 23 7.854032 -35.901402 1.15493 -5.2991734
-1.2447802 6.822505 0.38205463 23 6.5963058 -36.153637 1.15493 -5.2991734
-1.3642001 6.8024359 0.50312257 23 7.2291331 -36.047287 0.51336998 -5.2991734
-1.2452734 6.8252082 0.50312257 23 6.5989194 -36.167961 0.51336998 -5.2991734
-1.3780476 6.7976079 0.40747464 24 7.3025131 -36.021702 1.020225 -5.2991734
-1.4955195 6.7682104 0.28645611 22 7.9250174 -35.865921 1.6615232 -5.2991734
-1.3771702 6.7932796 0.28645611 23 7.2978635 -35.998768 1.6615232 -5.2991734
-1.4964724 6.7725224 0.40747464 22 7.9300666 -35.888771 1.020225 -5.2991734
-1.2592031 6.8206224 0.40747464 23 6.6727352 -36.143661 1.020225 -5.2991734
-1.4969695 6.7747722 0.52855182 22 7.9327006 -35.900692 0.37861598 -5.2991734
-1.2596214 6.8228884 0.52855182 23 6.674952 -36.15567 0.37861598 -5.2991734
-1.3162986 6.8098345 0.40747464 26 6.9752946 -36.086494 1.020225 -5.2991734
-1.4340324 6.7815037 0.28645611 23 7.5991864 -35.936363 1.6615232 -5.2991734
-1.3154604 6.8054986 0.28645611 24 6.9708529 -36.063519 1.6615232 -5.2991734
-1.1964878 6.8274202 0.28645611 24 6.3403964 -36.179684 1.6615232 -5.2991734
-1.4349461 6.7858243 0.40747464 24 7.6040277 -35.959259 1.020225 -5.2991734
-1.19725 6.8317699 0.40747464 25 6.3444352 -36.202732 1.020225 -5.2991734
-1.1976478 6.8340397 0.52855182 24 6.3465433 -36.21476 0.37861598 -5.2991734
-1.4102051 6.7917123 0.4341079 22 7.4729214 -35.990459 0.87909091 -5.2991734
-1.5276512 6.7622118 0.31307328 20 8.0952883 -35.834133 1.5204742 -5.2991734
-1.4094018 6.7878432 0.31307328 21 7.4686642 -35.969959 1.5204742 -5.2991734
-1.5289271 6.7678599 0.55519307 21 8.1020498 -35.864063 0.23743968 -5.2991734
-1.3781843 6.7982821 0.4341079 24 7.3032374 -36.025276 0.87909091 -5.2991734
-1.4957682 6.7693357 0.31307328 22 7.9263349 -35.871883 1.5204742 -5.2991734
-1.2586106 6.8174133 0.31307328 23 6.6695957 -36.126656 1.5204742 -5.2991734
-1.4966208 6.7731943 0.4341079 22 7.9308529 -35.89233 0.87909091 -5.2991734
-1.259328 6.8212991 0.4341079 23 6.6733975 -36.147247 0.87909091 -5.2991734
-1.4970175 6.7749901 0.55519307 22 7.9329553 -35.901848 0.23743968 -5.2991734
-1.3785497 6.8000841 0.55519307 23 7.3051739 -36.034824 0.23743968 -5.2991734
-1.2596619 6.8231072 0.55519307 23 6.6751671 -36.15683 0.23743968 -5.2991734
-1.3318783 6.8075061 0.4341079 26 7.0578542 -36.074154 0.87909091 -5.2991734
-1.4496566 6.7793603 0.31307328 23 7.6819816 -35.925007 1.5204742 -5.2991734
-1.3311195 6.803628 0.31307328 24 7.053833 -36.053604 1.5204742 -5.2991734
-1.450483 6.7832246 0.4341079 23 7.6863608 -35.945484 0.87909091 -5.2991734
-1.4508674 6.7850227 0.55519307 25 7.6883979 -35.955013 0.23743968 -5.2991734
-1.2131896 6.8315239 0.55519307 25 6.4289021 -36.201431 0.23743968 -5.2991734
-1.3164291 6.8105102 0.4341079 26 6.975986 -36.090073 0.87909091 -5.2991734
-1.434271 6.7826314 0.31307328 24 7.6004505 -35.942341 1.5204742 -5.2991734
-1.1966867 6.8285556 0.31307328 25 6.3414507 -36.185699 1.5204742 -5.2991734
-1.1973689 6.832448 0.4341079 24 6.3450651 -36.206326 0.87909091 -5.2991734
-1.3167782 6.8123155 0.55519307 25 6.9778357 -36.09964 0.23743968 -5.2991734
-1.1976862 6.834259 0.55519307 25 6.3467469 -36.215923 0.23743968 -5.2991734
-1.4103243 6.7922864 0.46074355 22 7.4735532 -35.993504 0.73794383 -5.2991734
-1.5286511 6.7666378 0.46074355 21 8.1005869 -35.857586 0.73794383 -5.2991734
-1.5289538 6.7679782 0.58183491 21 8.102191 -35.864689 0.096259885 -5.2991734
-1.3319908 6.8080812 0.46074355 26 7.0584502 -36.077202 0.73794383 -5.2991734
-1.4498763 6.7803879 0.33969471 23 7.683146 -35.93045 1.3794026 -5.2991734
-1.4506055 6.7837977 0.46074355 25 7.6870103 -35.948521 0.73794383 -5.2991734
-1.2129705 6.8302903 0.46074355 25 6.4277411 -36.194893 0.73794383 -5.2991734
-1.3322546 6.8094292 0.58183491 25 7.0598483 -36.084347 0.096259885 -5.2991734
-1.2132107 6.8316431 0.58183491 23 6.4290137 -36.202061 0.096259885 -5.2991734
-1.4104226 6.7927594 0.48738131 22 7.4740739 -35.99601 0.59678578 -5.2991734
-1.5280917 6.7641621 0.36631992 21 8.0976229 -35.844467 1.2383111 -5.2991734
-1.5287577 6.7671094 0.48738131 21 8.1011524 -35.860085 0.59678578 -5.2991734
-1.5289578 6.7679958 0.608477 20 8.1022129 -35.864784 -0.044921316 -5.2991734
-1.4106073 6.7936492 0.608477 20 7.4750528 -36.000725 -0.044921316 -5.2991734
-1.2918268 6.8172331 0.608477 21 6.8456144 -36.125698 -0.044921316 -5.2991734
-1.3475285 6.8055158 0.48738131 26 7.1407871 -36.063606 0.59678578 -5.2991734
-1.4654572 6.7780075 0.36631992 23 7.7657118 -35.917835 1.2383111 -5.2991734
-1.3469415 6.8025513 0.36631992 25 7.1376762 -36.047897 1.2383111 -5.2991734
-1.4660958 6.7809615 0.48738131 24 7.7690959 -35.933491 0.59678578 -5.2991734
-1.2285503 6.8279967 0.48738131 25 6.5103011 -36.182739 0.59678578 -5.2991734
-1.4662877 6.7818494 0.608477 24 7.770113 -35.938194 -0.044921316 -5.2991734
-1.3477049 6.806407 0.608477 25 7.1417217 -36.068329 -0.044921316 -5.2991734
-1.2287112 6.8288908 0.608477 24 6.5111537 -36.187477 -0.044921316 -5.2991734
-1.3784726 6.7997041 0.51402068 24 7.3047652 -36.03281 0.45561898 -5.2991734
-1.4963821 6.7721143 0.39294863 22 7.9295883 -35.886608 1.097201 -5.2991734
-1.3779645 6.7971978 0.39294863 23 7.3020725 -36.019531 1.097201 -5.2991734
-1.377308 6.7939596 0.30218393 19 7.1769505 -35.402328 1.5518757 -5.2108536
-1.2573919 6.810812 0.18124637 17 6.5520854 -35.490143 2.1820636 -5.2108536
-1.4956691 6.7688875 0.30218393 18 7.7937126 -35.271683 1.5518757 -5.2108536
-1.2585273 6.8169618 0.30218393 17 6.5580015 -35.52219 1.5518757 -5.2108536
-1.4965627 6.7729316 0.42321217 18 7.7983694 -35.292755 0.92121536 -5.2108536
-1.3781308 6.7980185 0.42321217 18 7.1812377 -35.423477 0.92121536 -5.2108536
-1.2592791 6.8210344 0.42321217 17 6.5619192 -35.543411 0.92121536 -5.2108536
-1.346464 6.8001399 0.30218393 19 7.0162268 -35.434532 1.5518757 -5.2108536
-1.4636161 6.7694926 0.18124637 17 7.6266894 -35.274834 2.1820636 -5.2108536
-1.3452493 6.7940054 0.18124637 18 7.0098972 -35.402569 2.1820636 -5.2108536
-1.2264725 6.8164482 0.18124637 17 6.3909688 -35.519512 2.1820636 -5.2108536
-1.4649377 6.7756047 0.30218393 17 7.6335759 -35.306683 1.5518757 -5.2108536
-1.2275798 6.8226027 0.30218393 18 6.3967385 -35.551582 1.5518757 -5.2108536
-1.4658129 6.7796526 0.42321217 17 7.6381364 -35.327778 0.92121536 -5.2108536
-1.2283133 6.8266788 0.42321217 18 6.4005609 -35.572823 0.92121536 -5.2108536
-1.3155921 6.8061795 0.30218393 18 6.8553576 -35.466003 1.5518757 -5.2108536
-1.4328822 6.7760639 0.18124637 17 7.4665394 -35.309078 2.1820636 -5.2108536
-1.3144053 6.8000398 0.18124637 17 6.8491735 -35.434013 2.1820636 -5.2108536
-1.195528 6.8219438 0.18124637 16 6.2297215 -35.548149 2.1820636 -5.2108536
-1.3466761 6.8012114 0.32880363 19 7.0173321 -35.440117 1.4131644 -5.2108536
-1.4639452 6.7710142 0.20784298 17 7.6284037 -35.282764 2.0434725 -5.2108536
-1.2267481 6.8179803 0.20784298 18 6.3924046 -35.527496 2.0434725 -5.2108536
-1.4651685 6.7766724 0.32880363 17 7.6347785 -35.312248 1.4131644 -5.2108536
-1.2277733 6.823678 0.32880363 18 6.397747 -35.557186 1.4131644 -5.2108536
-1.3473903 6.8048182 0.44984686 18 7.0210533 -35.458912 0.78242576 -5.2108536
-1.2284244 6.8272967 0.44984686 18 6.4011397 -35.576042 0.78242576 -5.2108536
-1.4097317 6.7894325 0.35542732 19 7.3459058 -35.378738 1.2744322 -5.2108536
-1.5268357 6.7586017 0.23444536 17 7.9561172 -35.218082 1.9048516 -5.2108536
-1.4086493 6.7842193 0.23444536 18 7.3402653 -35.351574 1.9048516 -5.2108536
-1.2900337 6.8077707 0.23444536 18 6.7221766 -35.474297 1.9048516 -5.2108536
-1.4103849 6.7925782 0.47648382 18 7.349309 -35.39513 0.64362442 -5.2108536
-1.2916231 6.8161583 0.47648382 18 6.7304587 -35.518002 0.64362442 -5.2108536
-1.3943233 6.792614 0.35542732 19 7.265615 -35.395317 1.2744322 -5.2108536
-1.511497 6.7620487 0.23444536 18 7.8761897 -35.236046 1.9048516 -5.2108536
-1.3932527 6.7873983 0.23444536 18 7.260036 -35.368137 1.9048516 -5.2108536
-1.2745841 6.8106799 0.23444536 18 6.6416707 -35.489456 1.9048516 -5.2108536
-1.5133592 6.77038 0.47648382 18 7.8858933 -35.279457 0.64362442 -5.2108536
-1.3949693 6.7957611 0.47648382 18 7.268981 -35.411716 0.64362442 -5.2108536
-1.3777217 6.7960005 0.35542732 19 7.1791058 -35.412964 1.2744322 -5.2108536
-1.4949696 6.7657218 0.23444536 18 7.7900677 -35.255184 1.9048516 -5.2108536
-1.3766639 6.790782 0.23444536 18 7.173594 -35.385769 1.9048516 -5.2108536
-1.2579387 6.8137736 0.23444536 17 6.5549345 -35.505577 1.9048516 -5.2108536
-1.4968115 6.7740579 0.47648382 18 7.7996655 -35.298622 0.64362442 -5.2108536
-1.3634852 6.798871 0.35542732 19 7.1049218 -35.427921 1.2744322 -5.2108536
-1.4807963 6.7688375 0.23444536 18 7.7162127 -35.27142 1.9048516 -5.2108536
-1.3624383 6.7936506 0.23444536 17 7.0994668 -35.400719 1.9048516 -5.2108536
-1.2446208 6.8216314 0.35542732 18 6.4855366 -35.546524 1.2744322 -5.2108536
-1.2451974 6.8247919 0.47648382 17 6.4885416 -35.562992 0.64362442 -5.2108536
-1.3778981 6.7968707 0.38205463 19 7.1800251 -35.4175 1.1356812 -5.2108536
-1.49631 6.7717881 0.38205463 18 7.7970524 -35.286797 1.1356812 -5.2108536
-1.4969028 6.7744708 0.50312257 18 7.8001413 -35.300774 0.50481379 -5.2108536
-1.3636597 6.7997417 0.38205463 19 7.1058311 -35.432457 1.1356812 -5.2108536
-1.2439078 6.8177242 0.26105312 18 6.4818215 -35.526161 1.7662024 -5.2108536
-1.2447802 6.822505 0.38205463 17 6.4863672 -35.551075 1.1356812 -5.2108536
-1.2452734 6.8252082 0.50312257 18 6.4889369 -35.565159 0.50481379 -5.2108536
-1.3780476 6.7976079 0.40747464 19 7.1808043 -35.421341 1.0032212 -5.2108536
-1.4955195 6.7682104 0.28645611 18 7.7929335 -35.268154 1.6338311 -5.2108536
-1.4964724 6.7725224 0.40747464 18 7.7978983 -35.290623 1.0032212 -5.2108536
-1.4969695 6.7747722 0.52855182 17 7.8004885 -35.302345 0.37230569 -5.2108536
-1.2596214 6.8228884 0.52855182 18 6.5637026 -35.553074 0.37230569 -5.2108536
-1.3162986 6.8098345 0.40747464 20 6.8590393 -35.48505 1.0032212 -5.2108536
-1.4340324 6.7815037 0.28645611 18 7.4725332 -35.337421 1.6338311 -5.2108536
-1.3154604 6.8054986 0.28645611 19 6.854672 -35.462456 1.6338311 -5.2108536
-1.1964878 6.8274202 0.28645611 19 6.2347226 -35.576687 1.6338311 -5.2108536
-1.4349461 6.7858243 0.40747464 19 7.477294 -35.359936 1.0032212 -5.2108536
-1.19725 6.8317699 0.40747464 19 6.2386947 -35.599354 1.0032212 -5.2108536
-1.4354228 6.7880788 0.52855182 18 7.4797778 -35.371685 0.37230569 -5.2108536
-1.4102051 6.7917123 0.4341079 18 7.3483725 -35.390617 0.86443931 -5.2108536
-1.5276512 6.7622118 0.31307328 17 7.9603667 -35.236897 1.4951329 -5.2108536
-1.4094018 6.7878432 0.31307328 17 7.3441863 -35.370457 1.4951329 -5.2108536
-1.2914585 6.8152895 0.4341079 17 6.7296009 -35.513477 0.86443931 -5.2108536
-1.5289271 6.7678599 0.55519307 17 7.9670153 -35.266327 0.23348233 -5.2108536
-1.410579 6.7935128 0.55519307 17 7.3503203 -35.400002 0.23348233 -5.2108536
-1.2918009 6.8170962 0.55519307 17 6.7313852 -35.522892 0.23348233 -5.2108536
-1.3164291 6.8105102 0.4341079 20 6.8597193 -35.488571 0.86443931 -5.2108536
-1.434271 6.7826314 0.31307328 19 7.4737759 -35.3433 1.4951329 -5.2108536
-1.1966867 6.8285556 0.31307328 19 6.2357593 -35.582603 1.4951329 -5.2108536
-1.4350885 6.7864976 0.4341079 18 7.4780359 -35.363445 0.86443931 -5.2108536
-1.4354689 6.7882967 0.55519307 19 7.4800181 -35.372822 0.23348233 -5.2108536
-1.3640583 6.8017287 0.46074355 18 7.1079078 -35.442814 0.72564471 -5.2108536
-1.4818118 6.7734795 0.33969471 16 7.7215042 -35.295609 1.3564125 -5.2108536
-1.4825571 6.776886 0.46074355 17 7.7253876 -35.313362 0.72564471 -5.2108536
-1.3643284 6.8030758 0.58183491 17 7.1093154 -35.449833 0.094655551 -5.2108536
-1.2453905 6.82585 0.58183491 16 6.4895477 -35.568504 0.094655551 -5.2108536
-1.3165404 6.8110857 0.46074355 20 6.8602991 -35.49157 0.72564471 -5.2108536
-1.4344883 6.7836595 0.33969471 18 7.4749084 -35.348656 1.3564125 -5.2108536
-1.4352098 6.7870712 0.46074355 19 7.4786677 -35.366436 0.72564471 -5.2108536
-1.4354939 6.7884154 0.58183491 19 7.4801488 -35.37344 0.094655551 -5.2108536
-1.3783969 6.7993302 0.48738131 18 7.1826243 -35.430313 0.58683932 -5.2108536
-1.4961995 6.7712879 0.36631992 17 7.7964764 -35.284191 1.2176725 -5.2108536
-1.3777964 6.7963686 0.36631992 17 7.1794953 -35.414883 1.2176725 -5.2108536
-1.4968516 6.7742386 0.48738131 17 7.7998743 -35.299564 0.58683932 -5.2108536
-1.2595222 6.822351 0.48738131 17 6.5631857 -35.550274 0.58683932 -5.2108536
-1.4970475 6.775126 0.608477 16 7.8008957 -35.304188 -0.044172626 -5.2108536
-1.3785774 6.800221 0.608477 16 7.1835647 -35.434956 -0.044172626 -5.2108536
-1.2596872 6.8232446 0.608477 17 6.5640454 -35.554928 -0.044172626 -5.2108536
-1.779332 7.1471381 -0.12736553 396 8.0146408 -32.192833 3.2762704 -4.5042973
-1.9002246 7.1016493 -0.25579685 391 8.5591764 -31.98794 3.8547633 -4.5042973
-1.7759943 7.1337309 -0.25579685 380 7.9996061 -32.132446 3.8547633 -4.5042973
-1.6512231 7.16364 -0.25579685 383 7.4375997 -32.267162 3.8547633 -4.5042973
-1.9037958 7.1149955 -0.12736553 390 8.5752621 -32.048054 3.2762704 -4.5042973
-1.6543263 7.177103 -0.12736553 391 7.4515777 -32.327805 3.2762704 -4.5042973
-2.3183949 6.981555 -0.21215749 432 10.237981 -30.830393 3.5864694 -4.415978
-2.434814 6.925601 -0.34042126 417 10.752085 -30.583302 4.1528792 -4.415978
-2.3135748 6.9670396 -0.34042126 428 10.216695 -30.766293 4.1528792 -4.415978
-2.1916308 7.0063558 -0.34042126 431 9.6781931 -30.939913 4.1528792 -4.415978
-2.4398866 6.9400301 -0.21215749 425 10.774486 -30.64702 3.5864694 -4.415978
-2.1961968 7.0209532 -0.21215749 425 9.6983566 -31.004374 3.5864694 -4.415978
-2.444216 6.9523449 -0.083646417 425 10.793604 -30.701403 3.0189674 -4.415978
-2.3225088 6.9939432 -0.083646417 429 10.256147 -30.885099 3.0189674 -4.415978
-2.200094 7.0334115 -0.083646417 431 9.7155666 -31.059391 3.0189674 -4.415978
-2.3032122 6.9929166 -0.15564078 432 10.170934 -30.880566 3.3368928 -4.415978
-2.4201915 6.9381442 -0.28401816 429 10.687512 -30.638691 3.9038045 -4.415978
-2.2987359 6.9793253 -0.28401816 431 10.151167 -30.820547 3.9038045 -4.415978
-2.1765795 7.0183811 -0.28401816 431 9.6117268 -30.993017 3.9038045 -4.415978
-2.4249046 6.9516554 -0.15564078 426 10.708325 -30.698357 3.3368928 -4.415978
-2.1808181 7.0320482 -0.15564078 425 9.6304445 -31.05337 3.3368928 -4.415978
-2.4288788 6.9630485 -0.027033269 430 10.725875 -30.748669 2.768965 -4.415978
-2.306987 7.0043774 -0.027033269 425 10.187604 -30.931175 2.768965 -4.415978
-2.1843922 7.0435734 -0.027033269 420 9.6462278 -31.104265 2.768965 -4.415978
-1.5034992 7.2410269 0.31072387 28 5.7099004 -27.499544 1.0985956 -3.7977409
-1.6282825 7.2076612 0.18169919 26 6.1837955 -27.372829 1.588598 -3.7977409
-1.5022438 7.2349811 0.18169919 27 5.7051325 -27.476583 1.588598 -3.7977409
-1.375747 7.2600965 0.18169919 26 5.2247305 -27.571966 1.588598 -3.7977409
-1.3768966 7.2661638 0.31072387 26 5.2290969 -27.595007 1.0985956 -3.7977409
-1.6305076 7.2175102 0.43983668 27 6.1922455 -27.410234 0.60825866 -3.7977409
-1.5042965 7.2448673 0.43983668 27 5.7129288 -27.51413 0.60825866 -3.7977409
-1.3776269 7.2700176 0.43983668 25 5.2318702 -27.609644 0.60825866 -3.7977409
-1.4205292 7.2606192 0.39463964 28 5.3948021 -27.57395 0.77990532 -3.7977409
-1.5460432 7.2301149 0.26555318 27 5.8714714 -27.458103 1.2701422 -3.7977409
-1.4196248 7.2559962 0.26555318 27 5.3913674 -27.556395 1.2701422 -3.7977409
-1.2927738 7.2796669 0.26555318 27 4.9096203 -27.64629 1.2701422 -3.7977409
-1.2935975 7.2843051 0.39463964 26 4.9127479 -27.663904 0.77990532 -3.7977409
-1.2940272 7.2867246 0.52378863 25 4.9143801 -27.673092 0.28943089 -3.7977409
-1.4700632 7.2515011 0.42304844 30 5.5829191 -27.539322 0.67201614 -3.7977409
-1.595486 7.2206244 0.29394484 27 6.0592427 -27.422062 1.1623181 -3.7977409
-1.4692258 7.2473702 0.29394484 29 5.5797386 -27.523634 1.1623181 -3.7977409
-1.342518 7.2719073 0.29394484 28 5.0985355 -27.616819 1.1623181 -3.7977409
-1.5963955 7.2247405 0.42304844 28 6.0626965 -27.437693 0.67201614 -3.7977409
-1.3432832 7.2760525 0.42304844 29 5.1014414 -27.632563 0.67201614 -3.7977409
-1.5968187 7.2266555 0.55220592 29 6.0643039 -27.444965 0.18150944 -3.7977409
-1.3436393 7.2779813 0.55220592 29 5.1027937 -27.639887 0.18150944 -3.7977409
-1.4701874 7.2521138 0.45145983 30 5.5833912 -27.541649 0.56411701 -3.7977409
-1.5957278 7.2217188 0.32234102 28 6.0601606 -27.426216 1.0544767 -3.7977409
-1.3427213 7.2730093 0.32234102 29 5.099308 -27.621006 1.0544767 -3.7977409
-1.5965303 7.2253509 0.45145983 29 6.0632086 -27.44001 0.56411701 -3.7977409
-1.3433967 7.2766671 0.45145983 29 5.1018724 -27.634897 0.56411701 -3.7977409
-1.4704785 7.2535501 0.58062387 29 5.5844965 -27.547104 0.073585331 -3.7977409
-1.3436627 7.2781081 0.58062387 28 5.1028829 -27.640369 0.073585331 -3.7977409
-1.4372634 7.2587104 0.45145983 29 5.458354 -27.566702 0.56411701 -3.7977409
-1.436541 7.2550616 0.32234102 28 5.4556103 -27.552845 1.0544767 -3.7977409
-1.3097037 7.2790275 0.32234102 28 4.9739156 -27.64386 1.0544767 -3.7977409
-1.3103625 7.2826881 0.45145983 26 4.9764171 -27.657763 0.56411701 -3.7977409
-1.564036 7.2339535 0.58062387 28 5.9398036 -27.472681 0.073585331 -3.7977409
-1.437548 7.260148 0.58062387 28 5.459435 -27.572161 0.073585331 -3.7977409
-1.310622 7.2841306 0.58062387 26 4.9774027 -27.66324 0.073585331 -3.7977409
-1.4880071 7.2490048 0.47987342 30 5.6510653 -27.529842 0.45620957 -3.7977409
-1.6135896 7.2187853 0.35074127 27 6.1279955 -27.415077 0.94661993 -3.7977409
-1.4873588 7.2458472 0.35074127 29 5.6486034 -27.517851 0.94661993 -3.7977409
-1.6142929 7.2219315 0.47987342 29 6.1306663 -27.427025 0.45620957 -3.7977409
-1.3612678 7.27387 0.47987342 29 5.1697426 -27.624273 0.45620957 -3.7977409
-1.6145043 7.222877 0.60904217 28 6.1314692 -27.430616 -0.034339849 -3.7977409
-1.4882019 7.2499542 0.60904217 28 5.6518049 -27.533447 -0.034339849 -3.7977409
-1.361446 7.2748227 0.60904217 28 5.1704192 -27.627892 -0.034339849 -3.7977409
-1.2933249 7.7535424 0.38180465 38 6.739327 -40.402573 1.136984 -5.2108536
-1.4275365 7.7248678 0.24465027 36 7.4386835 -40.253155 1.8516752 -5.2108536
-1.2925014 7.7486057 0.24465027 35 6.7350359 -40.37685 1.8516752 -5.2108536
-1.1570728 7.7699828 0.24465027 34 6.0293369 -40.488243 1.8516752 -5.2108536
-1.4284459 7.7297897 0.38180465 37 7.4434228 -40.278801 1.136984 -5.2108536
-1.15781 7.7749329 0.38180465 35 6.0331783 -40.514038 1.136984 -5.2108536
-1.2937546 7.7561178 0.51902544 37 6.7415657 -40.415993 0.42194644 -5.2108536
-1.1581945 7.7775159 0.51902544 35 6.035182 -40.527496 0.42194644 -5.2108536
-2.7725501 7.3180203 -0.17282587 443 12.121084 -31.993053 3.378654 -4.3718181
-2.8944049 7.2548838 -0.30928415 433 12.653811 -31.717031 3.9752247 -4.3718181
-2.7673492 7.3042932 -0.30928415 431 12.098348 -31.933041 3.9752247 -4.3718181
-2.6394503 7.3514771 -0.30928415 431 11.539197 -32.13932 3.9752247 -4.3718181
-2.8998446 7.2685184 -0.17282587 433 12.677593 -31.77664 3.378654 -4.3718181
-2.6444106 7.3652935 -0.17282587 435 11.560882 -32.199722 3.378654 -4.3718181
4.852735 7.8756824 0.48536098 969 0 0 -1 0
4.7128081 7.9562411 0.32393149 945 0 0 -1 0
4.8509464 7.8727798 0.32393149 944 0 0 -1 0
4.987606 7.7869201 0.32393149 955 0 0 -1 0
4.7145457 7.9591742 0.48536098 954 0 0 -1 0
4.9894452 7.7897911 0.48536098 948 0 0 -1 0
5.4523873 7.4634004 0.20291188 314 0 0 -1 0
5.3213024 7.5574207 0.20291188 313 0 0 -1 0
5.5818114 7.367106 0.20291188 307 0 0 -1 0
5.324482 7.5619359 0.36428288 310 0 0 -1 0
5.4556446 7.4678593 0.36428288 312 0 0 -1 0
5.585146 7.3715072 0.36428288 305 0 0 -1 0
4.1979361 10.276473 0.46243316 1080 0 0 -1 0
4.0164661 10.344358 0.26871783 1022 0 0 -1 0
4.1963887 10.272685 0.26871783 1040 0 0 -1 0
4.3750329 10.197884 0.26871783 1041 0 0 -1 0
4.0179472 10.348172 0.46243316 1056 0 0 -1 0
4.376646 10.201644 0.46243316 1079 0 0 -1 0
4.269577 10.246916 0.46243316 1045 0 0 -1 0
4.0885854 10.316066 0.26871783 1038 0 0 -1 0
4.268003 10.243139 0.26871783 1000 0 0 -1 0
4.4461203 10.167091 0.26871783 984 0 0 -1 0
4.4477596 10.17084 0.46243316 993 0 0 -1 0
-7.0345025 12.494426 0.42230952 828 0 0 -1 0
-7.2488155 12.365195 0.17209384 776 0 0 -1 0
-7.0319099 12.48982 0.17209384 793 0 0 -1 0
-6.812861 12.610642 0.17209384 803 0 0 -1 0
-7.2514882 12.369754 0.42230952 811 0 0 -1 0
-6.8153729 12.615292 0.42230952 816 0 0 -1 0
-6.9755454 12.527436 0.42230952 835 0 0 -1 0
-7.1904659 12.399217 0.17209384 803 0 0 -1 0
-6.9729743 12.52282 0.17209384 800 0 0 -1 0
-6.7533593 12.642607 0.17209384 798 0 0 -1 0
-7.1931171 12.403788 0.42230952 816 0 0 -1 0
-6.7558494 12.647268 0.42230952 816 0 0 -1 0
-7.4883409 13.300517 0.41084564 2738 0 0 -1 0
-7.7164817 13.16295 0.14448702 2582 0 0 -1 0
-7.4855809 13.295615 0.14448702 2623 0 0 -1 0
-7.2524004 13.424232 0.14448702 2653 0 0 -1 0
-7.7193265 13.167803 0.41084564 2688 0 0 -1 0
-7.2550745 13.429182 0.41084564 2679 0 0 -1 0
-7.4255805 13.335657 0.41084564 2746 0 0 -1 0
-7.654367 13.199165 0.14448702 2653 0 0 -1 0
-7.4228439 13.330743 0.14448702 2615 0 0 -1 0
-7.1890597 13.458259 0.14448702 2620 0 0 -1 0
-7.6571889 13.204032 0.41084564 2679 0 0 -1 0
-7.1917105 13.463221 0.41084564 2667 0 0 -1 0
-7.8063488 19.109804 3.2773633 360 0 0 -1 0
-8.1386719 18.970654 3.2773633 359 0 0 -1 0
-7.4716477 19.243132 3.2773633 358 0 0 -1 0
-8.11901 18.924822 3.6372213 355 0 0 -1 0
-7.7874899 19.063637 3.6372213 357 0 0 -1 0
-7.4535971 19.196644 3.6372213 347 0 0 -1 0
3.353086 27.99514 -0.50286514 99 0 0 -1 0
2.8616016 28.025976 -0.99477178 93 0 0 -1 0
3.3502862 27.971764 -0.99477178 98 0 0 -1 0
2.8639929 28.049397 -0.50286514 95 0 0 -1 0
3.8411582 27.932358 -0.50286514 97 0 0 -1 0
2.8655119 28.064272 -0.010622561 95 0 0 -1 0
3.3548644 28.009987 -0.010622561 95 0 0 -1 0
3.4800892 27.979637 -0.50286514 100 0 0 -1 0
2.9887493 28.012701 -0.99477178 99 0 0 -1 0
3.4771833 27.956274 -0.99477178 97 0 0 -1 0
3.9645576 27.891331 -0.99477178 99 0 0 -1 0
2.9912469 28.03611 -0.50286514 97 0 0 -1 0
3.9678707 27.914639 -0.50286514 99 0 0 -1 0
2.9928334 28.05098 -0.010622561 99 0 0 -1 0
3.4819348 27.994476 -0.010622561 98 0 0 -1 0
3.3539944 28.002724 -0.28631097 100 0 0 -1 0
2.8627613 28.037333 -0.77838391 95 0 0 -1 0
3.351644 27.983099 -0.77838391 95 0 0 -1 0
3.8395061 27.920345 -0.77838391 99 0 0 -1 0
2.8647687 28.056995 -0.28631097 94 0 0 -1 0
3.8421986 27.939924 -0.28631097 99 0 0 -1 0
2.8659036 28.068111 0.20603201 95 0 0 -1 0
3.3553231 28.013819 0.20603201 96 0 0 -1 0
3.8437209 27.950994 0.20603201 97 0 0 -1 0
3.5306029 28.92136 0.015123129 428 0 0 -1 0
3.028872 28.963669 -0.48819953 416 0 0 -1 0
3.5288513 28.907013 -0.48819953 418 0 0 -1 0
4.0277772 28.841724 -0.48819953 415 0 0 -1 0
3.0303755 28.978045 0.015123129 410 0 0 -1 0
4.0297766 28.856041 0.015123129 424 0 0 -1 0
3.0309741 28.98377 0.51862043 418 0 0 -1 0
3.5966628 28.91688 0.23888713 433 0 0 -1 0
3.0953774 28.964176 -0.26453179 428 0 0 -1 0
3.5953557 28.906372 -0.26453179 428 0 0 -1 0
4.0942607 28.839935 -0.26453179 424 0 0 -1 0
3.0965028 28.974705 0.23888713 425 0 0 -1 0
4.0957494 28.85042 0.23888713 426 0 0 -1 0
0.06903249 49.440849 2.9142771 132 0 0 -1 0
-0.57843882 49.46357 2.2669175 118 0 0 -1 0
0.069068871 49.466908 2.2669175 124 0 0 -1 0
0.71656477 49.461765 2.2669175 128 0 0 -1 0
-0.57813412 49.437515 2.9142771 131 0 0 -1 0
0.7161873 49.435707 2.9142771 125 0 0 -1 0
-0.57773036 49.402988 3.56124 126 0 0 -1 0
0.7156871 49.401184 3.56124 123 0 0 -1 0
-0.27607694 49.43087 3.104099 129 0 0 -1 0
-0.92361641 49.451561 2.4568441 123 0 0 -1 0
-0.27623636 49.459412 2.4568441 126 0 0 -1 0
0.37119105 49.458794 2.4568441 121 0 0 -1 0
-0.92308342 49.423023 3.104099 125 0 0 -1 0
0.37097684 49.430252 3.104099 127 0 0 -1 0
-0.92239225 49.386021 3.7509248 127 0 0 -1 0
-0.27587023 49.393856 3.7509248 125 0 0 -1 0
0.37069905 49.393242 3.7509248 122 0 0 -1 0
-0.051754232 49.421638 3.293884 136 0 0 -1 0
-0.69909763 49.44775 2.6467435 127 0 0 -1 0
-0.051786724 49.452667 2.6467435 126 0 0 -1 0
0.59553307 49.449104 2.6467435 132 0 0 -1 0
-0.698659 49.416725 3.293884 122 0 0 -1 0
0.59515947 49.418079 3.293884 131 0 0 -1 0
-0.69810063 49.377232 3.9405627 135 0 0 -1 0
-0.051712871 49.382141 3.9405627 134 0 0 -1 0
0.59468383 49.378586 3.9405627 135 0 0 -1 0
0.18113945 49.421333 3.293884 135 0 0 -1 0
-0.46607372 49.450497 2.6467435 132 0 0 -1 0
0.18125317 49.452362 2.6467435 123 0 0 -1 0
0.82854897 49.445751 2.6467435 129 0 0 -1 0
-0.46578133 49.419472 3.293884 131 0 0 -1 0
0.82802916 49.41473 3.293884 130 0 0 -1 0
0.18099469 49.38184 3.9405627 132 0 0 -1 0
0.82736742 49.375237 3.9405627 125 0 0 -1 0
-0.27583277 49.387154 3.8543699 137 0 0 -1 0
-0.92298353 49.417675 3.2076228 133 0 0 -1 0
-0.27604705 49.425518 3.2076228 132 0 0 -1 0
0.37093666 49.4249 3.2076228 136 0 0 -1 0
-0.92226702 49.379314 3.8543699 126 0 0 -1 0
0.37064874 49.386536 3.8543699 128 0 0 -1 0
-0.92139256 49.332493 4.5005589 131 0 0 -1 0
-0.27557123 49.340321 4.5005589 129 0 0 -1 0
0.37029728 49.339706 4.5005589 133 0 0 -1 0
0.2930721 49.387058 3.8543699 132 0 0 -1 0
-0.3536841 49.425022 3.2076228 127 0 0 -1 0
0.29329976 49.425423 3.2076228 127 0 0 -1 0
0.94023347 49.417347 3.2076228 129 0 0 -1 0
-0.35340956 49.386658 3.8543699 131 0 0 -1 0
0.93950361 49.378986 3.8543699 130 0 0 -1 0
-0.35307446 49.339828 4.5005589 130 0 0 -1 0
0.93861276 49.332165 4.5005589 130 0 0 -1 0
-0.051705431 49.375038 4.0439811 140 0 0 -1 0
-0.6985777 49.410973 3.3973863 128 0 0 -1 0
-0.051748209 49.415886 3.3973863 132 0 0 -1 0
0.59509015 49.412331 3.3973863 136 0 0 -1 0
-0.69800025 49.370129 4.0439811 133 0 0 -1 0
0.59459829 49.371483 4.0439811 131 0 0 -1 0
-0.69730312 49.320824 4.6899858 131 0 0 -1 0
-0.051653795 49.325726 4.6899858 130 0 0 -1 0
-0.38768014 49.359955 4.233542 137 0 0 -1 0
-1.0346562 49.39397 3.5871089 129 0 0 -1 0
-0.38802049 49.403286 3.5871089 131 0 0 -1 0
0.2586818 49.404129 3.5871089 129 0 0 -1 0
-1.0337487 49.350651 4.233542 126 0 0 -1 0
0.25845492 49.360798 4.233542 135 0 0 -1 0
-1.0326641 49.29887 4.8793526 126 0 0 -1 0
-0.38727337 49.308163 4.8793526 123 0 0 -1 0
0.18091886 49.361145 4.233542 141 0 0 -1 0
-0.46562245 49.402615 3.5871089 131 0 0 -1 0
0.18107767 49.404476 3.5871089 130 0 0 -1 0
0.82774675 49.397873 3.5871089 132 0 0 -1 0
0.8270207 49.354549 4.233542 134 0 0 -1 0
0.18072902 49.309353 4.8793526 128 0 0 -1 0
-2.3575025 49.805977 3.693352 207 0 0 -1 0
-3.0114262 49.806999 3.0404172 205 0 0 -1 0
-2.3592148 49.842152 3.0404172 196 0 0 -1 0
-1.706599 49.868763 3.0404172 198 0 0 -1 0
-3.0092404 49.770847 3.693352 205 0 0 -1 0
-1.7053603 49.832565 3.693352 196 0 0 -1 0
-3.0065389 49.726166 4.345757 206 0 0 -1 0
-2.355386 49.761261 4.345757 206 0 0 -1 0
-1.7038293 49.78783 4.345757 195 0 0 -1 0
-2.2427375 49.772297 4.2675004 204 0 0 -1 0
-2.896585 49.782337 3.6150258 201 0 0 -1 0
-2.2447064 49.815987 3.6150258 202 0 0 -1 0
-1.5924425 49.841103 3.6150258 200 0 0 -1 0
-2.8940444 49.738674 4.2675004 203 0 0 -1 0
-2.0168552 49.78196 4.2675004 205 0 0 -1 0
-2.6706507 49.794968 3.6150258 200 0 0 -1 0
-2.0186257 49.825661 3.6150258 199 0 0 -1 0
-1.3662553 49.847816 3.6150258 194 0 0 -1 0
-2.6683085 49.751297 4.2675004 204 0 0 -1 0
-1.365057 49.804096 4.2675004 201 0 0 -1 0
1.861571 51.754463 -0.83752221 216 0 0 -1 0
1.2015165 51.751469 -1.4972126 201 0 0 -1 0
1.8607615 51.73196 -1.4972126 199 0 0 -1 0
2.5197046 51.704056 -1.4972126 215 0 0 -1 0
1.2020391 51.773979 -0.83752221 202 0 0 -1 0
2.5208006 51.726547 -0.83752221 214 0 0 -1 0
1.8620782 51.768566 -0.17759842 214 0 0 -1 0
2.5214875 51.740643 -0.17759842 207 0 0 -1 0
2.0966129 51.750618 -0.63866073 229 0 0 -1 0
1.4365567 51.753151 -1.2984328 214 0 0 -1 0
2.095804 51.730648 -1.2984328 210 0 0 -1 0
2.7547116 51.699745 -1.2984328 216 0 0 -1 0
1.4371113 51.773129 -0.63866073 207 0 0 -1 0
2.755775 51.719704 -0.63866073 221 0 0 -1 0
1.4374324 51.784702 0.021312416 221 0 0 -1 0
2.0970817 51.762184 0.021312416 217 0 0 -1 0
2.7563908 51.731266 0.021312416 226 0 0 -1 0
1.9704603 51.763565 -0.24088597 229 0 0 -1 0
1.3104261 51.769554 -0.90079206 218 0 0 -1 0
1.9698929 51.748657 -0.90079206 221 0 0 -1 0
2.6290395 51.71936 -0.90079206 217 0 0 -1 0
1.3108035 51.78447 -0.24088597 224 0 0 -1 0
2.629797 51.734257 -0.24088597 225 0 0 -1 0
1.3109683 51.790974 0.41915673 223 0 0 -1 0
1.9707079 51.770069 0.41915673 224 0 0 -1 0
2.6301274 51.740761 0.41915673 224 0 0 -1 0
1.7356405 51.774818 -0.041978419 227 0 0 -1 0
1.0756023 51.78035 -0.70193714 212 0 0 -1 0
1.7352257 51.762444 -0.70193714 215 0 0 -1 0
2.3945673 51.736134 -0.70193714 224 0 0 -1 0
1.0758594 51.792732 -0.041978419 215 0 0 -1 0
2.3951399 51.748501 -0.041978419 223 0 0 -1 0
-4.1113744 86.859299 -0.47760659 358 0 0 -1 0
-4.5960317 86.827621 -0.96324426 356 0 0 -1 0
-4.1110258 86.851929 -0.96324426 336 0 0 -1 0
-3.6258912 86.873543 -0.96324426 339 0 0 -1 0
-4.5964217 86.834984 -0.47760659 356 0 0 -1 0
-3.6261988 86.880913 -0.47760659 354 0 0 -1 0
-4.1551127 87.78334 -0.48907048 529 0 0 -1 0
-4.6296248 87.752403 -0.96453756 514 0 0 -1 0
-4.1547732 87.776169 -0.96453756 493 0 0 -1 0
-3.6797996 87.797371 -0.96453756 497 0 0 -1 0
-4.630003 87.759575 -0.48907048 528 0 0 -1 0
-3.6801002 87.804535 -0.48907048 520 0 0 -1 0
5.2737699 8.6943235 0.20224532 1898 0 0 -1 0
5.1169529 8.7777052 0.024836421 1859 0 0 -1 0
5.2693663 8.6870642 0.024836421 1877 0 0 -1 0
5.4201732 8.5937786 0.024836421 1897 0 0 -1 0
5.1212292 8.7850409 0.20224532 1833 0 0 -1 0
5.4247026 8.6009598 0.20224532 1875 0 0 -1 0
5.1239452 8.7896996 0.37977546 1864 0 0 -1 0
5.276567 8.6989346 0.37977546 1828 0 0 -1 0
5.4275799 8.6055212 0.37977546 1891 0 0 -1 0
4.0604753 36.779331 0.14144397 254 0 0 -1 0
3.4811628 36.826851 -0.43971413 251 0 0 -1 0
4.0591841 36.767635 -0.43971413 249 0 0 -1 0
4.6362042 36.699337 -0.43971413 240 0 0 -1 0
3.4822702 36.83857 0.14144397 252 0 0 -1 0
4.6376791 36.71101 0.14144397 241 0 0 -1 0
24.191778 28.566372 2.2082067 180 0 0 -1 0
24.632578 28.187159 2.2082067 162 0 0 -1 0
23.726433 28.91589 2.7894626 174 0 0 -1 0
24.172714 28.543863 2.7894626 169 0 0 -1 0
24.613167 28.164948 2.7894626 164 0 0 -1 0
-4.2041445 48.443089 6.9066782 244 0 0 -1 0
-4.8463292 48.383064 6.9066782 243 0 0 -1 0
-3.5612202 48.494591 6.9066782 238 0 0 -1 0
-4.8375654 48.29557 7.5510936 231 0 0 -1 0
-4.1965423 48.355488 7.5510936 225 0 0 -1 0
-3.5547802 48.406895 7.5510936 238 0 0 -1 0
-3.6440113 48.463799 7.0933385 214 0 0 -1 0
-3.6501484 48.545422 6.4481235 211 0 0 -1 0
-3.0059156 48.589569 6.4481235 210 0 0 -1 0
-4.28652 48.411201 7.0933385 211 0 0 -1 0
-3.0008616 48.507874 7.0933385 194 0 0 -1 0
-4.2785468 48.321148 7.7374105 201 0 0 -1 0
-3.6372328 48.37365 7.7374105 198 0 0 -1 0
