# .PCD v0.7 - Point Cloud Data file format
VERSION 0.7
FIELDS x y z intensity normal_x normal_y normal_z curvature
SIZE 4 4 4 4 4 4 4 4
TYPE F F F F F F F F
COUNT 1 1 1 1 1 1 1 1
WIDTH 237
HEIGHT 1
VIEWPOINT 0 0 0 1 0 0 0
POINTS 237
DATA ascii
3.6153085 2.8850298 0.54268044 1306 0 0 -1 0
3.5630932 2.9466 0.46196574 1281 0 0 -1 0
3.613976 2.8839664 0.46196574 1303 0 0 -1 0
3.5644069 2.9476864 0.54268044 1303 0 0 -1 0
-1.7866335 8.6046352 0.49109292 5827 9.152091 -44.077538 0.5578801 -5.1225343
-1.9358191 8.568984 0.33773491 5536 9.9162998 -43.894913 1.3434618 -5.1225343
-1.7859751 8.6014643 0.33773491 5588 9.1487188 -44.061295 1.3434618 -5.1225343
-1.6355866 8.6313238 0.33773491 5526 8.3783484 -44.214252 1.3434618 -5.1225343
-1.9365329 8.5721436 0.49109292 5775 9.9199562 -43.911098 0.5578801 -5.1225343
-1.6361896 8.6345062 0.49109292 5772 8.3814373 -44.230553 0.5578801 -5.1225343
5.0375161 8.3048363 0.47962901 4969 0 0 -1 0
4.8900056 8.3883953 0.31012809 4741 0 0 -1 0
5.0356593 8.3017759 0.31012809 4843 0 0 -1 0
5.1797781 8.2126274 0.31012809 4890 0 0 -1 0
4.8918085 8.3914881 0.47962901 4872 0 0 -1 0
5.1816878 8.2156553 0.47962901 4906 0 0 -1 0
5.0751495 8.2818918 0.47962901 5004 0 0 -1 0
4.928021 8.3661194 0.31012809 4890 0 0 -1 0
5.0732789 8.2788401 0.31012809 4843 0 0 -1 0
5.2169924 8.1890373 0.31012809 4833 0 0 -1 0
4.9298377 8.3692036 0.47962901 4906 0 0 -1 0
5.2189159 8.1920557 0.47962901 4883 0 0 -1 0
-2.5678635 10.314475 0.14334872 863 13.040572 -52.380768 2.319046 -5.0783744
-2.7474847 10.268088 0.14334872 854 13.952756 -52.145195 2.319046 -5.0783744
-2.38746 10.357718 0.14334872 862 12.124415 -52.600372 2.319046 -5.0783744
-2.7491262 10.274222 0.32892534 830 13.961092 -52.17635 1.3766184 -5.0783744
-2.5693977 10.320637 0.32892534 847 13.048364 -52.412056 1.3766184 -5.0783744
-2.3888865 10.363907 0.32892534 845 12.13166 -52.631798 1.3766184 -5.0783744
-2.497596 10.331715 0.14334872 847 12.683727 -52.468315 2.319046 -5.0783744
-2.6775286 10.286552 0.14334872 829 13.597493 -52.238964 2.319046 -5.0783744
-2.3169024 10.37373 0.14334872 813 11.766098 -52.681683 2.319046 -5.0783744
-2.6791284 10.292698 0.32892534 840 13.605618 -52.270172 1.3766184 -5.0783744
-2.4990883 10.337887 0.32892534 820 12.691306 -52.49966 1.3766184 -5.0783744
-2.3182867 10.379928 0.32892534 790 11.773128 -52.713158 1.3766184 -5.0783744
-7.2614217 12.897471 0.41657758 14540 0 0 -1 0
-7.4826484 12.764071 0.15829045 13631 0 0 -1 0
-7.2587452 12.892717 0.15829045 14029 0 0 -1 0
-7.0326304 13.017437 0.15829045 14165 0 0 -1 0
-7.4854074 12.768778 0.41657758 14326 0 0 -1 0
-7.0352235 13.022237 0.41657758 14431 0 0 -1 0
-7.2005634 12.931547 0.41657758 14556 0 0 -1 0
-7.4224162 12.799191 0.15829045 14165 0 0 -1 0
-7.1979094 12.926781 0.15829045 13726 0 0 -1 0
-6.9712095 13.050433 0.15829045 13936 0 0 -1 0
-7.4251528 12.803909 0.41657758 14431 0 0 -1 0
-6.9737797 13.055244 0.41657758 14265 0 0 -1 0
4.7629466 19.303957 0.048094094 3765 0 0 -1 0
4.422503 19.371799 -0.29882574 3711 0 0 -1 0
4.7599144 19.291666 -0.29882574 3755 0 0 -1 0
5.0958753 19.205656 -0.29882574 3741 0 0 -1 0
4.4253206 19.38414 0.048094094 3684 0 0 -1 0
5.099122 19.217892 0.048094094 3701 0 0 -1 0
4.4267907 19.390579 0.39518201 3712 0 0 -1 0
4.7645292 19.310369 0.39518201 3673 0 0 -1 0
5.1008158 19.224276 0.39518201 3746 0 0 -1 0
-7.8905272 24.327881 7.0098872 811 0 0 -1 0
-8.3490038 24.288576 6.5625567 766 0 0 -1 0
-7.9238391 24.430588 6.5625567 788 0 0 -1 0
-7.4962587 24.565157 6.5625567 795 0 0 -1 0
-8.3139048 24.186468 7.0098872 799 0 0 -1 0
-7.4647446 24.461885 7.0098872 792 0 0 -1 0
-7.7800488 24.363436 7.0098872 818 0 0 -1 0
-8.2387009 24.326212 6.5625567 795 0 0 -1 0
-7.8128943 24.466291 6.5625567 774 0 0 -1 0
-7.3847094 24.598919 6.5625567 786 0 0 -1 0
-8.2040653 24.223946 7.0098872 792 0 0 -1 0
-7.3536639 24.495504 7.0098872 791 0 0 -1 0
-3.8909194 50.223209 2.7641299 227 0 0 -1 0
-4.5392308 50.16877 2.7641299 224 0 0 -1 0
-3.2419577 50.269276 2.7641299 215 0 0 -1 0
-4.5363336 50.136749 3.4145296 223 0 0 -1 0
-3.8884358 50.191151 3.4145296 222 0 0 -1 0
-3.2398884 50.237186 3.4145296 218 0 0 -1 0
-4.2399211 50.176781 3.1509047 236 0 0 -1 0
-4.8903947 50.146446 2.5003452 228 0 0 -1 0
-4.2423415 50.205425 2.5003452 234 0 0 -1 0
-3.5935807 50.256027 2.5003452 224 0 0 -1 0
-4.8876042 50.117836 3.1509047 229 0 0 -1 0
-3.5915303 50.227356 3.1509047 219 0 0 -1 0
-4.8839989 50.080868 3.801038 225 0 0 -1 0
-4.2367935 50.139767 3.801038 227 0 0 -1 0
-3.588881 50.190308 3.801038 223 0 0 -1 0
-4.0121827 50.195507 3.1509047 225 0 0 -1 0
-4.6627874 50.168125 2.5003452 224 0 0 -1 0
-4.0144734 50.224159 2.5003452 223 0 0 -1 0
-3.3654897 50.271816 2.5003452 222 0 0 -1 0
-4.6601272 50.139503 3.1509047 219 0 0 -1 0
-3.3635695 50.243137 3.1509047 218 0 0 -1 0
-4.6566896 50.102516 3.801038 223 0 0 -1 0
-3.3610885 50.206074 3.801038 219 0 0 -1 0
-4.011373 50.185375 3.3442371 225 0 0 -1 0
-4.6620779 50.160492 2.6937928 219 0 0 -1 0
-3.3649776 50.264168 2.6937928 218 0 0 -1 0
-4.6591864 50.129383 3.3442371 223 0 0 -1 0
-3.3628907 50.232994 3.3442371 219 0 0 -1 0
-4.0082145 50.145859 3.9942231 221 0 0 -1 0
-3.3602426 50.193443 3.9942231 214 0 0 -1 0
-4.2372117 50.144718 3.7219942 230 0 0 -1 0
-4.8879871 50.121761 3.0718031 222 0 0 -1 0
-4.2402534 50.180714 3.0718031 220 0 0 -1 0
-3.5918119 50.231293 3.0718031 225 0 0 -1 0
-4.884481 50.085812 3.7219942 221 0 0 -1 0
-3.5892353 50.195259 3.7219942 218 0 0 -1 0
-4.8801603 50.041504 4.371665 217 0 0 -1 0
-4.2334633 50.100357 4.371665 215 0 0 -1 0
-3.5860603 50.150856 4.371665 216 0 0 -1 0
-4.0086346 50.151112 3.915199 218 0 0 -1 0
-3.3631744 50.237232 3.265151 217 0 0 -1 0
-4.6560059 50.095158 3.915199 216 0 0 -1 0
-3.3605947 50.1987 3.915199 207 0 0 -1 0
-4.6516547 50.048344 4.5646935 212 0 0 -1 0
-4.0048885 50.104248 4.5646935 206 0 0 -1 0
-3.3574543 50.151791 4.5646935 200 0 0 -1 0
-4.2350683 50.11935 4.1083546 219 0 0 -1 0
-4.8860011 50.101395 3.4584599 217 0 0 -1 0
-4.2385302 50.16032 3.4584599 215 0 0 -1 0
-3.5903521 50.21088 3.4584599 216 0 0 -1 0
-4.88201 50.060474 4.1083546 213 0 0 -1 0
-3.5874197 50.169868 4.1083546 212 0 0 -1 0
-4.8772049 50.0112 4.7576642 211 0 0 -1 0
-4.2308998 50.070019 4.7576642 207 0 0 -1 0
-3.5838888 50.120487 4.7576642 201 0 0 -1 0
-4.1332436 87.32132 -0.48333853 1075 0 0 -1 0
-4.6204786 87.289467 -0.97155935 1035 0 0 -1 0
-4.1328931 87.313911 -0.97155935 1019 0 0 -1 0
-3.6451778 87.335632 -0.97155935 1029 0 0 -1 0
-4.6208706 87.296875 -0.48333853 1055 0 0 -1 0
-3.6454871 87.34304 -0.48333853 1057 0 0 -1 0
-1.6740998 8.1555777 0.49682486 3170 8.575634 -41.777225 0.52851796 -5.1225343
-1.8155099 8.1221247 0.35153836 3054 9.3000116 -41.605862 1.2727531 -5.1225343
-1.6734828 8.1525726 0.35153836 3027 8.5724726 -41.761833 1.2727531 -5.1225343
-1.5309459 8.1805363 0.35153836 2958 7.8423228 -41.905079 1.2727531 -5.1225343
-1.8161793 8.1251192 0.49682486 3144 9.303441 -41.621201 0.52851796 -5.1225343
-1.5315104 8.1835527 0.49682486 3096 7.8452144 -41.920528 0.52851796 -5.1225343
4.852735 7.8756824 0.48536098 3884 0 0 -1 0
4.7128081 7.9562411 0.32393149 3763 0 0 -1 0
4.8509464 7.8727798 0.32393149 3807 0 0 -1 0
4.987606 7.7869201 0.32393149 3831 0 0 -1 0
4.7145457 7.9591742 0.48536098 3845 0 0 -1 0
4.9894452 7.7897911 0.48536098 3831 0 0 -1 0
5.4184637 7.4880648 0.20291188 2966 0 0 -1 0
5.2869534 7.5814896 0.20291188 2897 0 0 -1 0
5.5483232 7.3923593 0.20291188 2906 0 0 -1 0
5.290112 7.586019 0.36428288 2926 0 0 -1 0
5.421701 7.4925385 0.36428288 2956 0 0 -1 0
5.5516381 7.3967757 0.36428288 2937 0 0 -1 0
-2.4562173 9.8660202 0.16320309 159 12.473591 -50.103344 2.2182181 -5.0783744
-2.6280291 9.8216496 0.16320309 150 13.346116 -49.878014 2.2182181 -5.0783744
-2.2836573 9.9073839 0.16320309 154 11.597267 -50.313404 2.2182181 -5.0783744
-2.6295991 9.8275175 0.34071118 151 13.354089 -49.907814 1.3167655 -5.0783744
-2.4576848 9.8719139 0.34071118 152 12.481043 -50.133274 1.3167655 -5.0783744
-2.2850215 9.9133024 0.34071118 154 11.604195 -50.34346 1.3167655 -5.0783744
-2.4096975 9.8774843 0.16320309 160 12.237347 -50.161564 2.2182181 -5.0783744
-2.5817168 9.8339252 0.16320309 154 13.110925 -49.940353 2.2182181 -5.0783744
-2.2369449 9.9180355 0.16320309 159 11.360044 -50.367496 2.2182181 -5.0783744
-2.5832591 9.8397999 0.34071118 154 13.118757 -49.970188 1.3167655 -5.0783744
-2.4111373 9.8833857 0.34071118 154 12.244658 -50.191532 1.3167655 -5.0783744
-2.2382812 9.9239607 0.34071118 154 11.36683 -50.397587 1.3167655 -5.0783744
4.1979361 10.276473 0.46243316 1081 0 0 -1 0
4.0164661 10.344358 0.26871783 1031 0 0 -1 0
4.1963887 10.272685 0.26871783 1029 0 0 -1 0
4.3750329 10.197884 0.26871783 1047 0 0 -1 0
4.0179472 10.348172 0.46243316 1044 0 0 -1 0
4.376646 10.201644 0.46243316 1080 0 0 -1 0
-7.0345025 12.494426 0.42230952 828 0 0 -1 0
-7.2488155 12.365195 0.17209384 775 0 0 -1 0
-7.0319099 12.48982 0.17209384 798 0 0 -1 0
-6.812861 12.610642 0.17209384 809 0 0 -1 0
-7.2514882 12.369754 0.42230952 812 0 0 -1 0
-6.8153729 12.615292 0.42230952 823 0 0 -1 0
-6.9755454 12.527436 0.42230952 836 0 0 -1 0
-7.1904659 12.399217 0.17209384 809 0 0 -1 0
-6.9729743 12.52282 0.17209384 792 0 0 -1 0
-6.7533593 12.642607 0.17209384 803 0 0 -1 0
-7.1931171 12.403788 0.42230952 823 0 0 -1 0
-6.7558494 12.647268 0.42230952 815 0 0 -1 0
-7.4883409 13.300517 0.41084564 2734 0 0 -1 0
-7.7164817 13.16295 0.14448702 2570 0 0 -1 0
-7.4855809 13.295615 0.14448702 2637 0 0 -1 0
-7.2524004 13.424232 0.14448702 2662 0 0 -1 0
-7.7193265 13.167803 0.41084564 2693 0 0 -1 0
-7.2550745 13.429182 0.41084564 2708 0 0 -1 0
-7.4255805 13.335657 0.41084564 2739 0 0 -1 0
-7.654367 13.199165 0.14448702 2662 0 0 -1 0
-7.4228439 13.330743 0.14448702 2586 0 0 -1 0
-7.1890597 13.458259 0.14448702 2621 0 0 -1 0
-7.6571889 13.204032 0.41084564 2708 0 0 -1 0
-7.1917105 13.463221 0.41084564 2680 0 0 -1 0
3.5299544 28.916048 -0.2086063 104 0 0 -1 0
3.0279136 28.954504 -0.71180326 98 0 0 -1 0
3.5277348 28.897865 -0.71180326 99 0 0 -1 0
4.0265026 28.8326 -0.71180326 102 0 0 -1 0
3.0298188 28.972723 -0.2086063 101 0 0 -1 0
3.0308197 28.982294 0.29483193 102 0 0 -1 0
3.5966628 28.91688 0.23888713 110 0 0 -1 0
3.0953774 28.964176 -0.26453179 107 0 0 -1 0
3.5953557 28.906372 -0.26453179 107 0 0 -1 0
3.0965028 28.974705 0.23888713 107 0 0 -1 0
4.0957494 28.85042 0.23888713 107 0 0 -1 0
-4.1113744 86.859299 -0.47760659 99 0 0 -1 0
-4.5960317 86.827621 -0.96324426 94 0 0 -1 0
-4.1110258 86.851929 -0.96324426 92 0 0 -1 0
-3.6258912 86.873543 -0.96324426 95 0 0 -1 0
-4.5964217 86.834984 -0.47760659 97 0 0 -1 0
-3.6261988 86.880913 -0.47760659 96 0 0 -1 0
-4.1551127 87.78334 -0.48907048 142 0 0 -1 0
-4.6296248 87.752403 -0.96453756 138 0 0 -1 0
-4.1547732 87.776169 -0.96453756 136 0 0 -1 0
-3.6797996 87.797371 -0.96453756 136 0 0 -1 0
-4.630003 87.759575 -0.48907048 140 0 0 -1 0
-3.6801002 87.804535 -0.48907048 140 0 0 -1 0
-7.4128442 17.455095 0.36499 367 0 0 -1 0
-7.7135043 17.316679 0.034059644 349 0 0 -1 0
-7.4101124 17.448662 0.034059644 358 0 0 -1 0
-7.1044621 17.575329 0.034059644 358 0 0 -1 0
-7.7163486 17.323065 0.36499 358 0 0 -1 0
-7.3305073 17.489834 0.36499 369 0 0 -1 0
-7.6318159 17.352839 0.034059644 358 0 0 -1 0
-7.3278055 17.483387 0.034059644 361 0 0 -1 0
-7.0215621 17.608612 0.034059644 358 0 0 -1 0
-7.6346297 17.359236 0.36499 367 0 0 -1 0
-7.0241508 17.615105 0.36499 365 0 0 -1 0
-7.5530558 17.898014 0.35925806 504 0 0 -1 0
-7.8613696 17.75692 0.020256221 495 0 0 -1 0
-7.550272 17.891417 0.020256221 491 0 0 -1 0
-7.2368736 18.020462 0.020256221 497 0 0 -1 0
-7.8642683 17.763468 0.35925806 501 0 0 -1 0
-7.2395415 18.027105 0.35925806 500 0 0 -1 0
4.6516762 18.852983 -0.010246933 505 0 0 -1 0
4.3189087 18.918028 -0.34905118 495 0 0 -1 0
4.6484165 18.839771 -0.34905118 497 0 0 -1 0
4.9765077 18.755775 -0.34905118 503 0 0 -1 0
4.3219371 18.931295 -0.010246933 493 0 0 -1 0
4.9799976 18.768929 -0.010246933 497 0 0 -1 0
4.3236494 18.938795 0.32874334 496 0 0 -1 0
4.6535192 18.860453 0.32874334 500 0 0 -1 0
4.9819708 18.776365 0.32874334 501 0 0 -1 0
