# .PCD v0.7 - Point Cloud Data file format
VERSION 0.7
FIELDS x y z intensity normal_x normal_y normal_z curvature
SIZE 4 4 4 4 4 4 4 4
TYPE F F F F F F F F
COUNT 1 1 1 1 1 1 1 1
WIDTH 403
HEIGHT 1
VIEWPOINT 0 0 0 1 0 0 0
POINTS 403
DATA ascii
3.6153085 2.8850298 0.54268044 1303 0 0 -1 0
3.5630932 2.9466 0.46196574 1268 0 0 -1 0
3.613976 2.8839664 0.46196574 1302 0 0 -1 0
3.5644069 2.9476864 0.54268044 1299 0 0 -1 0
5.0375161 8.3048363 0.47962901 4976 0 0 -1 0
4.8900056 8.3883953 0.31012809 4730 0 0 -1 0
5.0356593 8.3017759 0.31012809 4869 0 0 -1 0
5.1797781 8.2126274 0.31012809 4924 0 0 -1 0
4.8918085 8.3914881 0.47962901 4896 0 0 -1 0
5.1816878 8.2156553 0.47962901 4879 0 0 -1 0
5.0751495 8.2818918 0.47962901 5005 0 0 -1 0
4.928021 8.3661194 0.31012809 4924 0 0 -1 0
5.0732789 8.2788401 0.31012809 4812 0 0 -1 0
5.2169924 8.1890373 0.31012809 4852 0 0 -1 0
4.9298377 8.3692036 0.47962901 4879 0 0 -1 0
5.2189159 8.1920557 0.47962901 4874 0 0 -1 0
-3.1496394 13.028997 0.075687051 92 5.5634947 -23.014305 0.92614162 -1.766391
-3.3737271 12.961213 -0.15817016 90 5.9593215 -22.894571 1.3392249 -1.766391
-3.1470094 13.018118 -0.15817016 86 5.5588493 -22.995087 1.3392249 -1.766391
-3.3765464 12.972044 0.075687051 90 5.9643011 -22.913702 0.92614162 -1.766391
-2.921772 13.081982 0.075687051 81 5.1609917 -23.107895 0.92614162 -1.766391
-3.3783371 12.978924 0.30970404 91 5.9674644 -22.925856 0.51277614 -1.766391
-3.1513097 13.035907 0.30970404 91 5.5664454 -23.026508 0.51277614 -1.766391
-3.2391284 13.010779 0.17863905 97 5.7215672 -22.982124 0.74428815 -1.766391
-3.4632757 12.943191 -0.055297256 94 6.1174989 -22.862736 1.1575111 -1.766391
-3.2368584 13.001662 -0.055297256 91 5.7175574 -22.966021 1.1575111 -1.766391
-3.009455 13.056172 -0.055297256 95 5.3158741 -23.062305 1.1575111 -1.766391
-3.0115654 13.065328 0.17863905 88 5.319602 -23.078478 0.74428815 -1.766391
-3.4670775 12.957399 0.41270375 92 6.1242146 -22.887835 0.33083838 -1.766391
-3.2404115 13.015935 0.41270375 96 5.723834 -22.99123 0.33083838 -1.766391
-3.0127585 13.070504 0.41270375 95 5.3217096 -23.087622 0.33083838 -1.766391
-3.1777806 13.0259 0.17863905 96 5.613203 -23.008833 0.74428815 -1.766391
-3.4022443 12.959368 -0.055297256 95 6.0096941 -22.891312 1.1575111 -1.766391
-3.1755536 13.016771 -0.055297256 91 5.6092691 -22.992708 1.1575111 -1.766391
-2.9478962 13.07021 -0.055297256 91 5.2071376 -23.087101 1.1575111 -1.766391
-3.4046302 12.968455 0.17863905 88 6.0139084 -22.907364 0.74428815 -1.766391
-2.9499633 13.079375 0.17863905 85 5.2107887 -23.103291 0.74428815 -1.766391
-3.4059792 12.973594 0.41270375 95 6.0162911 -22.916439 0.33083838 -1.766391
-3.1790395 13.03106 0.41270375 89 5.615427 -23.017948 0.33083838 -1.766391
-2.9511323 13.084558 0.41270375 90 5.2128534 -23.112446 0.33083838 -1.766391
-3.0893784 13.048643 0.2277844 81 5.4570503 -23.049006 0.65747827 -1.766391
-3.0874112 13.040335 -0.0061848164 79 5.4535756 -23.03433 1.0707594 -1.766391
-2.8593559 13.092231 -0.0061848164 72 5.0507407 -23.125999 1.0707594 -1.766391
-3.316638 12.992739 0.2277844 79 5.8584795 -22.950256 0.65747827 -1.766391
-3.0904045 13.052978 0.46186695 73 5.4588628 -23.056664 0.24399693 -1.766391
-2.862128 13.104924 0.46186695 74 5.0556374 -23.14842 0.24399693 -1.766391
-3.178709 13.029706 0.33077094 95 5.6148434 -23.015556 0.47556373 -1.766391
-3.403913 12.965724 0.096743166 89 6.0126414 -22.902538 0.88894832 -1.766391
-3.1771111 13.023156 0.096743166 93 5.6120205 -23.003986 0.88894832 -1.766391
-2.949342 13.07662 0.096743166 84 5.2096915 -23.098425 0.88894832 -1.766391
-3.4056251 12.972245 0.33077094 91 6.0156655 -22.914057 0.47556373 -1.766391
-3.4062994 12.974814 0.56488085 93 6.0168567 -22.918596 0.062034138 -1.766391
-3.1793387 13.032287 0.56488085 87 5.6159554 -23.020115 0.062034138 -1.766391
-3.2109373 13.023523 0.43377343 93 5.6717706 -23.004635 0.29362106 -1.766391
-3.4364731 12.960722 0.19970071 89 6.0701551 -22.893703 0.70708501 -1.766391
-2.9820573 13.072758 0.19970071 87 5.2674794 -23.091602 0.70708501 -1.766391
-3.4377401 12.965501 0.43377343 92 6.0723934 -22.902145 0.29362106 -1.766391
-2.9831567 13.077578 0.43377343 83 5.2694211 -23.100117 0.29362106 -1.766391
-2.9833477 13.078414 0.66789675 90 5.2697587 -23.101593 -0.11993229 -1.766391
-7.2298851 12.915176 0.41657758 14574 0 0 -1 0
-7.4514375 12.782318 0.15829045 14073 0 0 -1 0
-7.2272205 12.910417 0.15829045 14207 0 0 -1 0
-7.000802 13.034582 0.15829045 13885 0 0 -1 0
-7.454185 12.787031 0.41657758 14532 0 0 -1 0
-7.0033832 13.039388 0.41657758 14526 0 0 -1 0
-11.206325 9.4700775 2.5602531 139 57.899651 -48.928993 -10.128029 -5.1666942
-11.230748 9.4907169 2.303895 130 58.025841 -49.035633 -8.803504 -5.1666942
-11.063402 9.6852751 2.303895 131 57.161217 -50.040855 -8.803504 -5.1666942
-11.039343 9.6642122 2.5602531 137 57.036907 -49.93203 -10.128029 -5.1666942
-11.341649 9.2500229 2.8160141 125 58.598831 -47.792038 -11.449468 -5.1666942
-11.01192 9.6402054 2.8160141 131 56.895222 -49.807991 -11.449468 -5.1666942
-11.200493 9.4651489 2.6165745 139 57.869522 -48.90353 -10.419024 -5.1666942
-11.058397 9.6808939 2.3603411 137 57.135357 -50.018219 -9.0951443 -5.1666942
-11.363976 9.2682323 2.6165745 125 58.714188 -47.886124 -10.419024 -5.1666942
-11.033598 9.6591835 2.6165745 131 57.007225 -49.906048 -10.419024 -5.1666942
-11.334971 9.2445765 2.8721938 135 58.564331 -47.763901 -11.739731 -5.1666942
-11.171906 9.4409914 2.8721938 136 57.721821 -48.778717 -11.739731 -5.1666942
-11.005437 9.6345301 2.8721938 131 56.861725 -49.778671 -11.739731 -5.1666942
-11.169166 9.4386759 2.8951666 131 57.707664 -48.76675 -11.858424 -5.1666942
-11.361507 9.2662182 2.6396062 129 58.701435 -47.875717 -10.538022 -5.1666942
-11.198059 9.4630928 2.6396062 125 57.856945 -48.892906 -10.538022 -5.1666942
-11.0312 9.6570845 2.6396062 126 56.994839 -49.895203 -10.538022 -5.1666942
-11.332191 9.2423096 2.8951666 123 58.549969 -47.752186 -11.858424 -5.1666942
-11.002738 9.6321669 2.8951666 121 56.847782 -49.76646 -11.858424 -5.1666942
-11.299424 9.2155857 3.1500278 125 58.380669 -47.614113 -13.175214 -5.1666942
-11.136869 9.4113836 3.1500278 117 57.540798 -48.62574 -13.175214 -5.1666942
-10.970922 9.6043158 3.1500278 124 56.683399 -49.622562 -13.175214 -5.1666942
-10.42971 9.5436831 4.9870157 109 53.887123 -49.309292 -22.666368 -5.1666942
-10.594683 9.3602057 4.9870157 98 54.739487 -48.36132 -22.666368 -5.1666942
-10.261562 9.7242527 4.9870157 104 53.018353 -50.242241 -22.666368 -5.1666942
-10.53569 9.3080873 5.2330761 101 54.434689 -48.092041 -23.937687 -5.1666942
-10.371637 9.4905434 5.2330761 102 53.587078 -49.034737 -23.937687 -5.1666942
-10.204425 9.6701069 5.2330761 99 52.723141 -49.962486 -23.937687 -5.1666942
-10.427782 9.4952068 5.0954509 110 53.877159 -49.05883 -23.22662 -5.1666942
-10.649218 9.362154 4.8486333 106 55.021252 -48.371387 -21.951389 -5.1666942
-10.484204 9.5465832 4.8486333 101 54.168678 -49.324276 -21.951389 -5.1666942
-10.315995 9.7281036 4.8486333 102 53.299591 -50.262135 -21.951389 -5.1666942
-10.591908 9.3117704 5.0954509 97 54.725147 -48.111069 -23.22662 -5.1666942
-10.260478 9.6757507 5.0954509 99 53.012753 -49.991646 -23.22662 -5.1666942
-10.531371 9.2585506 5.3408999 99 54.412373 -47.836098 -24.494781 -5.1666942
-10.368183 9.440938 5.3408999 99 53.569233 -48.778439 -24.494781 -5.1666942
-10.424006 9.4485979 5.2011666 108 53.857655 -48.818016 -23.772821 -5.1666942
-10.646137 9.3167067 4.9549279 103 55.005337 -48.136574 -22.500582 -5.1666942
-10.481916 9.5010881 4.9549279 99 54.156857 -49.089218 -22.500582 -5.1666942
-10.314504 9.6825771 4.9549279 99 53.291885 -50.026917 -22.500582 -5.1666942
-10.257519 9.6290836 5.2011666 99 52.997463 -49.75053 -23.772821 -5.1666942
-10.525279 9.2109404 5.446003 102 54.380898 -47.590111 -25.037815 -5.1666942
-10.362923 9.3932285 5.446003 98 53.542053 -48.53194 -25.037815 -5.1666942
-10.197411 9.5726566 5.446003 100 52.686901 -49.458988 -25.037815 -5.1666942
-10.379366 9.4976158 5.2011666 107 53.62701 -49.071278 -23.772821 -5.1666942
-10.602115 9.3667717 4.9549279 99 54.777885 -48.395245 -22.500582 -5.1666942
-10.437028 9.5503788 4.9549279 96 53.924931 -49.343887 -22.500582 -5.1666942
-10.268761 9.7310743 4.9549279 103 53.055546 -50.277485 -22.500582 -5.1666942
-10.543542 9.3150234 5.2011666 99 54.475258 -48.127876 -23.772821 -5.1666942
-10.212029 9.6773129 5.2011666 100 52.762428 -49.999718 -23.772821 -5.1666942
-10.481756 9.260437 5.446003 100 54.156029 -47.845844 -25.037815 -5.1666942
-10.318543 9.4419594 5.446003 103 53.312759 -48.783718 -25.037815 -5.1666942
-11.382586 12.133948 1.3147584 98 50.767895 -54.119076 -3.1879208 -4.4601374
-11.592619 11.933447 1.3147584 96 51.704674 -53.224812 -3.1879208 -4.4601374
-11.582161 11.922682 1.6050086 90 51.658028 -53.1768 -4.4824762 -4.4601374
-11.372317 12.123002 1.6050086 92 50.722099 -54.070255 -4.4824762 -4.4601374
-11.159011 12.319631 1.6050086 96 49.770721 -54.947247 -4.4824762 -4.4601374
-11.352903 12.161725 1.3147584 98 50.635509 -54.242966 -3.1879208 -4.4601374
-11.138922 12.358008 1.3147584 97 49.681122 -55.118416 -3.1879208 -4.4601374
-11.552995 11.950947 1.6050086 92 51.527943 -53.302864 -4.4824762 -4.4601374
-11.342662 12.150754 1.6050086 96 50.589828 -54.194031 -4.4824762 -4.4601374
-11.269858 12.23872 1.3147584 103 50.265118 -54.586372 -3.1879208 -4.4601374
-11.481738 12.04017 1.3147584 100 51.210129 -53.700809 -3.1879208 -4.4601374
-11.054546 12.433542 1.3147584 98 49.304794 -55.455307 -3.1879208 -4.4601374
-11.47138 12.029307 1.6050086 102 51.163933 -53.652363 -4.4824762 -4.4601374
-11.259691 12.227679 1.6050086 94 50.219769 -54.537128 -4.4824762 -4.4601374
-11.044574 12.422326 1.6050086 95 49.260315 -55.405281 -4.4824762 -4.4601374
-11.376197 12.127138 1.5063534 94 50.739399 -54.088703 -4.0424609 -4.4601374
-11.595369 11.936279 1.2160194 89 51.716942 -53.237446 -2.7475312 -4.4601374
-11.385286 12.136828 1.2160194 93 50.779942 -54.131924 -2.7475312 -4.4601374
-11.171738 12.33368 1.2160194 90 49.827484 -55.009907 -2.7475312 -4.4601374
-11.586113 11.926749 1.5063534 85 51.675655 -53.194939 -4.0424609 -4.4601374
-11.573326 11.913588 1.7964113 89 51.618626 -53.136238 -5.3361592 -4.4601374
-11.363643 12.113755 1.7964113 84 50.683407 -54.029011 -5.3361592 -4.4601374
-11.150499 12.310233 1.7964113 91 49.732758 -54.905331 -5.3361592 -4.4601374
-11.32105 12.178638 1.5063534 94 50.493435 -54.318398 -4.0424609 -4.4601374
-11.541085 11.988774 1.2160194 90 51.474827 -53.471581 -2.7475312 -4.4601374
-11.115653 12.38425 1.2160194 90 49.577339 -55.235455 -2.7475312 -4.4601374
-11.106779 12.374363 1.5063534 91 49.537762 -55.19136 -4.0424609 -4.4601374
-11.519145 11.965982 1.7964113 91 51.376968 -53.369926 -5.3361592 -4.4601374
-11.308556 12.165197 1.7964113 92 50.43771 -54.25845 -5.3361592 -4.4601374
-11.094522 12.360706 1.7964113 84 49.483089 -55.130447 -5.3361592 -4.4601374
-11.258608 12.226502 1.6311173 84 50.214939 -54.531879 -4.5989251 -4.4601374
-11.269084 12.237879 1.3408911 82 50.261662 -54.582619 -3.3044763 -4.4601374
-11.053786 12.432688 1.3408911 81 49.301407 -55.451496 -3.3044763 -4.4601374
-11.470277 12.028151 1.6311173 78 51.159012 -53.647205 -4.5989251 -4.4601374
-11.043511 12.421131 1.6311173 78 49.255577 -55.399952 -4.5989251 -4.4601374
-11.45611 12.013295 1.9210293 77 51.095825 -53.580948 -5.8919725 -4.4601374
-11.244703 12.211402 1.9210293 74 50.15292 -54.464531 -5.8919725 -4.4601374
4.7629466 19.303957 0.048094094 3724 0 0 -1 0
4.422503 19.371799 -0.29882574 3675 0 0 -1 0
4.7599144 19.291666 -0.29882574 3697 0 0 -1 0
4.4253206 19.38414 0.048094094 3625 0 0 -1 0
5.099122 19.217892 0.048094094 3638 0 0 -1 0
4.4267907 19.390579 0.39518201 3652 0 0 -1 0
4.7645292 19.310369 0.39518201 3648 0 0 -1 0
5.1008158 19.224276 0.39518201 3694 0 0 -1 0
-7.4849877 22.370272 0.3076705 1275 0 0 -1 0
-7.8713613 22.228037 -0.10397464 1219 0 0 -1 0
-7.4822288 22.362026 -0.10397464 1239 0 0 -1 0
-7.0908179 22.489202 -0.10397464 1234 0 0 -1 0
-7.8742633 22.236233 0.3076705 1249 0 0 -1 0
-7.0934324 22.497494 0.3076705 1263 0 0 -1 0
-7.8353086 24.34572 7.0098872 865 0 0 -1 0
-8.2938738 24.307457 6.5625567 845 0 0 -1 0
-7.8683872 24.448502 6.5625567 854 0 0 -1 0
-7.4405036 24.582102 6.5625567 833 0 0 -1 0
-8.2590065 24.205269 7.0098872 854 0 0 -1 0
-7.409224 24.47876 7.0098872 857 0 0 -1 0
-4.0802937 49.735867 2.9359057 281 0 0 -1 0
-4.7334599 49.704384 2.2824962 266 0 0 -1 0
-4.0824442 49.762081 2.2824962 272 0 0 -1 0
-3.4307292 49.811256 2.2824962 276 0 0 -1 0
-4.7309661 49.6782 2.9359057 268 0 0 -1 0
-3.4289219 49.785015 2.9359057 276 0 0 -1 0
-4.7276621 49.643505 3.5889151 280 0 0 -1 0
-3.4265273 49.750248 3.5889151 279 0 0 -1 0
-3.8522635 49.724251 3.5018744 304 0 0 -1 0
-4.505847 49.70314 2.8488054 295 0 0 -1 0
-3.8548675 49.757862 2.8488054 297 0 0 -1 0
-3.2032268 49.804058 2.8488054 294 0 0 -1 0
-4.5028033 49.669563 3.5018744 294 0 0 -1 0
-3.2010629 49.770412 3.5018744 291 0 0 -1 0
-4.4989882 49.62748 4.1544466 295 0 0 -1 0
-3.8489995 49.682117 4.1544466 289 0 0 -1 0
-3.1983507 49.728245 4.1544466 298 0 0 -1 0
-3.8494263 49.687626 4.0761681 301 0 0 -1 0
-4.5032091 49.674042 3.4235301 296 0 0 -1 0
-3.8526108 49.728733 3.4235301 291 0 0 -1 0
-3.2013514 49.774899 3.4235301 292 0 0 -1 0
-4.4994869 49.63298 4.0761681 283 0 0 -1 0
-3.1987052 49.733757 4.0761681 284 0 0 -1 0
-4.4949932 49.583412 4.72821 293 0 0 -1 0
-3.8455818 49.638 4.72821 286 0 0 -1 0
-3.1955106 49.684086 4.72821 292 0 0 -1 0
-4.0737391 49.655975 4.2675004 294 0 0 -1 0
-4.7275133 49.641941 3.6150258 283 0 0 -1 0
-4.0773153 49.699566 3.6150258 290 0 0 -1 0
-3.426419 49.748676 3.6150258 283 0 0 -1 0
-4.7233667 49.5984 4.2675004 273 0 0 -1 0
-3.423414 49.705044 4.2675004 293 0 0 -1 0
-4.718411 49.54636 4.9193463 266 0 0 -1 0
-4.0694647 49.603874 4.9193463 272 0 0 -1 0
-3.419822 49.652893 4.9193463 276 0 0 -1 0
-4.1332436 87.32132 -0.48333853 984 0 0 -1 0
-4.6204786 87.289467 -0.97155935 950 0 0 -1 0
-4.1328931 87.313911 -0.97155935 924 0 0 -1 0
-3.6451778 87.335632 -0.97155935 944 0 0 -1 0
-4.6208706 87.296875 -0.48333853 973 0 0 -1 0
-3.6454871 87.34304 -0.48333853 974 0 0 -1 0
4.852735 7.8756824 0.48536098 972 0 0 -1 0
4.7128081 7.9562411 0.32393149 938 0 0 -1 0
4.8509464 7.8727798 0.32393149 956 0 0 -1 0
4.987606 7.7869201 0.32393149 958 0 0 -1 0
4.7145457 7.9591742 0.48536098 963 0 0 -1 0
4.9894452 7.7897911 0.48536098 966 0 0 -1 0
5.4193177 7.4892445 0.23840484 741 0 0 -1 0
5.283371 7.5763531 0.077124 726 0 0 -1 0
5.4147925 7.4829912 0.077124 737 0 0 -1 0
5.5445638 7.3873506 0.077124 729 0 0 -1 0
5.2877865 7.582684 0.23840484 730 0 0 -1 0
5.5491977 7.3935242 0.23840484 732 0 0 -1 0
5.2905908 7.5867057 0.39979586 739 0 0 -1 0
5.4221916 7.4932165 0.39979586 730 0 0 -1 0
5.5521407 7.3974452 0.39979586 729 0 0 -1 0
4.1979361 10.276473 0.46243316 1079 0 0 -1 0
4.0164661 10.344358 0.26871783 1035 0 0 -1 0
4.1963887 10.272685 0.26871783 1020 0 0 -1 0
4.3750329 10.197884 0.26871783 1050 0 0 -1 0
4.0179472 10.348172 0.46243316 1052 0 0 -1 0
4.376646 10.201644 0.46243316 1076 0 0 -1 0
-6.9755454 12.527436 0.42230952 840 0 0 -1 0
-7.1904659 12.399217 0.17209384 817 0 0 -1 0
-6.9729743 12.52282 0.17209384 796 0 0 -1 0
-6.7533593 12.642607 0.17209384 809 0 0 -1 0
-7.1931171 12.403788 0.42230952 837 0 0 -1 0
-6.7558494 12.647268 0.42230952 825 0 0 -1 0
-7.4883409 13.300517 0.41084564 2736 0 0 -1 0
-7.7164817 13.16295 0.14448702 2561 0 0 -1 0
-7.4855809 13.295615 0.14448702 2646 0 0 -1 0
-7.2524004 13.424232 0.14448702 2669 0 0 -1 0
-7.7193265 13.167803 0.41084564 2699 0 0 -1 0
-7.2550745 13.429182 0.41084564 2730 0 0 -1 0
-7.4255805 13.335657 0.41084564 2735 0 0 -1 0
-7.654367 13.199165 0.14448702 2669 0 0 -1 0
-7.4228439 13.330743 0.14448702 2599 0 0 -1 0
-7.1890597 13.458259 0.14448702 2623 0 0 -1 0
-7.6571889 13.204032 0.41084564 2730 0 0 -1 0
-7.1917105 13.463221 0.41084564 2694 0 0 -1 0
-7.6317515 22.808903 0.30193856 328 0 0 -1 0
-8.0257015 22.663879 -0.11777806 319 0 0 -1 0
-7.6289387 22.800495 -0.11777806 319 0 0 -1 0
-7.2298536 22.930166 -0.11777806 314 0 0 -1 0
-8.0286608 22.672235 0.30193856 325 0 0 -1 0
-7.2325191 22.938622 0.30193856 320 0 0 -1 0
-3.594471 49.300781 3.104099 66 0 0 -1 0
-4.2419381 49.277946 2.4568441 62 0 0 -1 0
-3.5965464 49.329247 2.4568441 62 0 0 -1 0
-2.9505386 49.372101 2.4568441 59 0 0 -1 0
-4.23949 49.249508 3.104099 65 0 0 -1 0
-2.9488358 49.343609 3.104099 62 0 0 -1 0
-3.5917795 49.263866 3.7509248 62 0 0 -1 0
-2.9466279 49.306664 3.7509248 64 0 0 -1 0
-3.8165944 49.26384 3.4750051 67 0 0 -1 0
-4.4641266 49.242924 2.8279831 66 0 0 -1 0
-3.8191743 49.297142 2.8279831 65 0 0 -1 0
-3.1735671 49.342907 2.8279831 66 0 0 -1 0
-4.4611106 49.20966 3.4750051 65 0 0 -1 0
-3.1714232 49.309574 3.4750051 65 0 0 -1 0
-3.9360483 49.243 3.6647098 67 0 0 -1 0
-4.5836091 49.222984 3.0178206 65 0 0 -1 0
-3.9389071 49.27877 3.0178206 65 0 0 -1 0
-4.5802822 49.187256 3.6647098 66 0 0 -1 0
-4.57617 49.143101 4.3110743 66 0 0 -1 0
-3.9325147 49.198792 4.3110743 66 0 0 -1 0
-3.2881856 49.246052 4.3110743 65 0 0 -1 0
-3.8157136 49.252472 3.6647098 67 0 0 -1 0
-4.4633212 49.234039 3.0178206 65 0 0 -1 0
-3.1729944 49.334007 3.0178206 65 0 0 -1 0
-4.4560771 49.154133 4.3110743 66 0 0 -1 0
-3.812288 49.208252 4.3110743 65 0 0 -1 0
-3.1678448 49.253941 4.3110743 65 0 0 -1 0
-3.703953 49.260998 3.6647098 67 0 0 -1 0
-3.7066436 49.29678 3.0178206 65 0 0 -1 0
-3.0610509 49.341076 3.0178206 65 0 0 -1 0
-3.0588291 49.305264 3.6647098 64 0 0 -1 0
-4.3445387 49.16412 4.3110743 65 0 0 -1 0
-3.7006278 49.216774 4.3110743 65 0 0 -1 0
-3.0560832 49.260998 4.3110743 65 0 0 -1 0
-4.0371304 49.20974 4.0439811 66 0 0 -1 0
-4.6847925 49.193344 3.3973863 64 0 0 -1 0
-4.6809201 49.152683 4.0439811 61 0 0 -1 0
-3.3926494 49.258369 4.0439811 64 0 0 -1 0
-4.6762452 49.103592 4.6899858 63 0 0 -1 0
-4.0330987 49.160595 4.6899858 64 0 0 -1 0
-3.389261 49.209175 4.6899858 64 0 0 -1 0
-3.5903568 49.24435 4.0439811 67 0 0 -1 0
-4.2381411 49.233833 3.3973863 65 0 0 -1 0
-3.593327 49.285091 3.3973863 65 0 0 -1 0
-2.9478974 49.327908 3.3973863 65 0 0 -1 0
-4.2346377 49.193138 4.0439811 64 0 0 -1 0
-2.9454608 49.287132 4.0439811 65 0 0 -1 0
-4.2304087 49.144009 4.6899858 65 0 0 -1 0
-3.586771 49.195171 4.6899858 64 0 0 -1 0
-2.9425189 49.237907 4.6899858 65 0 0 -1 0
-4.1096611 86.823105 -2.1315813 44 0 0 -1 0
-4.1088758 86.806511 -2.6169906 39 0 0 -1 0
-3.6239951 86.82811 -2.6169906 40 0 0 -1 0
-4.5945063 86.798798 -2.1315813 40 0 0 -1 0
-4.1103182 86.83699 -1.6460862 40 0 0 -1 0
-3.6252675 86.858597 -1.6460862 43 0 0 -1 0
-3.7004724 86.841507 -2.1315813 47 0 0 -1 0
-3.6997654 86.824921 -2.6169906 42 0 0 -1 0
-3.2147887 86.844223 -2.6169906 45 0 0 -1 0
-4.1854267 86.819489 -2.1315813 44 0 0 -1 0
-4.1860962 86.833374 -1.6460862 43 0 0 -1 0
-3.7010643 86.8554 -1.6460862 43 0 0 -1 0
-3.2159173 86.87471 -1.6460862 43 0 0 -1 0
-3.518584 86.849068 -2.1315813 47 0 0 -1 0
-4.0028191 86.811478 -2.6169906 42 0 0 -1 0
-3.5179117 86.832474 -2.6169906 45 0 0 -1 0
-3.0328953 86.850769 -2.6169906 45 0 0 -1 0
-4.0042243 86.841949 -1.6460862 43 0 0 -1 0
-3.5191467 86.862961 -1.6460862 43 0 0 -1 0
-3.3063617 86.857407 -2.1315813 47 0 0 -1 0
-3.7906861 86.820992 -2.6169906 45 0 0 -1 0
-3.3057301 86.840813 -2.6169906 45 0 0 -1 0
-2.8206704 86.857918 -2.6169906 46 0 0 -1 0
-2.8212094 86.874512 -2.1315813 46 0 0 -1 0
-3.792017 86.851471 -1.6460862 43 0 0 -1 0
-2.8216605 86.888405 -1.6460862 43 0 0 -1 0
-3.3067205 86.866829 -1.8129838 47 0 0 -1 0
-2.8210342 86.869118 -2.2984512 46 0 0 -1 0
-3.791822 86.847 -1.8129838 43 0 0 -1 0
-2.8215153 86.883934 -1.8129838 43 0 0 -1 0
-3.3071816 86.878944 -1.3274415 46 0 0 -1 0
-2.821909 86.896057 -1.3274415 46 0 0 -1 0
-3.5200508 86.885277 -0.47760659 57 0 0 -1 0
-4.0049133 86.856895 -0.96324426 51 0 0 -1 0
-3.5197523 86.877907 -0.96324426 51 0 0 -1 0
-3.0344822 86.89621 -0.96324426 51 0 0 -1 0
-4.0052528 86.864265 -0.47760659 54 0 0 -1 0
-3.0347397 86.90358 -0.47760659 53 0 0 -1 0
-3.9559278 87.792542 -0.48907048 128 0 0 -1 0
-4.4305091 87.76268 -0.96453756 120 0 0 -1 0
-3.9556048 87.78537 -0.96453756 123 0 0 -1 0
-3.4805844 87.805481 -0.96453756 118 0 0 -1 0
-4.430871 87.769852 -0.48907048 127 0 0 -1 0
-3.4808686 87.812653 -0.48907048 123 0 0 -1 0
5.2941637 8.6800451 0.16320309 475 0 0 -1 0
5.1372313 8.7632065 -0.014171958 419 0 0 -1 0
5.14187 8.7711191 0.16320309 466 0 0 -1 0
5.4448452 8.5863266 0.16320309 460 0 0 -1 0
5.1449418 8.7763586 0.34071118 471 0 0 -1 0
5.2973266 8.6852303 0.34071118 463 0 0 -1 0
5.4480982 8.5914564 0.34071118 470 0 0 -1 0
-7.4128442 17.455095 0.36499 372 0 0 -1 0
-7.7135043 17.316679 0.034059644 352 0 0 -1 0
-7.4101124 17.448662 0.034059644 360 0 0 -1 0
-7.1044621 17.575329 0.034059644 364 0 0 -1 0
-7.7163486 17.323065 0.36499 357 0 0 -1 0
-7.1070819 17.581808 0.36499 366 0 0 -1 0
-7.3305073 17.489834 0.36499 375 0 0 -1 0
-7.6318159 17.352839 0.034059644 364 0 0 -1 0
-7.3278055 17.483387 0.034059644 363 0 0 -1 0
-7.0215621 17.608612 0.034059644 362 0 0 -1 0
-7.6346297 17.359236 0.36499 366 0 0 -1 0
-7.0241508 17.615105 0.36499 370 0 0 -1 0
3.5380976 28.446022 -0.30084068 595 0 0 -1 0
3.0439734 28.483177 -0.79598075 569 0 0 -1 0
3.5356486 28.426331 -0.79598075 574 0 0 -1 0
4.026268 28.361 -0.79598075 587 0 0 -1 0
3.046082 28.502907 -0.30084068 577 0 0 -1 0
4.029057 28.380646 -0.30084068 583 0 0 -1 0
3.0472813 28.51413 0.19456854 583 0 0 -1 0
3.5394907 28.457222 0.19456854 589 0 0 -1 0
3.4748037 28.464275 0.13450953 594 0 0 -1 0
2.9812005 28.507807 -0.36087489 571 0 0 -1 0
3.4733105 28.452044 -0.36087489 579 0 0 -1 0
3.9643838 28.387785 -0.36087489 593 0 0 -1 0
2.9824822 28.520063 0.13450953 569 0 0 -1 0
2.9828734 28.523806 0.6300329 569 0 0 -1 0
3.4752595 28.46801 0.6300329 586 0 0 -1 0
3.9666085 28.403715 0.6300329 584 0 0 -1 0
4.1426373 36.758686 -0.42680162 253 0 0 -1 0
3.5627518 36.798622 -1.0077105 249 0 0 -1 0
4.1403198 36.738125 -1.0077105 237 0 0 -1 0
4.7168665 36.668556 -1.0077105 231 0 0 -1 0
3.5647459 36.819218 -0.42680162 251 0 0 -1 0
4.7195067 36.689079 -0.42680162 231 0 0 -1 0
3.5658603 36.83073 0.15436038 251 0 0 -1 0
4.7209821 36.70055 0.15436038 233 0 0 -1 0
24.147305 28.645388 0.13571203 181 0 0 -1 0
23.692024 29.007921 -0.44617361 168 0 0 -1 0
24.139744 28.636417 -0.44617361 172 0 0 -1 0
24.581633 28.258007 -0.44617361 169 0 0 -1 0
23.699446 29.017008 0.13571203 170 0 0 -1 0
24.589333 28.266857 0.13571203 175 0 0 -1 0
