# .PCD v0.7 - Point Cloud Data file format
VERSION 0.7
FIELDS x y z intensity normal_x normal_y normal_z curvature
SIZE 4 4 4 4 4 4 4 4
TYPE F F F F F F F F
COUNT 1 1 1 1 1 1 1 1
WIDTH 247
HEIGHT 1
VIEWPOINT 0 0 0 1 0 0 0
POINTS 247
DATA ascii
3.621845 2.8768196 0.54268044 1298 0 0 -1 0
3.6205101 2.8757591 0.46196574 1286 0 0 -1 0
3.5710857 2.9395914 0.54268044 1297 0 0 -1 0
5.0375161 8.3048363 0.47962901 4976 0 0 -1 0
4.8900056 8.3883953 0.31012809 4737 0 0 -1 0
5.0356593 8.3017759 0.31012809 4867 0 0 -1 0
5.1797781 8.2126274 0.31012809 4913 0 0 -1 0
4.8918085 8.3914881 0.47962901 4883 0 0 -1 0
5.1816878 8.2156553 0.47962901 4899 0 0 -1 0
5.0751495 8.2818918 0.47962901 5011 0 0 -1 0
4.928021 8.3661194 0.31012809 4913 0 0 -1 0
5.0732789 8.2788401 0.31012809 4830 0 0 -1 0
5.2169924 8.1890373 0.31012809 4855 0 0 -1 0
4.9298377 8.3692036 0.47962901 4899 0 0 -1 0
5.2189159 8.1920557 0.47962901 4891 0 0 -1 0
-7.2614217 12.897471 0.41657758 14539 0 0 -1 0
-7.4826484 12.764071 0.15829045 13624 0 0 -1 0
-7.2587452 12.892717 0.15829045 14038 0 0 -1 0
-7.0326304 13.017437 0.15829045 14172 0 0 -1 0
-7.4854074 12.768778 0.41657758 14332 0 0 -1 0
-7.0352235 13.022237 0.41657758 14452 0 0 -1 0
-7.2005634 12.931547 0.41657758 14551 0 0 -1 0
-7.4224162 12.799191 0.15829045 14172 0 0 -1 0
-7.1979094 12.926781 0.15829045 13752 0 0 -1 0
-6.9712095 13.050433 0.15829045 13950 0 0 -1 0
-7.4251528 12.803909 0.41657758 14452 0 0 -1 0
-6.9737797 13.055244 0.41657758 14276 0 0 -1 0
4.7629466 19.303957 0.048094094 3755 0 0 -1 0
4.422503 19.371799 -0.29882574 3700 0 0 -1 0
4.7599144 19.291666 -0.29882574 3745 0 0 -1 0
5.0958753 19.205656 -0.29882574 3745 0 0 -1 0
4.4253206 19.38414 0.048094094 3667 0 0 -1 0
5.099122 19.217892 0.048094094 3695 0 0 -1 0
4.4267907 19.390579 0.39518201 3701 0 0 -1 0
4.7645292 19.310369 0.39518201 3671 0 0 -1 0
5.1008158 19.224276 0.39518201 3746 0 0 -1 0
-7.8905272 24.327881 7.0098872 865 0 0 -1 0
-8.3490038 24.288576 6.5625567 830 0 0 -1 0
-7.9238391 24.430588 6.5625567 828 0 0 -1 0
-7.4962587 24.565157 6.5625567 834 0 0 -1 0
-8.3139048 24.186468 7.0098872 851 0 0 -1 0
-7.4647446 24.461885 7.0098872 850 0 0 -1 0
-7.7800488 24.363436 7.0098872 864 0 0 -1 0
-8.2387009 24.326212 6.5625567 834 0 0 -1 0
-7.8128943 24.466291 6.5625567 831 0 0 -1 0
-7.3847094 24.598919 6.5625567 829 0 0 -1 0
-8.2040653 24.223946 7.0098872 850 0 0 -1 0
-7.3536639 24.495504 7.0098872 841 0 0 -1 0
-12.041636 50.860394 -0.047710359 142 125.4944 -530.05212 6.7502475 -10.421707
-12.676822 50.693161 -0.70444137 134 132.11412 -528.30927 13.594505 -10.421707
-12.038809 50.848457 -0.70444137 137 125.46494 -529.92773 13.594505 -10.421707
-11.398894 50.99572 -0.70444137 139 118.79594 -531.46246 13.594505 -10.421707
-12.679797 50.705059 -0.047710359 140 132.14513 -528.43329 6.7502475 -10.421707
-11.40157 51.00769 -0.047710359 140 118.82383 -531.58722 6.7502475 -10.421707
-4.1332436 87.32132 -0.48333853 1059 0 0 -1 0
-4.6204786 87.289467 -0.97155935 1043 0 0 -1 0
-4.1328931 87.313911 -0.97155935 1012 0 0 -1 0
-3.6451778 87.335632 -0.97155935 1019 0 0 -1 0
-4.6208706 87.296875 -0.48333853 1048 0 0 -1 0
-3.6454871 87.34304 -0.48333853 1048 0 0 -1 0
4.852735 7.8756824 0.48536098 3891 0 0 -1 0
4.7128081 7.9562411 0.32393149 3762 0 0 -1 0
4.8509464 7.8727798 0.32393149 3815 0 0 -1 0
4.987606 7.7869201 0.32393149 3832 0 0 -1 0
4.7145457 7.9591742 0.48536098 3846 0 0 -1 0
4.9894452 7.7897911 0.48536098 3851 0 0 -1 0
5.4193177 7.4892445 0.23840484 2956 0 0 -1 0
5.283371 7.5763531 0.077124 2911 0 0 -1 0
5.4147925 7.4829912 0.077124 2945 0 0 -1 0
5.5445638 7.3873506 0.077124 2915 0 0 -1 0
5.2877865 7.582684 0.23840484 2919 0 0 -1 0
5.5491977 7.3935242 0.23840484 2915 0 0 -1 0
5.2905908 7.5867057 0.39979586 2953 0 0 -1 0
5.4221916 7.4932165 0.39979586 2921 0 0 -1 0
5.5521407 7.3974452 0.39979586 2906 0 0 -1 0
4.1979361 10.276473 0.46243316 1080 0 0 -1 0
4.0164661 10.344358 0.26871783 1034 0 0 -1 0
4.1963887 10.272685 0.26871783 1026 0 0 -1 0
4.3750329 10.197884 0.26871783 1049 0 0 -1 0
4.0179472 10.348172 0.46243316 1045 0 0 -1 0
4.376646 10.201644 0.46243316 1077 0 0 -1 0
-7.0345025 12.494426 0.42230952 828 0 0 -1 0
-7.2488155 12.365195 0.17209384 774 0 0 -1 0
-7.0319099 12.48982 0.17209384 797 0 0 -1 0
-6.812861 12.610642 0.17209384 808 0 0 -1 0
-7.2514882 12.369754 0.42230952 812 0 0 -1 0
-6.8153729 12.615292 0.42230952 824 0 0 -1 0
-6.9755454 12.527436 0.42230952 836 0 0 -1 0
-7.1904659 12.399217 0.17209384 808 0 0 -1 0
-6.9729743 12.52282 0.17209384 791 0 0 -1 0
-6.7533593 12.642607 0.17209384 802 0 0 -1 0
-7.1931171 12.403788 0.42230952 824 0 0 -1 0
-6.7558494 12.647268 0.42230952 816 0 0 -1 0
-7.4883409 13.300517 0.41084564 2737 0 0 -1 0
-7.7164817 13.16295 0.14448702 2572 0 0 -1 0
-7.4855809 13.295615 0.14448702 2637 0 0 -1 0
-7.2524004 13.424232 0.14448702 2665 0 0 -1 0
-7.7193265 13.167803 0.41084564 2696 0 0 -1 0
-7.2550745 13.429182 0.41084564 2713 0 0 -1 0
-7.4255805 13.335657 0.41084564 2741 0 0 -1 0
-7.654367 13.199165 0.14448702 2665 0 0 -1 0
-7.4228439 13.330743 0.14448702 2587 0 0 -1 0
-7.1890597 13.458259 0.14448702 2627 0 0 -1 0
-7.6571889 13.204032 0.41084564 2713 0 0 -1 0
-7.1917105 13.463221 0.41084564 2683 0 0 -1 0
-8.069087 19.000357 -2.0773635 306 0 0 -1 0
-8.3994598 18.856638 -2.0773635 299 0 0 -1 0
-7.7362556 19.138288 -2.0773635 302 0 0 -1 0
-8.4171934 18.896448 -1.7166898 291 0 0 -1 0
-8.0861225 19.04047 -1.7166898 290 0 0 -1 0
-7.7525887 19.178694 -1.7166898 301 0 0 -1 0
-7.9794607 19.03817 -2.0773635 309 0 0 -1 0
-8.3105059 18.896009 -2.0773635 302 0 0 -1 0
-7.6459832 19.17453 -2.0773635 307 0 0 -1 0
-8.3280516 18.935904 -1.7166898 301 0 0 -1 0
-7.9963074 19.078363 -1.7166898 300 0 0 -1 0
-7.6621261 19.215012 -1.7166898 299 0 0 -1 0
-7.3082385 25.303411 1.8328393 43 2.9045715 -10.056537 -0.48997715 -0.39743799
-7.3130956 25.320229 1.3729956 41 2.906502 -10.063221 -0.30721784 -0.39743799
-6.8700833 25.444002 1.3729956 41 2.730432 -10.112413 -0.30721784 -0.39743799
-7.7487307 25.172012 1.8328393 42 3.0796399 -10.004314 -0.48997715 -0.39743799
-6.8655205 25.427103 1.8328393 40 2.7286186 -10.105697 -0.48997715 -0.39743799
-7.7412205 25.147614 2.2923071 42 3.0766551 -9.9946165 -0.67258716 -0.39743799
-7.3011556 25.278887 2.2923071 41 2.9017565 -10.04679 -0.67258716 -0.39743799
-6.8588662 25.402458 2.2923071 41 2.7259741 -10.095901 -0.67258716 -0.39743799
-7.3022022 25.282511 2.2326024 43 2.9021726 -10.04823 -0.64885825 -0.39743799
-7.3089962 25.306034 1.7730777 41 2.9048727 -10.057579 -0.46622565 -0.39743799
-6.8662319 25.429739 1.7730777 40 2.7289014 -10.106745 -0.46622565 -0.39743799
-7.7423301 25.151218 2.2326024 41 3.077096 -9.9960499 -0.64885825 -0.39743799
-6.8598495 25.406101 2.2326024 39 2.7263649 -10.09735 -0.64885825 -0.39743799
-7.7327681 25.120155 2.6916299 41 3.0732958 -9.9837036 -0.83129323 -0.39743799
-7.2931833 25.251286 2.6916299 42 2.8985882 -10.03582 -0.83129323 -0.39743799
-7.3558249 25.253096 2.4346442 42 2.9234843 -10.03654 -0.72915733 -0.39743799
-7.8037333 25.147625 1.9753211 41 3.1015 -9.9946213 -0.54660481 -0.39743799
-7.3636589 25.279989 1.9753211 41 2.9265978 -10.047228 -0.54660481 -0.39743799
-7.7954316 25.120872 2.4346442 39 3.0982006 -9.9839888 -0.72915733 -0.39743799
-6.9139771 25.377626 2.4346442 38 2.7478771 -10.086033 -0.72915733 -0.39743799
-7.7847543 25.086466 2.8934083 40 3.0939572 -9.970315 -0.91148764 -0.39743799
-7.3457503 25.218508 2.8934083 40 2.9194803 -10.022793 -0.91148764 -0.39743799
-6.9045076 25.342869 2.8934083 37 2.7441137 -10.072219 -0.91148764 -0.39743799
-12.275356 50.317371 -0.63866073 32 127.93017 -524.39288 12.908959 -10.421707
-11.6288 50.450207 -1.2984328 29 121.19196 -525.77728 19.78491 -10.421707
-12.915432 50.156891 -0.63866073 29 134.60085 -522.7204 12.908959 -10.421707
-11.633289 50.469681 -0.63866073 30 121.23873 -525.98022 12.908959 -10.421707
-12.91832 50.168102 0.021312416 31 134.63095 -522.83728 6.0309124 -10.421707
-11.933584 50.404018 -0.43978113 35 124.36832 -525.2959 10.836294 -10.421707
-12.570554 50.230953 -1.0996251 31 131.00664 -523.49231 17.712994 -10.421707
-11.929564 50.387035 -1.0996251 32 124.32642 -525.1189 17.712994 -10.421707
-11.286635 50.534935 -1.0996251 32 117.62601 -526.66028 17.712994 -10.421707
-12.574791 50.247887 -0.43978113 33 131.05078 -523.66876 10.836294 -10.421707
-11.29044 50.551968 -0.43978113 32 117.66566 -526.83783 10.836294 -10.421707
-11.935668 50.412819 0.22023177 34 124.39004 -525.38763 3.9578328 -10.421707
-11.292411 50.560795 0.22023177 33 117.6862 -526.92981 3.9578328 -10.421707
-12.277925 50.327896 -0.041978419 34 127.95693 -524.50262 6.6905107 -10.421707
-12.915046 50.155392 -0.70193714 32 134.59682 -522.70483 13.568407 -10.421707
-12.274989 50.315865 -0.70193714 32 127.92634 -524.3772 13.568407 -10.421707
-12.918134 50.167381 -0.041978419 33 134.62901 -522.82977 6.6905107 -10.421707
-12.049418 50.383091 -0.041978419 36 125.57551 -525.07782 6.6905107 -10.421707
-12.687316 50.213482 -0.70193714 34 132.2235 -523.31018 13.568407 -10.421707
-12.046538 50.371048 -0.70193714 35 125.54549 -524.95233 13.568407 -10.421707
-11.403805 50.520439 -0.70193714 34 118.84711 -526.50922 13.568407 -10.421707
-12.690349 50.225487 -0.041978419 34 132.2551 -523.4353 6.6905107 -10.421707
-11.406531 50.532516 -0.041978419 33 118.87553 -526.63507 6.6905107 -10.421707
-11.820663 50.437252 -0.041978419 34 123.19149 -525.64227 6.6905107 -10.421707
-11.817839 50.425194 -0.70193714 33 123.16206 -525.5166 13.568407 -10.421707
-11.174434 50.571667 -0.70193714 32 116.45667 -527.04309 13.568407 -10.421707
-12.462303 50.282555 -0.041978419 33 129.87848 -524.03003 6.6905107 -10.421707
-11.177105 50.583759 -0.041978419 33 116.48451 -527.16913 6.6905107 -10.421707
-4.1105146 86.841133 -1.4791806 56 0 0 -1 0
-3.6248996 86.849785 -1.9647012 51 0 0 -1 0
-4.5954604 86.816826 -1.4791806 55 0 0 -1 0
-4.5960026 86.827072 -0.99359506 54 0 0 -1 0
-4.1109996 86.851379 -0.99359506 54 0 0 -1 0
-3.3070486 86.87545 -1.4791806 57 0 0 -1 0
-3.7916324 86.842659 -1.9647012 53 0 0 -1 0
-3.3065553 86.862488 -1.9647012 51 0 0 -1 0
-2.8217955 86.892555 -1.4791806 56 0 0 -1 0
-3.7926457 86.865868 -0.99359506 56 0 0 -1 0
-2.8221283 86.902809 -0.99359506 56 0 0 -1 0
-3.9140713 86.863632 -0.81148702 62 0 0 -1 0
-3.9136553 86.854401 -1.2970927 56 0 0 -1 0
-3.4285107 86.874901 -1.2970927 58 0 0 -1 0
-4.3991461 86.840408 -0.81148702 61 0 0 -1 0
-4.3994761 86.846931 -0.32583725 61 0 0 -1 0
-3.9143651 86.870155 -0.32583725 61 0 0 -1 0
-3.5198574 86.880501 -0.81148702 63 0 0 -1 0
-4.0046072 86.850258 -1.2970927 58 0 0 -1 0
-3.5194833 86.871262 -1.2970927 56 0 0 -1 0
-3.0342503 86.889572 -1.2970927 57 0 0 -1 0
-4.0050325 86.859489 -0.81148702 62 0 0 -1 0
-3.0345728 86.898804 -0.81148702 61 0 0 -1 0
-4.0053334 86.866013 -0.32583725 62 0 0 -1 0
-3.5201216 86.887016 -0.32583725 61 0 0 -1 0
-3.0348005 86.905327 -0.32583725 60 0 0 -1 0
-3.9559278 87.792542 -0.48907048 140 0 0 -1 0
-4.4305091 87.76268 -0.96453756 133 0 0 -1 0
-3.9556048 87.78537 -0.96453756 137 0 0 -1 0
-3.4805844 87.805481 -0.96453756 133 0 0 -1 0
-3.4808686 87.812653 -0.48907048 135 0 0 -1 0
5.2941637 8.6800451 0.16320309 473 0 0 -1 0
5.1372313 8.7632065 -0.014171958 418 0 0 -1 0
5.14187 8.7711191 0.16320309 465 0 0 -1 0
5.4448452 8.5863266 0.16320309 456 0 0 -1 0
5.1449418 8.7763586 0.34071118 471 0 0 -1 0
5.2973266 8.6852303 0.34071118 461 0 0 -1 0
5.4480982 8.5914564 0.34071118 469 0 0 -1 0
-7.5232372 14.854803 0.39364976 483 0 0 -1 0
-7.7784753 14.715816 0.10307676 448 0 0 -1 0
-7.5204644 14.849328 0.10307676 462 0 0 -1 0
-7.2601619 14.978317 0.10307676 479 0 0 -1 0
-7.781343 14.721242 0.39364976 458 0 0 -1 0
-7.3305073 17.489834 0.36499 373 0 0 -1 0
-7.6318159 17.352839 0.034059644 363 0 0 -1 0
-7.3278055 17.483387 0.034059644 365 0 0 -1 0
-7.0215621 17.608612 0.034059644 362 0 0 -1 0
-7.6346297 17.359236 0.36499 371 0 0 -1 0
-7.0241508 17.615105 0.36499 368 0 0 -1 0
-7.5530558 17.898014 0.35925806 2016 0 0 -1 0
-7.8613696 17.75692 0.020256221 1985 0 0 -1 0
-7.550272 17.891417 0.020256221 1958 0 0 -1 0
-7.2368736 18.020462 0.020256221 1990 0 0 -1 0
-7.8642683 17.763468 0.35925806 2001 0 0 -1 0
-7.2395415 18.027105 0.35925806 2004 0 0 -1 0
3.3525579 27.99073 -0.61111861 406 0 0 -1 0
2.8635416 28.044977 -0.61111861 397 0 0 -1 0
3.840553 27.927958 -0.61111861 402 0 0 -1 0
2.8652525 28.061733 -0.11893713 398 0 0 -1 0
3.3545606 28.007452 -0.11893713 405 0 0 -1 0
3.8428473 27.944643 -0.11893713 395 0 0 -1 0
3.4800892 27.979637 -0.50286514 415 0 0 -1 0
2.9887493 28.012701 -0.99477178 402 0 0 -1 0
3.4771833 27.956274 -0.99477178 405 0 0 -1 0
3.9645576 27.891331 -0.99477178 404 0 0 -1 0
2.9912469 28.03611 -0.50286514 395 0 0 -1 0
3.9678707 27.914639 -0.50286514 412 0 0 -1 0
2.9928334 28.05098 -0.010622561 408 0 0 -1 0
3.4819348 27.994476 -0.010622561 405 0 0 -1 0
3.9699752 27.929443 -0.010622561 403 0 0 -1 0
3.354691 28.008539 -0.074627817 399 0 0 -1 0
2.8637314 28.046835 -0.56683522 392 0 0 -1 0
3.3527799 27.992582 -0.56683522 392 0 0 -1 0
3.8408072 27.929808 -0.56683522 396 0 0 -1 0
2.8653636 28.062822 -0.074627817 389 0 0 -1 0
3.8429966 27.945726 -0.074627817 390 0 0 -1 0
2.8661232 28.070261 0.41778514 382 0 0 -1 0
3.3555801 28.015965 0.41778514 374 0 0 -1 0
3.8440154 27.953135 0.41778514 370 0 0 -1 0
