# .PCD v0.7 - Point Cloud Data file format
VERSION 0.7
FIELDS x y z intensity normal_x normal_y normal_z curvature
SIZE 4 4 4 4 4 4 4 4
TYPE F F F F F F F F
COUNT 1 1 1 1 1 1 1 1
WIDTH 237
HEIGHT 1
VIEWPOINT 0 0 0 1 0 0 0
POINTS 237
DATA ascii
3.6153085 2.8850298 0.54268044 1308 0 0 -1 0
3.5630932 2.9466 0.46196574 1280 0 0 -1 0
3.613976 2.8839664 0.46196574 1307 0 0 -1 0
5.0375161 8.3048363 0.47962901 4977 0 0 -1 0
4.8900056 8.3883953 0.31012809 4735 0 0 -1 0
5.0356593 8.3017759 0.31012809 4848 0 0 -1 0
5.1797781 8.2126274 0.31012809 4903 0 0 -1 0
4.8918085 8.3914881 0.47962901 4867 0 0 -1 0
5.1816878 8.2156553 0.47962901 4907 0 0 -1 0
5.0751495 8.2818918 0.47962901 5004 0 0 -1 0
4.928021 8.3661194 0.31012809 4903 0 0 -1 0
5.0732789 8.2788401 0.31012809 4843 0 0 -1 0
5.2169924 8.1890373 0.31012809 4835 0 0 -1 0
4.9298377 8.3692036 0.47962901 4907 0 0 -1 0
5.2189159 8.1920557 0.47962901 4890 0 0 -1 0
-7.2614217 12.897471 0.41657758 14541 0 0 -1 0
-7.4826484 12.764071 0.15829045 13624 0 0 -1 0
-7.2587452 12.892717 0.15829045 14048 0 0 -1 0
-7.0326304 13.017437 0.15829045 14179 0 0 -1 0
-7.4854074 12.768778 0.41657758 14341 0 0 -1 0
-7.0352235 13.022237 0.41657758 14465 0 0 -1 0
-7.2005634 12.931547 0.41657758 14553 0 0 -1 0
-7.4224162 12.799191 0.15829045 14179 0 0 -1 0
-7.1979094 12.926781 0.15829045 13749 0 0 -1 0
-6.9712095 13.050433 0.15829045 13949 0 0 -1 0
-7.4251528 12.803909 0.41657758 14465 0 0 -1 0
-6.9737797 13.055244 0.41657758 14278 0 0 -1 0
4.7629466 19.303957 0.048094094 3696 0 0 -1 0
4.422503 19.371799 -0.29882574 3650 0 0 -1 0
4.7599144 19.291666 -0.29882574 3679 0 0 -1 0
5.0958753 19.205656 -0.29882574 3678 0 0 -1 0
4.4253206 19.38414 0.048094094 3598 0 0 -1 0
5.099122 19.217892 0.048094094 3629 0 0 -1 0
4.4267907 19.390579 0.39518201 3649 0 0 -1 0
4.7645292 19.310369 0.39518201 3618 0 0 -1 0
5.1008158 19.224276 0.39518201 3681 0 0 -1 0
-1.525932 20.294247 0.34779418 823 8.2209473 -109.33511 1.3587568 -5.3874927
-1.8791903 20.257057 -0.0073506236 801 10.124125 -109.13475 3.2720969 -5.3874927
-1.5253695 20.286768 -0.0073506236 818 8.2179174 -109.29482 3.2720969 -5.3874927
-1.1710843 20.310299 -0.0073506236 804 6.3092079 -109.42159 3.2720969 -5.3874927
-1.8798832 20.264524 0.34779418 819 10.127857 -109.17498 1.3587568 -5.3874927
-1.1715161 20.317787 0.34779418 810 6.3115344 -109.46193 1.3587568 -5.3874927
-7.4849877 22.370272 0.3076705 1254 0 0 -1 0
-7.8713613 22.228037 -0.10397464 1204 0 0 -1 0
-7.4822288 22.362026 -0.10397464 1223 0 0 -1 0
-7.0908179 22.489202 -0.10397464 1210 0 0 -1 0
-7.8742633 22.236233 0.3076705 1240 0 0 -1 0
-7.0934324 22.497494 0.3076705 1244 0 0 -1 0
-2.2242212 49.36137 3.4750051 240 0 0 -1 0
-2.8720911 49.36137 2.8279831 214 0 0 -1 0
-2.2257249 49.394741 2.8279831 226 0 0 -1 0
-1.5789768 49.41964 2.8279831 224 0 0 -1 0
-2.8701508 49.328026 3.4750051 225 0 0 -1 0
-1.5779102 49.386253 3.4750051 227 0 0 -1 0
-2.2223368 49.31955 4.1215353 233 0 0 -1 0
-1.5765733 49.34441 4.1215353 232 0 0 -1 0
-2.1026001 49.343147 3.8543699 255 0 0 -1 0
-2.7504368 49.349709 3.2076228 233 0 0 -1 0
-2.1042335 49.381477 3.2076228 232 0 0 -1 0
-1.4576697 49.404793 3.2076228 242 0 0 -1 0
-2.748302 49.311401 3.8543699 250 0 0 -1 0
-1.4565382 49.36644 3.8543699 245 0 0 -1 0
-2.7456958 49.264641 4.5005589 252 0 0 -1 0
-2.1006064 49.296356 4.5005589 250 0 0 -1 0
-1.455157 49.31963 4.5005589 234 0 0 -1 0
-2.3344922 49.319843 4.0439811 262 0 0 -1 0
-2.9823341 49.325836 3.3973863 238 0 0 -1 0
-2.3364234 49.360645 3.3973863 243 0 0 -1 0
-1.6901122 49.387001 3.3973863 250 0 0 -1 0
-2.9798689 49.285061 4.0439811 250 0 0 -1 0
-1.6887152 49.346176 4.0439811 252 0 0 -1 0
-2.3321607 49.270588 4.6899858 252 0 0 -1 0
-1.6870286 49.296894 4.6899858 260 0 0 -1 0
-3.9317827 87.256699 4.3524818 188 0 0 -1 0
-4.4190521 87.233368 4.3524818 187 0 0 -1 0
-4.4179225 87.211075 4.8402486 176 0 0 -1 0
-3.9307778 87.234398 4.8402486 185 0 0 -1 0
-3.4435105 87.254982 4.8402486 186 0 0 -1 0
-3.535785 87.273636 4.3524818 202 0 0 -1 0
-4.0231557 87.252525 4.3524818 188 0 0 -1 0
-3.0483046 87.292023 4.3524818 196 0 0 -1 0
-4.0221272 87.230225 4.8402486 186 0 0 -1 0
-3.5348811 87.251328 4.8402486 194 0 0 -1 0
-3.0475254 87.269714 4.8402486 192 0 0 -1 0
-3.12448 87.28933 4.3524818 201 0 0 -1 0
-3.6119444 87.270515 4.3524818 196 0 0 -1 0
-2.6369183 87.30542 4.3524818 197 0 0 -1 0
-3.6110213 87.248207 4.8402486 192 0 0 -1 0
-3.1236815 87.267021 4.8402486 193 0 0 -1 0
-2.6362445 87.283104 4.8402486 191 0 0 -1 0
-3.5322554 87.186516 6.0133662 166 0 0 -1 0
-4.0204692 87.194275 5.5259438 164 0 0 -1 0
-3.0462692 87.233742 5.5259438 163 0 0 -1 0
-4.0191393 87.165428 6.0133662 152 0 0 -1 0
-3.0452616 87.204887 6.0133662 153 0 0 -1 0
-4.0176845 87.133865 6.5006199 152 0 0 -1 0
4.852735 7.8756824 0.48536098 3877 0 0 -1 0
4.7128081 7.9562411 0.32393149 3759 0 0 -1 0
4.8509464 7.8727798 0.32393149 3799 0 0 -1 0
4.987606 7.7869201 0.32393149 3824 0 0 -1 0
4.7145457 7.9591742 0.48536098 3849 0 0 -1 0
4.9894452 7.7897911 0.48536098 3835 0 0 -1 0
5.4184637 7.4880648 0.20291188 2959 0 0 -1 0
5.2869534 7.5814896 0.20291188 2902 0 0 -1 0
5.5483232 7.3923593 0.20291188 2912 0 0 -1 0
5.290112 7.586019 0.36428288 2926 0 0 -1 0
5.421701 7.4925385 0.36428288 2952 0 0 -1 0
5.5516381 7.3967757 0.36428288 2936 0 0 -1 0
5.401773 7.5035357 0.2739031 2954 0 0 -1 0
5.2659492 7.5908341 0.11259383 2894 0 0 -1 0
5.3976254 7.4977741 0.11259383 2926 0 0 -1 0
5.527657 7.4024305 0.11259383 2952 0 0 -1 0
5.2699957 7.5966668 0.2739031 2835 0 0 -1 0
5.5319047 7.4081187 0.2739031 2939 0 0 -1 0
5.2724371 7.6001863 0.43531179 2880 0 0 -1 0
5.4042754 7.5070119 0.43531179 2900 0 0 -1 0
5.5344677 7.411551 0.43531179 2927 0 0 -1 0
4.1979361 10.276473 0.46243316 4320 0 0 -1 0
4.0164661 10.344358 0.26871783 4132 0 0 -1 0
4.1963887 10.272685 0.26871783 4117 0 0 -1 0
4.3750329 10.197884 0.26871783 4193 0 0 -1 0
4.0179472 10.348172 0.46243316 4167 0 0 -1 0
4.376646 10.201644 0.46243316 4303 0 0 -1 0
-7.0345025 12.494426 0.42230952 3313 0 0 -1 0
-7.2488155 12.365195 0.17209384 3104 0 0 -1 0
-7.0319099 12.48982 0.17209384 3196 0 0 -1 0
-6.812861 12.610642 0.17209384 3235 0 0 -1 0
-7.2514882 12.369754 0.42230952 3258 0 0 -1 0
-6.8153729 12.615292 0.42230952 3292 0 0 -1 0
-6.9755454 12.527436 0.42230952 3340 0 0 -1 0
-7.1904659 12.399217 0.17209384 3235 0 0 -1 0
-6.9729743 12.52282 0.17209384 3166 0 0 -1 0
-6.7533593 12.642607 0.17209384 3221 0 0 -1 0
-7.1931171 12.403788 0.42230952 3292 0 0 -1 0
-6.7558494 12.647268 0.42230952 3274 0 0 -1 0
-7.4883409 13.300517 0.41084564 2740 0 0 -1 0
-7.7164817 13.16295 0.14448702 2573 0 0 -1 0
-7.4855809 13.295615 0.14448702 2641 0 0 -1 0
-7.2524004 13.424232 0.14448702 2668 0 0 -1 0
-7.7193265 13.167803 0.41084564 2699 0 0 -1 0
-7.2550745 13.429182 0.41084564 2718 0 0 -1 0
-7.4255805 13.335657 0.41084564 2743 0 0 -1 0
-7.654367 13.199165 0.14448702 2668 0 0 -1 0
-7.4228439 13.330743 0.14448702 2587 0 0 -1 0
-7.1890597 13.458259 0.14448702 2625 0 0 -1 0
-7.6571889 13.204032 0.41084564 2718 0 0 -1 0
-7.1917105 13.463221 0.41084564 2687 0 0 -1 0
-0.27870923 49.902176 2.9359057 54 0 0 -1 0
-0.93237591 49.920555 2.2824962 49 0 0 -1 0
-0.27885613 49.928478 2.2824962 51 0 0 -1 0
0.37471139 49.927856 2.2824962 52 0 0 -1 0
-0.93188471 49.89426 2.9359057 50 0 0 -1 0
0.37451398 49.901558 2.9359057 51 0 0 -1 0
-0.93123388 49.859413 3.5889151 52 0 0 -1 0
-0.27851459 49.867329 3.5889151 53 0 0 -1 0
0.37425244 49.866707 3.5889151 53 0 0 -1 0
0.069677651 49.902912 2.9359057 53 0 0 -1 0
-0.58384478 49.92585 2.2824962 51 0 0 -1 0
0.069714375 49.929214 2.2824962 50 0 0 -1 0
0.72326159 49.924023 2.2824962 50 0 0 -1 0
-0.58353722 49.899548 2.9359057 51 0 0 -1 0
0.7228806 49.897724 2.9359057 49 0 0 -1 0
0.069628991 49.868061 3.5889151 52 0 0 -1 0
0.72237575 49.862877 3.5889151 51 0 0 -1 0
-0.052248463 49.893593 3.1275017 53 0 0 -1 0
-0.70573819 49.917439 2.4741979 51 0 0 -1 0
-0.052278634 49.922401 2.4741979 51 0 0 -1 0
0.60084295 49.890003 3.1275017 52 0 0 -1 0
-0.70480275 49.85128 3.7803726 52 0 0 -1 0
-0.052209344 49.856236 3.7803726 52 0 0 -1 0
-0.052227128 49.873222 3.5018744 55 0 0 -1 0
-0.7055195 49.901974 2.8488054 52 0 0 -1 0
-0.052262433 49.906933 2.8488054 52 0 0 -1 0
0.60100359 49.903339 2.8488054 53 0 0 -1 0
-0.7050429 49.868263 3.5018744 53 0 0 -1 0
0.60059756 49.869629 3.5018744 52 0 0 -1 0
-0.70444554 49.826012 4.1544466 54 0 0 -1 0
-0.052182879 49.830963 4.1544466 54 0 0 -1 0
0.60008872 49.827377 4.1544466 52 0 0 -1 0
-0.15660655 49.849247 3.8847845 54 0 0 -1 0
-0.80972815 49.881649 3.231993 51 0 0 -1 0
-0.80909961 49.84293 3.8847845 52 0 0 -1 0
0.49591339 49.847027 3.8847845 53 0 0 -1 0
-0.80833238 49.795666 4.5370131 51 0 0 -1 0
-0.15645806 49.801979 4.5370131 51 0 0 -1 0
0.49544314 49.799763 4.5370131 53 0 0 -1 0
0.069603004 49.849449 3.8847845 54 0 0 -1 0
0.069657072 49.888172 3.231993 52 0 0 -1 0
0.72266704 49.882984 3.231993 51 0 0 -1 0
-0.58291203 49.846088 3.8847845 53 0 0 -1 0
0.7221061 49.844265 3.8847845 51 0 0 -1 0
-0.58235931 49.798824 4.5370131 53 0 0 -1 0
0.069536999 49.802181 4.5370131 50 0 0 -1 0
0.72142142 49.797001 4.5370131 49 0 0 -1 0
5.2941637 8.6800451 0.16320309 476 0 0 -1 0
5.14187 8.7711191 0.16320309 468 0 0 -1 0
5.4448452 8.5863266 0.16320309 464 0 0 -1 0
5.2973266 8.6852303 0.34071118 461 0 0 -1 0
5.4480982 8.5914564 0.34071118 474 0 0 -1 0
5.2737699 8.6943235 0.20224532 476 0 0 -1 0
5.1169529 8.7777052 0.024836421 462 0 0 -1 0
5.2693663 8.6870642 0.024836421 468 0 0 -1 0
5.1212292 8.7850409 0.20224532 461 0 0 -1 0
5.4247026 8.6009598 0.20224532 461 0 0 -1 0
5.1239452 8.7896996 0.37977546 465 0 0 -1 0
5.276567 8.6989346 0.37977546 464 0 0 -1 0
5.4275799 8.6055212 0.37977546 472 0 0 -1 0
-7.4895124 14.871835 0.39364976 497 0 0 -1 0
-7.7450657 14.733427 0.10307676 468 0 0 -1 0
-7.486752 14.866353 0.10307676 481 0 0 -1 0
-7.2261591 14.99475 0.10307676 488 0 0 -1 0
-7.747921 14.738859 0.39364976 478 0 0 -1 0
-7.2288232 15.000278 0.39364976 494 0 0 -1 0
-7.3305073 17.489834 0.36499 374 0 0 -1 0
-7.6318159 17.352839 0.034059644 365 0 0 -1 0
-7.3278055 17.483387 0.034059644 367 0 0 -1 0
-7.0215621 17.608612 0.034059644 361 0 0 -1 0
-7.6346297 17.359236 0.36499 372 0 0 -1 0
-7.0241508 17.615105 0.36499 372 0 0 -1 0
-9.8130188 20.920029 1.5927202 97 0 0 -1 0
-10.176629 20.745581 1.5927202 96 0 0 -1 0
-9.4464178 21.088104 1.5927202 96 0 0 -1 0
-10.167449 20.726866 1.9958453 93 0 0 -1 0
-9.8041658 20.901157 1.9958453 90 0 0 -1 0
-7.6317515 22.808903 0.30193856 324 0 0 -1 0
-8.0257015 22.663879 -0.11777806 315 0 0 -1 0
-7.6289387 22.800495 -0.11777806 318 0 0 -1 0
-7.2298536 22.930166 -0.11777806 313 0 0 -1 0
-8.0286608 22.672235 0.30193856 322 0 0 -1 0
-7.2325191 22.938622 0.30193856 320 0 0 -1 0
4.0582638 36.759296 -0.70438749 61 0 0 -1 0
3.4780159 36.793564 -1.2851245 58 0 0 -1 0
4.0555148 36.734398 -1.2851245 57 0 0 -1 0
4.6320133 36.666161 -1.2851245 58 0 0 -1 0
4.6351528 36.691013 -0.70438749 58 0 0 -1 0
4.0600114 36.775127 -0.12332851 60 0 0 -1 0
4.6371493 36.706814 -0.12332851 60 0 0 -1 0
