# .PCD v0.7 - Point Cloud Data file format
VERSION 0.7
FIELDS x y z intensity normal_x normal_y normal_z curvature
SIZE 4 4 4 4 4 4 4 4
TYPE F F F F F F F F
COUNT 1 1 1 1 1 1 1 1
WIDTH 249
HEIGHT 1
VIEWPOINT 0 0 0 1 0 0 0
POINTS 249
DATA ascii
3.6151097 2.8848712 0.52492088 1307 0 0 -1 0
3.5626585 2.9462404 0.44421327 1267 0 0 -1 0
3.6135352 2.8836145 0.44421327 1267 0 0 -1 0
3.5642111 2.9475243 0.52492088 1281 0 0 -1 0
3.5646777 2.9479103 0.60565132 1303 0 0 -1 0
3.6153085 2.8850298 0.54268044 1307 0 0 -1 0
3.5630932 2.9466 0.46196574 1281 0 0 -1 0
3.5644069 2.9476864 0.54268044 1303 0 0 -1 0
5.0375161 8.3048363 0.47962901 4973 0 0 -1 0
4.8900056 8.3883953 0.31012809 4740 0 0 -1 0
5.0356593 8.3017759 0.31012809 4851 0 0 -1 0
5.1797781 8.2126274 0.31012809 4898 0 0 -1 0
4.8918085 8.3914881 0.47962901 4873 0 0 -1 0
5.1816878 8.2156553 0.47962901 4912 0 0 -1 0
5.0751495 8.2818918 0.47962901 5012 0 0 -1 0
4.928021 8.3661194 0.31012809 4898 0 0 -1 0
5.0732789 8.2788401 0.31012809 4853 0 0 -1 0
5.2169924 8.1890373 0.31012809 4840 0 0 -1 0
4.9298377 8.3692036 0.47962901 4912 0 0 -1 0
5.2189159 8.1920557 0.47962901 4897 0 0 -1 0
-7.2614217 12.897471 0.41657758 14542 0 0 -1 0
-7.4826484 12.764071 0.15829045 13632 0 0 -1 0
-7.2587452 12.892717 0.15829045 14048 0 0 -1 0
-7.0326304 13.017437 0.15829045 14185 0 0 -1 0
-7.4854074 12.768778 0.41657758 14336 0 0 -1 0
-7.0352235 13.022237 0.41657758 14458 0 0 -1 0
-7.2005634 12.931547 0.41657758 14559 0 0 -1 0
-7.4224162 12.799191 0.15829045 14185 0 0 -1 0
-7.1979094 12.926781 0.15829045 13748 0 0 -1 0
-6.9712095 13.050433 0.15829045 13949 0 0 -1 0
-7.4251528 12.803909 0.41657758 14458 0 0 -1 0
-6.9737797 13.055244 0.41657758 14282 0 0 -1 0
4.7624302 19.301863 -0.024776578 3745 0 0 -1 0
4.4217401 19.368456 -0.3716476 3655 0 0 -1 0
4.7590928 19.288336 -0.3716476 3706 0 0 -1 0
5.094996 19.202341 -0.3716476 3744 0 0 -1 0
4.4248409 19.382038 -0.024776578 3697 0 0 -1 0
5.0985689 19.215807 -0.024776578 3727 0 0 -1 0
4.4265938 19.389717 0.32228485 3659 0 0 -1 0
4.764317 19.309509 0.32228485 3744 0 0 -1 0
5.1005888 19.223421 0.32228485 3683 0 0 -1 0
-7.4849877 22.370272 0.3076705 1266 0 0 -1 0
-7.8713613 22.228037 -0.10397464 1203 0 0 -1 0
-7.4822288 22.362026 -0.10397464 1235 0 0 -1 0
-7.0908179 22.489202 -0.10397464 1225 0 0 -1 0
-7.0934324 22.497494 0.3076705 1260 0 0 -1 0
-7.8353086 24.34572 7.0098872 944 0 0 -1 0
-8.2938738 24.307457 6.5625567 915 0 0 -1 0
-7.8683872 24.448502 6.5625567 935 0 0 -1 0
-7.4405036 24.582102 6.5625567 921 0 0 -1 0
-8.2590065 24.205269 7.0098872 937 0 0 -1 0
-7.409224 24.47876 7.0098872 943 0 0 -1 0
-4.1332436 87.32132 -0.48333853 1175 0 0 -1 0
-4.6204786 87.289467 -0.97155935 1148 0 0 -1 0
-4.1328931 87.313911 -0.97155935 1112 0 0 -1 0
-3.6451778 87.335632 -0.97155935 1124 0 0 -1 0
-4.6208706 87.296875 -0.48333853 1174 0 0 -1 0
-3.6454871 87.34304 -0.48333853 1168 0 0 -1 0
4.852735 7.8756824 0.48536098 3886 0 0 -1 0
4.7128081 7.9562411 0.32393149 3765 0 0 -1 0
4.8509464 7.8727798 0.32393149 3801 0 0 -1 0
4.987606 7.7869201 0.32393149 3832 0 0 -1 0
4.7145457 7.9591742 0.48536098 3848 0 0 -1 0
4.9894452 7.7897911 0.48536098 3829 0 0 -1 0
5.4193177 7.4892445 0.23840484 2970 0 0 -1 0
5.283371 7.5763531 0.077124 2896 0 0 -1 0
5.4147925 7.4829912 0.077124 2967 0 0 -1 0
5.5445638 7.3873506 0.077124 2913 0 0 -1 0
5.2877865 7.582684 0.23840484 2950 0 0 -1 0
5.5491977 7.3935242 0.23840484 2942 0 0 -1 0
5.2905908 7.5867057 0.39979586 2967 0 0 -1 0
5.4221916 7.4932165 0.39979586 2945 0 0 -1 0
5.5521407 7.3974452 0.39979586 2922 0 0 -1 0
4.1979361 10.276473 0.46243316 4322 0 0 -1 0
4.0164661 10.344358 0.26871783 4131 0 0 -1 0
4.1963887 10.272685 0.26871783 4116 0 0 -1 0
4.3750329 10.197884 0.26871783 4189 0 0 -1 0
4.0179472 10.348172 0.46243316 4164 0 0 -1 0
4.376646 10.201644 0.46243316 4310 0 0 -1 0
-7.0345025 12.494426 0.42230952 3327 0 0 -1 0
-7.2488155 12.365195 0.17209384 3107 0 0 -1 0
-7.0319099 12.48982 0.17209384 3210 0 0 -1 0
-6.812861 12.610642 0.17209384 3246 0 0 -1 0
-7.2514882 12.369754 0.42230952 3264 0 0 -1 0
-6.8153729 12.615292 0.42230952 3297 0 0 -1 0
-6.9755454 12.527436 0.42230952 3356 0 0 -1 0
-7.1904659 12.399217 0.17209384 3246 0 0 -1 0
-6.9729743 12.52282 0.17209384 3176 0 0 -1 0
-6.7533593 12.642607 0.17209384 3223 0 0 -1 0
-7.1931171 12.403788 0.42230952 3297 0 0 -1 0
-6.7558494 12.647268 0.42230952 3277 0 0 -1 0
-7.4883409 13.300517 0.41084564 10965 0 0 -1 0
-7.7164817 13.16295 0.14448702 10296 0 0 -1 0
-7.4855809 13.295615 0.14448702 10565 0 0 -1 0
-7.2524004 13.424232 0.14448702 10660 0 0 -1 0
-7.7193265 13.167803 0.41084564 10800 0 0 -1 0
-7.2550745 13.429182 0.41084564 10859 0 0 -1 0
-7.4255805 13.335657 0.41084564 10969 0 0 -1 0
-7.654367 13.199165 0.14448702 10660 0 0 -1 0
-7.4228439 13.330743 0.14448702 10358 0 0 -1 0
-7.1890597 13.458259 0.14448702 10506 0 0 -1 0
-7.6571889 13.204032 0.41084564 10859 0 0 -1 0
-7.1917105 13.463221 0.41084564 10739 0 0 -1 0
-1.6389427 18.885042 0.0042827725 492 9.0469189 -104.24491 3.2883425 -5.5199723
-1.9669032 18.840351 -0.32645476 470 10.857251 -103.99821 5.1140046 -5.5199723
-1.6377943 18.871807 -0.32645476 487 9.0405788 -104.17185 5.1140046 -5.5199723
-1.3081862 18.897518 -0.32645476 478 7.2211514 -104.31377 5.1140046 -5.5199723
-1.9682825 18.853563 0.0042827725 475 10.864864 -104.07114 3.2883425 -5.5199723
-1.3091035 18.91077 0.0042827725 482 7.2262149 -104.38693 3.2883425 -5.5199723
-1.9690623 18.861032 0.33520183 490 10.869169 -104.11238 1.4616784 -5.5199723
-1.6395922 18.892525 0.33520183 482 9.0505037 -104.28622 1.4616784 -5.5199723
-1.3096222 18.918262 0.33520183 481 7.2290783 -104.42828 1.4616784 -5.5199723
-1.6392832 18.888964 0.14656165 493 9.0487976 -104.26656 2.5029669 -5.5199723
-1.9675698 18.846737 -0.18426633 490 10.860931 -104.03346 4.3291283 -5.5199723
-1.6383493 18.878202 -0.18426633 482 9.043643 -104.20715 4.3291283 -5.5199723
-1.3086295 18.903923 -0.18426633 481 7.2235985 -104.34913 4.3291283 -5.5199723
-1.3093754 18.914698 0.14656165 484 7.227716 -104.40861 2.5029669 -5.5199723
-1.9692131 18.862478 0.47752771 490 10.870002 -104.12036 0.67604351 -5.5199723
-1.6397177 18.89397 0.47752771 490 9.0511961 -104.2942 0.67604351 -5.5199723
-1.3097225 18.919712 0.47752771 483 7.2296324 -104.43629 0.67604351 -5.5199723
-1.639626 18.892916 0.36499 500 9.0506907 -104.28837 1.2972485 -5.5199723
-1.9683774 18.854471 0.034059644 493 10.865389 -104.07616 3.1239748 -5.5199723
-1.6390218 18.885952 0.034059644 482 9.0473547 -104.24993 3.1239748 -5.5199723
-1.3091666 18.911682 0.034059644 499 7.226563 -104.39196 3.1239748 -5.5199723
-1.9691031 18.861423 0.36499 488 10.869394 -104.11453 1.2972485 -5.5199723
-1.3096493 18.918653 0.36499 495 7.229228 -104.43044 1.2972485 -5.5199723
-1.969229 18.862629 0.69599199 474 10.87009 -104.12119 -0.52987337 -5.5199723
-1.6397309 18.894123 0.69599199 465 9.0512695 -104.29504 -0.52987337 -5.5199723
-1.309733 18.919865 0.69599199 465 7.2296901 -104.43713 -0.52987337 -5.5199723
-1.8016382 50.332787 2.9575346 43 0 0 -1 0
-2.4528174 50.331539 2.3068697 42 0 0 -1 0
-2.4515398 50.305325 2.9575346 41 0 0 -1 0
-1.1514362 50.351856 2.9575346 42 0 0 -1 0
-2.4498534 50.270718 3.6078062 42 0 0 -1 0
-1.8009375 50.31321 3.3442371 45 0 0 -1 0
-2.4521072 50.316963 2.6937928 42 0 0 -1 0
-1.8020551 50.344433 2.6937928 43 0 0 -1 0
-1.1517026 50.36351 2.6937928 43 0 0 -1 0
-2.4505863 50.285759 3.3442371 43 0 0 -1 0
-1.1509883 50.332275 3.3442371 43 0 0 -1 0
-2.4486568 50.246162 3.9942231 44 0 0 -1 0
-1.7995194 50.273594 3.9942231 44 0 0 -1 0
-1.9137825 50.274651 3.915199 46 0 0 -1 0
-2.5648911 50.284309 3.265151 42 0 0 -1 0
-1.9152514 50.31324 3.265151 44 0 0 -1 0
-1.2652924 50.333782 3.265151 44 0 0 -1 0
-2.5629239 50.245743 3.915199 43 0 0 -1 0
-1.2643219 50.295174 3.915199 44 0 0 -1 0
-2.5605288 50.198788 4.5646935 44 0 0 -1 0
-1.9119941 50.227669 4.5646935 44 0 0 -1 0
-1.2631404 50.248177 4.5646935 45 0 0 -1 0
-1.6856244 50.282818 3.915199 46 0 0 -1 0
-2.3366826 50.295433 3.265151 44 0 0 -1 0
-1.6869183 50.321415 3.265151 45 0 0 -1 0
-2.3348904 50.256855 3.915199 44 0 0 -1 0
-1.0360774 50.300392 3.915199 45 0 0 -1 0
-2.3327084 50.209892 4.5646935 45 0 0 -1 0
-1.6840492 50.235832 4.5646935 43 0 0 -1 0
-1.0351092 50.253387 4.5646935 45 0 0 -1 0
-1.6847217 50.255894 4.3014588 47 0 0 -1 0
-2.3356638 50.273506 3.6517265 45 0 0 -1 0
-1.6861829 50.299477 3.6517265 43 0 0 -1 0
-1.0364206 50.317059 3.6517265 45 0 0 -1 0
-2.3336401 50.229942 4.3014588 45 0 0 -1 0
-1.0355226 50.273457 4.3014588 46 0 0 -1 0
-2.3312268 50.177998 4.950573 43 0 0 -1 0
-1.6829795 50.203922 4.950573 43 0 0 -1 0
0.31674856 86.420364 4.3127732 38 0 0 -1 0
-0.18099944 86.420753 4.3127732 35 0 0 -1 0
-0.18095165 86.397934 4.8104577 34 0 0 -1 0
0.31666493 86.397545 4.8104577 35 0 0 -1 0
0.81427097 86.394287 4.8104577 36 0 0 -1 0
0.51282918 86.419426 4.3127732 38 0 0 -1 0
0.015079317 86.398125 4.8104577 35 0 0 -1 0
0.51269376 86.396606 4.8104577 36 0 0 -1 0
1.0102912 86.39222 4.8104577 37 0 0 -1 0
-4.1113744 86.859299 -0.47760659 104 0 0 -1 0
-4.5960317 86.827621 -0.96324426 100 0 0 -1 0
-4.1110258 86.851929 -0.96324426 96 0 0 -1 0
-3.6258912 86.873543 -0.96324426 100 0 0 -1 0
-4.5964217 86.834984 -0.47760659 103 0 0 -1 0
-3.6261988 86.880913 -0.47760659 102 0 0 -1 0
-4.1551127 87.78334 -0.48907048 159 0 0 -1 0
-4.6296248 87.752403 -0.96453756 152 0 0 -1 0
-4.1547732 87.776169 -0.96453756 148 0 0 -1 0
-3.6797996 87.797371 -0.96453756 148 0 0 -1 0
-4.630003 87.759575 -0.48907048 157 0 0 -1 0
-3.6801002 87.804535 -0.48907048 154 0 0 -1 0
5.2941637 8.6800451 0.16320309 476 0 0 -1 0
5.1372313 8.7632065 -0.014171958 419 0 0 -1 0
5.14187 8.7711191 0.16320309 468 0 0 -1 0
5.4448452 8.5863266 0.16320309 463 0 0 -1 0
5.2973266 8.6852303 0.34071118 463 0 0 -1 0
5.4480982 8.5914564 0.34071118 474 0 0 -1 0
5.2737699 8.6943235 0.20224532 476 0 0 -1 0
5.1169529 8.7777052 0.024836421 467 0 0 -1 0
5.2693663 8.6870642 0.024836421 468 0 0 -1 0
5.1212292 8.7850409 0.20224532 462 0 0 -1 0
5.4247026 8.6009598 0.20224532 463 0 0 -1 0
5.1239452 8.7896996 0.37977546 465 0 0 -1 0
5.276567 8.6989346 0.37977546 464 0 0 -1 0
5.4275799 8.6055212 0.37977546 472 0 0 -1 0
-7.3732209 17.47187 0.36499 380 0 0 -1 0
-7.6741943 17.334137 0.034059644 367 0 0 -1 0
-7.3705034 17.465431 0.034059644 369 0 0 -1 0
-7.0645671 17.591404 0.034059644 371 0 0 -1 0
-7.6770239 17.340528 0.36499 377 0 0 -1 0
-7.0671716 17.597891 0.36499 379 0 0 -1 0
-7.6317515 22.808903 0.30193856 330 0 0 -1 0
-8.0257015 22.663879 -0.11777806 322 0 0 -1 0
-7.6289387 22.800495 -0.11777806 325 0 0 -1 0
-7.2298536 22.930166 -0.11777806 318 0 0 -1 0
-8.0286608 22.672235 0.30193856 328 0 0 -1 0
-7.2325191 22.938622 0.30193856 323 0 0 -1 0
4.1426373 36.758686 -0.42680162 50 0 0 -1 0
3.5627518 36.798622 -1.0077105 48 0 0 -1 0
4.1403198 36.738125 -1.0077105 46 0 0 -1 0
4.7168665 36.668556 -1.0077105 46 0 0 -1 0
4.7195067 36.689079 -0.42680162 49 0 0 -1 0
4.1430483 36.762333 -0.28475773 50 0 0 -1 0
4.7176194 36.674408 -0.86574155 49 0 0 -1 0
3.565999 36.832161 0.29644445 49 0 0 -1 0
4.7211657 36.701981 0.29644445 48 0 0 -1 0
4.2328629 36.752098 -0.28475773 50 0 0 -1 0
4.2307506 36.733757 -0.86574155 49 0 0 -1 0
4.8072176 36.662773 -0.86574155 47 0 0 -1 0
4.809618 36.681076 -0.28475773 47 0 0 -1 0
4.2339306 36.761372 0.29644445 48 0 0 -1 0
4.8108315 36.690334 0.29644445 46 0 0 -1 0
4.566236 36.71217 -0.28475773 43 0 0 -1 0
5.1423216 36.635918 -0.28475773 38 0 0 -1 0
4.5673881 36.721432 0.29644445 39 0 0 -1 0
5.1436191 36.645161 0.29644445 39 0 0 -1 0
4.0602522 36.777309 -0.00063288212 52 0 0 -1 0
3.4807613 36.822605 -0.58174127 50 0 0 -1 0
4.0587158 36.763393 -0.58174127 49 0 0 -1 0
4.6356697 36.695103 -0.58174127 50 0 0 -1 0
3.4820788 36.836544 -0.00063288212 50 0 0 -1 0
4.6374245 36.708992 -0.00063288212 50 0 0 -1 0
3.482537 36.841393 0.58062387 50 0 0 -1 0
4.0607867 36.78215 0.58062387 50 0 0 -1 0
4.6380348 36.713825 0.58062387 48 0 0 -1 0
4.2335153 36.757767 -0.00063288212 50 0 0 -1 0
4.2319136 36.743858 -0.58174127 48 0 0 -1 0
4.8085394 36.672852 -0.58174127 46 0 0 -1 0
4.8103595 36.686733 -0.00063288212 49 0 0 -1 0
3.6561089 36.824574 0.58062387 48 0 0 -1 0
4.2340727 36.762604 0.58062387 48 0 0 -1 0
4.8109927 36.691563 0.58062387 47 0 0 -1 0
